# This PCD file was generated using the MATLAB® pcwrite function
# from Computer Vision System Toolbox®.
# .PCD v.7 - Point Cloud Data file format
VERSION .7
FIELDS x y z
SIZE 4 4 4
TYPE F F F
COUNT 1 1 1
WIDTH 738
HEIGHT 1
VIEWPOINT 0 0 0 1 0 0 0
POINTS 738
DATA ascii
44.497837 -46.397385 13.564301
44.353416 -46.382889 13.263765
43.933502 -46.422749 13.279142
42.938705 -46.578545 13.980803
43.351875 -45.960297 13.014753
42.839916 -46.555946 13.638319
43.048454 -45.979439 12.905029
44.821049 -45.577156 10.735935
51.041077 -44.836075 3.137329
42.670502 -46.015926 12.891195
45.051514 -45.414032 9.383560
45.428371 -45.883156 8.918150
44.742653 -45.428936 9.229326
45.516499 -45.812702 8.243576
44.456921 -45.438507 9.046635
45.234459 -45.819469 8.038755
44.980930 -45.254562 7.779652
44.986328 -45.818943 7.788761
45.964161 -44.955482 5.846218
44.647736 -45.837925 7.660654
50.288521 -44.611187 -0.034870
44.892181 -45.151638 6.706078
49.748516 -44.661381 -0.023823
43.825916 -45.350536 7.598324
49.193848 -44.715729 0.017921
43.701859 -45.318348 7.172058
48.664764 -44.765320 0.033707
43.455196 -45.316162 6.917416
48.115868 -44.820301 0.088505
43.271755 -45.297516 6.565731
47.468998 -44.224583 0.272751
47.614151 -44.865452 0.083851
44.249435 -44.977829 4.433399
44.288673 -45.568165 4.400356
43.827499 -45.016548 4.406170
43.850536 -45.607761 4.398552
43.248676 -45.097492 4.635010
43.393047 -45.652668 4.435284
42.998138 -45.092056 4.348846
43.000557 -45.682739 4.376022
42.544373 -45.141380 4.394775
42.567665 -45.723148 4.388817
42.133560 -45.179813 4.377792
42.156982 -45.758801 4.372337
41.724152 -45.218513 4.365284
41.747704 -45.794724 4.360336
41.296577 -45.263016 4.391651
41.320210 -45.835892 4.387264
40.909706 -45.296696 4.353611
40.914169 -45.872314 4.384312
40.466766 -45.347198 4.423908
40.471573 -45.918915 4.455391
40.082714 -45.381378 4.394459
40.125504 -45.940952 4.356571
39.699677 -45.415821 4.369019
39.687038 -45.987995 4.436859
39.317688 -45.450516 4.347576
39.346661 -46.009354 4.336716
39.172539 -46.585155 4.341724
38.901272 -45.496399 4.400944
38.925804 -46.053127 4.399441
38.752842 -46.625549 4.407188
38.761478 -47.181385 4.437733
38.526508 -45.530201 4.378841
38.551250 -46.084839 4.377758
38.448795 -46.637924 4.244877
38.418880 -47.202381 4.356293
38.182762 -45.554729 4.298065
38.272285 -46.089920 4.163097
37.968170 -46.694981 4.453232
37.994865 -47.241570 4.448906
37.767460 -45.602604 4.373077
37.775719 -46.157513 4.408783
37.626713 -46.717613 4.378819
37.624275 -47.269646 4.437927
37.379601 -45.642529 4.398613
37.404907 -46.189919 4.398830
37.235916 -46.753414 4.416290
37.267181 -47.295151 4.403549
37.017799 -45.674561 4.373959
37.043358 -46.220131 4.374554
36.863209 -46.785126 4.421547
36.878410 -47.328350 4.445496
36.613201 -45.721630 4.452801
36.622940 -46.268688 4.490292
36.476044 -46.821320 4.467113
36.507500 -47.358025 4.455013
36.261810 -45.751411 4.417538
36.287758 -46.292099 4.418995
36.137405 -46.844936 4.406868
36.153526 -47.384216 4.431641
35.888180 -45.789467 4.440617
35.899036 -46.332577 4.479130
35.753387 -46.881523 4.460136
35.769905 -47.417995 4.485386
35.504967 -45.831711 4.495071
35.535023 -46.366043 4.488194
35.401199 -46.909840 4.443630
35.421928 -47.443699 4.460022
35.171314 -45.856842 4.433739
35.197968 -46.391380 4.436321
35.035336 -46.942585 4.467617
35.052788 -47.475105 4.493660
34.819893 -45.888866 4.421776
34.846817 -46.421719 4.424702
34.688774 -46.970291 4.448860
34.706726 -47.501251 4.475262
34.455437 -45.926392 4.450378
34.454594 -46.466469 4.528038
34.322163 -47.004467 4.489391
34.330105 -47.535744 4.544205
34.106194 -45.958836 4.445423
34.119946 -46.492477 4.486359
33.977657 -47.032593 4.477535
33.996552 -47.559601 4.504704
33.744637 -45.996735 4.481236
33.785625 -46.518738 4.447842
33.630676 -47.061966 4.478390
33.650070 -47.587273 4.505909
33.423630 -46.019119 4.408237
33.438648 -46.549915 4.450008
33.268608 -47.096687 4.529678
33.304619 -47.615154 4.510487
33.051811 -46.062622 4.488533
33.080025 -46.585953 4.493198
32.927273 -47.125420 4.527969
32.947617 -47.646767 4.556221
32.719303 -46.090675 4.459526
32.735493 -46.617508 4.502205
32.596046 -47.151299 4.501152
32.629219 -47.667984 4.491787
32.387238 -46.118961 4.433636
32.404091 -46.644646 4.476677
32.265282 -47.177410 4.477436
32.298668 -47.692966 4.468254
32.032360 -46.157784 4.486691
32.064400 -46.675457 4.482735
33.103989 -46.796280 0.611160
33.211952 -47.345901 0.369339
31.758480 -46.160824 4.277103
32.904247 -46.231430 0.541363
32.830505 -46.792759 0.277916
32.846764 -47.373482 0.341087
32.565617 -45.659496 0.304886
32.617420 -46.229401 0.247601
32.440342 -46.830750 0.338795
32.479298 -47.402176 0.325794
32.202572 -45.689602 0.271423
32.227493 -46.269890 0.309906
32.078602 -46.858971 0.307552
30.004845 -48.109577 7.938959
29.693712 -46.775867 8.220514
29.752880 -47.220684 8.107826
29.795406 -47.629429 7.501556
29.666798 -48.147305 8.093372
29.418800 -46.793236 8.145575
29.424725 -47.261696 8.234640
29.467886 -47.665936 7.609545
29.391823 -48.164787 8.019693
29.126406 -46.819668 8.140398
29.162415 -47.273663 8.114202
29.035370 -47.746475 8.155539
29.116234 -48.182533 7.948418
28.839235 -46.843777 8.118635
28.830908 -47.318222 8.276066
28.772182 -47.759529 8.038624
28.830780 -48.203873 7.918312
28.554567 -46.866848 8.089815
28.484865 -47.371635 8.518764
28.420948 -47.810570 8.302282
28.574459 -48.214668 7.764517
28.129978 -46.970745 8.693153
28.122021 -47.435963 8.862129
28.085615 -47.856686 8.521069
28.279543 -48.239792 7.778219
27.861435 -46.987694 8.622179
27.849060 -47.456219 8.820711
27.805979 -47.878849 8.499815
28.030844 -48.247131 7.580132
27.572371 -47.017193 8.650766
27.565952 -47.482147 8.830399
27.487198 -47.920197 8.676250
27.749582 -48.267040 7.530491
27.271059 -47.055393 8.750231
27.283556 -47.508244 8.842682
27.160751 -47.967163 8.914547
27.441505 -48.298450 7.620325
27.013735 -47.065659 8.628151
27.020157 -47.523712 8.759827
26.864117 -48.000896 9.019096
27.099377 -48.345898 7.909157
26.730576 -47.093204 8.645052
26.736656 -47.551258 8.786894
26.603994 -48.016060 8.930319
26.802393 -48.374954 7.975700
26.461334 -47.111267 8.586206
26.465691 -47.571480 8.747927
26.383389 -48.008385 8.598152
26.453060 -48.430046 8.369535
26.171282 -47.145168 8.657164
26.210196 -47.581326 8.613152
26.140507 -48.470005 8.579954
25.902035 -47.163654 8.603174
25.909756 -47.622089 8.765635
25.873051 -48.488220 8.517321
25.622562 -47.190693 8.620344
25.633362 -47.647121 8.773315
25.510433 -48.107651 8.903206
25.588367 -48.515900 8.575497
25.386654 -47.178959 8.315151
25.365360 -47.666077 8.724316
25.242598 -48.127640 8.865471
25.275366 -48.561180 8.863674
25.086349 -47.225296 8.494661
25.090748 -47.690449 8.726995
24.978045 -48.145180 8.800409
24.990662 -48.591934 8.966892
24.842487 -47.216743 8.213263
24.816534 -47.714996 8.732119
24.701614 -48.171848 8.836611
24.712570 -48.619740 9.033110
24.566988 -47.238914 8.190550
24.550104 -47.732571 8.670429
24.446280 -48.640228 9.002666
24.285685 -47.268223 8.229576
24.279041 -47.754467 8.650644
24.164713 -48.213364 8.777597
24.018364 -47.280464 8.122677
24.003523 -47.781620 8.682779
23.913862 -48.681145 8.938812
23.736958 -47.311279 8.176510
23.737555 -47.797897 8.608271
23.625408 -48.257484 8.747818
23.641417 -48.707344 8.984941
23.471313 -47.318420 8.024717
23.470528 -47.814465 8.536045
23.357088 -48.278152 8.716589
23.403650 -48.698696 8.545908
23.187460 -47.355236 8.133020
23.201845 -47.832310 8.476044
23.084908 -48.304123 8.747377
23.112255 -48.745270 8.875372
22.919237 -47.363003 7.985867
22.935516 -47.844547 8.358742
22.817968 -48.322693 8.690992
22.839109 -48.774773 8.968472
22.625654 -47.430099 8.367193
22.663309 -47.865906 8.333189
22.545662 -48.350677 8.746447
22.576708 -48.789787 8.854704
22.350348 -47.460388 8.423489
22.391180 -47.886524 8.300064
22.278074 -48.369713 8.694740
22.307724 -48.814754 8.882774
22.078768 -47.479816 8.382849
22.119705 -47.903553 8.229504
22.009478 -48.389832 8.655313
22.041882 -48.833088 8.813469
21.802107 -47.527843 8.602983
21.846563 -47.923737 8.191153
21.739996 -48.411819 8.638157
21.773951 -48.855743 8.806324
21.531975 -47.543259 8.527357
21.573738 -47.935680 8.065584
21.469973 -48.438046 8.673191
21.505592 -48.881924 8.851404
21.260639 -47.598774 8.821938
21.298624 -47.963001 8.101675
21.200100 -48.443756 8.451403
21.237822 -48.887249 8.579525
20.991964 -47.623077 8.830578
21.023594 -47.983036 8.060516
20.928234 -48.463383 8.401432
20.970125 -48.925591 8.808899
20.720860 -47.631664 8.692429
20.748049 -48.004257 8.031715
20.656496 -48.487183 8.403671
20.702448 -48.949696 8.821087
20.453114 -47.663822 8.775362
20.480511 -48.056812 8.343792
20.380589 -48.499615 8.258791
20.433374 -48.970184 8.775749
20.182634 -47.683521 8.741344
20.208319 -48.081902 8.359564
20.110607 -48.530045 8.345518
20.164570 -48.992825 8.762693
19.912407 -47.705551 8.729574
19.940617 -48.116158 8.477209
19.829369 -48.539383 8.155672
19.893734 -49.013222 8.712105
19.645067 -47.733986 8.779764
19.669310 -48.140644 8.487740
19.559935 -48.570179 8.247154
19.623022 -49.035126 8.683836
19.371838 -47.751316 8.723055
19.398123 -48.165325 8.500639
19.276937 -48.583279 8.102091
19.349897 -49.055485 8.628059
19.099623 -47.771988 8.698536
19.124342 -48.186703 8.476156
19.005621 -48.611477 8.158524
19.069382 -49.070801 8.485083
18.827658 -47.793922 8.686329
18.870064 -48.230873 8.712326
18.725548 -48.631107 8.098005
18.791790 -49.090664 8.414314
18.553614 -47.814098 8.656691
18.612064 -48.267147 8.861246
18.451393 -48.656792 8.119463
18.510202 -49.109127 8.316191
18.278908 -47.834541 8.629480
18.336699 -48.285534 8.804031
18.177452 -48.682663 8.143312
18.241196 -49.136517 8.369675
18.005642 -47.857216 8.624495
18.066349 -48.309288 8.808748
17.921797 -48.720619 8.338173
17.941460 -49.147209 8.127613
17.732103 -47.880127 8.621923
17.756809 -48.304066 8.469259
17.634895 -48.737736 8.237823
17.681610 -49.180088 8.275284
17.389055 -47.848301 8.058664
17.447155 -48.303764 8.182272
17.342323 -48.753201 8.110397
17.389893 -49.197712 8.147627
17.102304 -47.866413 8.002291
17.152899 -48.317265 8.056429
17.078983 -48.785309 8.223042
17.112720 -49.222748 8.151373
16.839291 -47.901913 8.125961
16.889210 -48.350632 8.170248
16.789211 -48.804138 8.140337
16.839535 -49.249599 8.187243
16.539848 -47.913025 7.995821
16.587765 -48.362427 8.020054
16.527565 -48.836502 8.257620
16.553368 -49.271957 8.136610
16.290855 -47.956242 8.202848
16.331383 -48.399273 8.178003
16.229774 -48.853325 8.140608
16.286379 -49.301285 8.216810
15.977706 -47.961548 8.009193
16.023533 -48.410240 8.013494
15.956250 -48.880848 8.183849
15.994028 -49.322685 8.141695
15.728342 -48.003056 8.201048
15.750299 -48.438789 8.068014
15.663883 -48.901592 8.121395
15.741728 -49.356297 8.305355
15.411121 -48.009201 8.012987
15.475851 -48.466724 8.115097
15.382908 -48.927059 8.130333
15.426275 -49.372437 8.117498
15.135885 -48.037434 8.062687
15.171598 -48.482716 8.007929
15.109383 -48.955223 8.180962
15.175875 -49.406284 8.285742
14.839252 -48.056080 8.007431
14.918415 -48.519363 8.167580
14.802223 -48.973263 8.067751
14.864193 -49.425152 8.142756
14.555735 -48.081234 8.023146
14.605769 -48.533798 8.036533
14.544943 -49.006683 8.201534
14.576620 -49.450489 8.129856
14.289301 -48.113579 8.119217
14.346184 -48.567730 8.161783
14.237309 -49.026020 8.103596
14.294863 -49.477463 8.148851
13.979233 -48.128807 8.023388
14.037010 -48.585102 8.065580
13.974974 -49.057957 8.212843
14.001720 -49.502472 8.121708
13.722844 -48.164917 8.163090
13.748825 -48.610046 8.069403
13.655409 -49.075722 8.081678
13.740273 -49.533833 8.233307
13.379164 -48.169880 7.947145
13.452997 -48.633152 8.046806
13.362202 -49.100735 8.069906
13.407729 -49.552605 8.056257
13.096068 -48.197189 7.985626
13.146309 -48.653797 7.988335
13.098415 -49.132668 8.176826
13.174132 -49.588909 8.279240
12.823403 -48.228001 8.065149
12.904816 -48.692654 8.183462
12.773576 -49.151665 8.054569
12.819747 -49.605705 8.040640
12.514256 -48.247543 8.012569
12.568020 -48.706409 8.024538
12.518435 -49.185574 8.195305
12.538048 -49.634674 8.085096
12.250295 -48.281170 8.125868
12.282576 -48.734100 8.061010
12.179407 -49.203270 8.040636
12.264772 -49.665009 8.160900
11.905594 -48.291786 7.964201
11.983047 -48.758720 8.052204
11.885492 -49.230305 8.052221
11.943973 -49.689102 8.076193
11.621539 -48.320324 8.015877
11.662408 -48.779121 7.979399
11.611652 -49.261150 8.133373
11.694038 -49.722813 8.233643
11.319733 -48.344398 8.013056
11.423429 -48.817856 8.176418
11.287293 -49.283714 8.055046
11.350095 -49.745102 8.088049
10.995626 -48.363415 7.946722
11.064456 -48.831333 7.995352
11.025932 -49.316952 8.179407
11.039953 -49.772152 8.060154
10.748713 -48.401833 8.120050
10.780399 -48.860977 8.054909
10.689688 -49.338814 8.078690
10.769791 -49.803963 8.158516
10.380778 -48.411762 7.936974
10.480478 -48.887768 8.069811
10.390104 -49.366798 8.094748
10.455100 -49.831295 8.126890
10.095397 -48.441605 8.002344
10.153537 -48.910038 8.012234
10.116792 -49.398735 8.188955
10.195741 -49.864433 8.258570
9.806960 -48.470913 8.060926
9.902954 -48.946350 8.173853
9.762102 -49.420055 8.060329
9.828656 -49.887733 8.091785
9.459402 -48.488190 7.963303
9.536096 -48.962891 8.019321
9.488555 -49.452484 8.160019
9.513793 -49.916496 8.078871
9.202180 -48.524475 8.111483
9.215572 -48.988087 7.999369
9.147719 -49.476906 8.084940
9.255096 -49.950256 8.218416
8.855366 -48.543274 8.029694
8.973964 -49.026035 8.187134
8.812064 -49.502659 8.032009
8.895571 -49.976227 8.099611
8.517455 -48.564663 7.979309
8.578415 -49.040730 7.987602
8.553373 -49.537460 8.177031
8.563015 -50.004955 8.058882
8.273119 -48.603539 8.162891
8.292587 -49.072475 8.069563
8.192863 -49.561531 8.075016
8.309032 -50.039589 8.215584
7.894755 -48.618885 8.026836
7.987851 -49.101742 8.108118
7.872679 -49.590454 8.078058
7.943799 -50.066975 8.107386
7.540900 -48.639511 7.959049
7.615471 -49.122391 7.993774
7.615449 -49.625805 8.230886
7.623484 -50.097843 8.113245
7.282186 -48.676292 8.113867
7.296736 -49.150841 8.011381
7.229650 -49.649372 8.093765
7.318529 -50.129993 8.158865
6.888774 -48.691936 7.971060
7.022655 -49.185158 8.132227
6.890273 -49.677925 8.070097
6.963736 -50.159763 8.098211
6.563466 -48.719009 7.986523
6.661439 -49.209232 8.065166
6.617114 -49.712502 8.194847
6.657458 -50.192577 8.150167
6.288871 -48.753895 8.113396
6.285182 -49.232388 7.974953
6.220176 -49.737343 8.060448
6.368216 -50.226463 8.241199
5.897445 -48.772377 8.000359
6.015244 -49.267963 8.113607
5.881229 -49.767487 8.056334
5.952696 -50.255001 8.074162
5.547434 -48.797527 7.981117
5.635721 -49.292049 8.030827
5.639297 -49.805065 8.252499
5.648894 -50.289013 8.144794
5.272890 -48.833176 8.116846
5.271705 -49.318539 7.987925
5.208950 -49.829617 8.076521
5.340673 -50.323097 8.209436
4.889107 -48.854980 8.042358
4.997625 -49.354393 8.126431
4.843674 -49.859463 8.038652
4.940338 -50.354237 8.099585
4.502861 -48.877369 7.972170
4.589405 -49.377796 8.011173
4.551680 -49.894444 8.145969
4.588436 -50.387695 8.091539
4.195047 -48.909882 8.055555
4.263407 -49.409496 8.058920
4.222181 -49.927368 8.185732
4.339878 -50.424683 8.280729
3.863298 -48.939880 8.098230
3.970762 -49.444401 8.171223
3.795210 -49.955261 8.054014
3.914516 -50.456852 8.148029
3.472149 -48.963734 8.039948
3.561300 -49.469830 8.077211
3.443476 -49.988037 8.066578
3.544540 -50.491207 8.124924
3.078712 -48.988167 7.986088
3.143969 -49.495537 7.979298
3.190643 -50.026192 8.256048
3.212778 -50.526936 8.175245
2.819626 -49.027225 8.169174
2.834694 -49.530319 8.075996
2.736868 -50.054840 8.102985
2.860350 -50.562603 8.194490
2.367313 -49.046940 8.028866
2.500160 -49.563477 8.132805
2.340893 -50.087048 8.058310
2.465858 -50.597973 8.148872
1.947672 -49.070953 7.953705
2.056128 -49.589386 8.013813
1.942791 -50.119831 8.018164
2.069237 -50.633919 8.107775
1.572876 -49.100033 7.959753
1.682451 -49.620968 8.019045
1.669703 -50.158157 8.186102
1.733915 -50.671265 8.173113
1.293171 -49.138199 8.121704
1.302114 -49.652683 8.019962
1.247774 -50.191059 8.120275
1.371546 -50.708645 8.199717
0.862831 -49.163353 8.051361
1.001625 -49.689838 8.151110
0.823275 -50.224617 8.059439
0.932199 -50.745792 8.112707
0.446314 -49.190556 8.011147
-0.598959 -49.103546 6.426903
0.553707 -49.718548 8.059616
0.418314 -50.259537 8.036989
0.528406 -50.783913 8.089453
0.038748 -49.219269 7.992384
-5.044540 -48.811134 0.431427
0.102716 -49.747997 7.973555
0.078512 -50.297009 8.118734
0.122723 -50.822609 8.070875
-0.365023 -49.248989 7.986570
-5.519558 -48.849945 0.461388
-0.272394 -49.782360 8.008554
-0.284037 -50.334179 8.171051
-0.171888 -50.862194 8.222088
-0.661823 -49.287361 8.141077
-5.773016 -48.905975 0.816196
-0.665567 -49.816303 8.023083
-0.738909 -50.369442 8.096216
-0.602636 -50.901791 8.179163
-1.090660 -49.316311 8.111065
-5.767595 -48.980080 1.530819
-0.984962 -49.854362 8.148127
-1.173449 -50.405972 8.059523
-1.012541 -50.942017 8.174011
-5.722469 -49.055050 2.282932
-1.420759 -49.887306 8.114218
-3.113247 -50.411594 5.955940
-2.994068 -50.986919 6.001617
-3.543663 -49.270199 5.910831
-3.444855 -49.852127 5.926361
-3.498840 -50.453465 6.039280
-3.378626 -51.030884 6.084194
-3.907427 -49.309616 6.029839
-3.801926 -49.893364 6.052784
-3.860735 -50.496136 6.158787
-3.763529 -51.075241 6.170952
-4.246668 -49.350838 6.184402
-4.116217 -49.936543 6.238579
-4.222380 -50.539120 6.282078
-4.100210 -51.119614 6.325508
-4.664862 -49.387554 6.239815
-4.551655 -49.975353 6.269310
-4.632917 -50.581757 6.346077
-4.509672 -51.164898 6.388668
-5.052940 -49.426529 6.339169
-4.938864 -50.016441 6.367908
-4.994488 -50.625427 6.477394
-4.845463 -51.209835 6.550598
-5.434927 -49.466232 6.450546
-5.301210 -50.058723 6.501915
-5.380819 -50.669159 6.581402
-5.255598 -51.255932 6.622429
-5.829599 -49.505634 6.550621
-5.720125 -50.099567 6.570087
-5.767279 -50.713268 6.689655
-5.666403 -51.302494 6.698936
-6.218084 -49.545757 6.662746
-6.082241 -50.142540 6.712227
-6.179489 -50.757603 6.771507
-6.052208 -51.349117 6.810848
-6.600145 -49.586567 6.786766
-6.463266 -50.185291 6.835316
-6.540396 -50.802620 6.918968
-6.438053 -51.396114 6.927032
-7.014776 -49.626228 6.877174
-6.876814 -50.227581 6.924709
-6.953163 -50.847786 7.009815
-6.850039 -51.443966 7.017227
-7.383650 -49.668369 7.024837
-7.271065 -50.270782 7.041397
-7.339939 -50.893433 7.135403
-7.209684 -51.491219 7.172234
-7.818747 -49.708027 7.102028
-7.658701 -50.314510 7.169956
-7.746653 -50.939453 7.242966
-7.622044 -51.539890 7.271469
-8.234406 -49.749001 7.206497
-8.100002 -50.357563 7.243622
-8.160349 -50.985912 7.347797
-8.034777 -51.589008 7.375458
-8.623196 -49.791447 7.345085
-8.481056 -50.402222 7.388626
-8.553932 -51.032745 7.479401
-8.447828 -51.638569 7.484238
-9.066652 -49.832279 7.429848
-8.930273 -50.446129 7.465004
-8.995501 -51.080200 7.564594
-8.861147 -51.688572 7.597815
-9.455435 -49.875523 7.577585
-9.338865 -50.491169 7.590130
-9.437780 -51.128178 7.655073
-9.267761 -51.738823 7.723410
-9.934723 -49.916187 7.636734
-9.754486 -50.536533 7.712812
-9.852734 -51.176449 7.779446
-9.681396 -51.789684 7.846554
-10.344755 -49.959621 7.772709
-10.198383 -50.582027 7.811922
-10.267786 -51.225147 7.908663
-10.130362 -51.842007 7.939054
-10.790276 -50.002441 7.878286
-10.642845 -50.628033 7.916374
-10.675770 -51.274193 8.049763
-10.516054 -51.892910 8.100321
-11.236294 -50.045769 7.989235
-11.087807 -50.674549 8.026186
-11.119522 -51.324085 8.160795
-11.015907 -51.947788 8.154400
-11.675510 -50.089787 8.112465
-11.533215 -50.721569 8.141378
-11.585415 -51.374783 8.256514
-11.502697 -52.002869 8.228672
-12.238930 -50.131355 8.124666
-12.088203 -50.768585 8.159142
-12.329350 -51.430225 8.098244
-12.179970 -52.065037 8.131075
-12.951565 -50.170528 8.008739
-12.799427 -50.815933 8.041578
-13.041630 -51.486435 7.984459
-12.890678 -52.129421 8.015831
-13.668659 -50.210964 7.902847
-13.544712 -50.864494 7.907141
-14.989933 -52.245544 6.654228
-15.763973 -50.226803 6.583385
-15.636921 -50.914051 6.583836
-15.906635 -51.629745 6.518242
-15.720154 -52.314426 6.571224
-16.590481 -50.270138 6.430664
-16.432091 -50.967236 6.455971
-16.710468 -51.693115 6.388065
-16.552151 -52.388344 6.412853
-17.422337 -50.314976 6.289852
-17.232162 -51.021832 6.339478
-17.511673 -51.757759 6.275955
-17.328979 -52.461361 6.318718
-18.289951 -50.360870 6.135204
-18.098015 -51.078079 6.182701
-18.378719 -51.825195 6.123745
-18.224621 -52.540413 6.138805
-19.155376 -50.408436 5.999538
-18.969383 -51.135899 6.038506
-20.736931 -51.929806 4.752804
-21.491341 -51.947884 4.127552
-20.878227 -52.694763 4.514915
-23.675404 -50.416374 2.899078
-26.314743 -51.238068 0.611267
-21.896645 -52.009254 4.417919
-21.155624 -52.751842 4.901550
-23.671726 -50.480923 3.545750
-27.179935 -51.307377 0.598904
-22.612362 -52.079071 4.462887
-22.676434 -52.863873 4.289410
-23.738758 -50.543888 4.127766
-28.224861 -50.506054 0.595413
-27.986042 -51.377483 0.648296
-22.868946 -52.918507 4.759426
-28.885113 -50.570324 0.774384
-28.470966 -51.445389 0.960194
-28.458794 -52.348198 1.179714
-23.514812 -52.993969 4.875221
-28.869072 -50.639221 1.476128
-28.484947 -51.508110 1.635334
-26.398403 -52.343285 3.424934
-26.165974 -53.165009 3.474865
-23.073982 -50.732021 6.480431
-26.986141 -51.550358 3.434601
-27.157528 -52.420208 3.505840
-26.955315 -53.251022 3.529835
-23.100857 -50.791035 7.054710
-27.691486 -51.619450 3.564095
-27.926807 -52.498489 3.591385
-27.682713 -53.335041 3.643185
-23.056149 -50.849403 7.673727
-28.333271 -51.688484 3.750011
-28.194710 -52.561207 4.049145
-27.965820 -53.397659 4.087830
-23.102032 -50.906818 8.220324
-28.753925 -50.904705 4.227512
-28.420757 -51.749073 4.337669
-28.245922 -52.616463 4.658657
-27.967556 -53.445915 4.730949
-23.659428 -50.964027 8.406309
-28.452518 -51.808121 4.958473
-28.175205 -52.666916 5.346069
-27.937248 -53.492012 5.388557
-27.734222 -51.852295 6.084877
21.073092 -50.935108 39.453453
21.027506 -50.938320 39.432724
21.043978 -50.937469 39.444260
21.016098 -50.935566 39.432510
20.998825 -50.940590 39.422878
21.024244 -50.939144 39.438938
21.049585 -50.934315 39.454815
21.032101 -50.938824 39.445534
21.048668 -50.934555 39.456680
21.102674 -50.934261 39.482979
21.011778 -50.936695 39.441200
21.066065 -50.936893 39.466988
21.037848 -50.935524 39.456177
21.020151 -50.940231 39.447353
21.055084 -50.934784 39.466511
21.073515 -50.936703 39.474636
21.018217 -50.940769 39.451618