# This PCD file was generated using the MATLAB® pcwrite function
# from Computer Vision System Toolbox®.
# .PCD v.7 - Point Cloud Data file format
VERSION .7
FIELDS x y z
SIZE 4 4 4
TYPE F F F
COUNT 1 1 1
WIDTH 959
HEIGHT 1
VIEWPOINT 0 0 0 1 0 0 0
POINTS 959
DATA ascii
5.979372 31.747555 -0.610180
5.912030 31.128906 -0.553011
6.519016 31.000099 -0.511461
5.856072 30.641991 -0.613159
6.452155 30.450125 -0.508133
5.761797 29.697186 -0.208748
6.382773 29.874422 -0.469263
5.702233 29.161034 -0.195612
6.282045 28.994286 -0.109507
5.681689 29.092569 -0.656061
6.236902 28.649128 -0.282146
5.638270 28.750046 -0.835421
6.197363 28.358145 -0.508919
5.569087 28.093067 -0.675549
6.152762 28.017847 -0.681799
5.510557 27.562674 -0.638910
6.090893 27.508310 -0.667095
5.458427 27.108692 -0.676863
6.034856 27.054605 -0.705122
5.412945 26.735706 -0.798851
5.993168 26.741186 -0.894489
5.371702 26.415201 -0.976856
5.942106 26.334965 -0.975239
5.324717 26.022232 -1.068140
5.889233 25.909986 -1.028444
5.254612 25.333965 -0.803354
5.837213 25.492552 -1.084206
5.199858 24.836859 -0.752153
5.771429 24.936537 -0.965572
5.153824 24.449657 -0.826406
5.715009 24.472490 -0.948164
5.108884 24.075562 -0.911829
5.660182 24.023121 -0.940601
5.064989 23.714209 -1.008766
5.606899 23.588087 -0.943251
5.017040 23.298210 -1.030476
5.560490 23.221725 -1.027740
4.969341 22.883684 -1.047262
5.508887 22.801668 -1.036407
4.917937 22.417082 -0.986958
5.449457 22.300127 -0.927731
4.858785 21.841480 -0.767469
5.408223 21.984211 -1.062994
4.821071 21.556414 -0.938362
5.341766 21.406719 -0.829334
4.785700 21.304552 -1.155632
5.284394 20.920933 -0.710602
4.742456 20.942793 -1.214561
5.261084 20.789671 -1.095831
4.697776 20.559263 -1.236427
5.215371 20.424318 -1.141710
4.650634 20.138269 -1.195696
5.172422 20.087372 -1.225176
5.577164 19.072123 -0.078033
4.609440 19.801474 -1.275530
5.058983 18.999514 -0.149530
5.124937 19.701593 -1.229734
5.546306 18.848372 -0.308931
6.123583 19.307327 -1.132624
4.517154 18.705391 -0.164951
4.563599 19.394842 -1.242397
5.043097 18.946795 -0.648855
5.565319 19.042063 -1.205435
6.060731 18.856668 -1.020147
4.496202 18.660912 -0.679750
5.021370 18.833933 -1.064835
5.499332 18.524427 -0.978069
6.006025 18.461721 -0.987057
4.462277 18.425570 -0.898148
4.972420 18.428061 -1.012871
5.453193 18.172474 -1.008698
5.951640 18.068842 -0.949390
4.418753 18.043247 -0.875172
4.923361 18.019417 -0.947599
5.405406 17.806162 -1.009758
5.909480 17.759293 -1.044521
4.381658 17.759512 -1.011267
4.877923 17.648878 -0.937763
5.354873 17.416161 -0.963614
5.855594 17.369492 -0.998516
4.340405 17.409605 -1.032347
4.834095 17.294931 -0.949732
5.307019 17.048147 -0.947670
5.799874 16.967110 -0.922014
4.299333 17.060724 -1.049660
4.791350 16.952013 -0.975229
5.266329 16.740231 -1.032207
5.763822 16.698435 -1.076111
4.256100 16.673975 -0.993374
4.753516 16.663370 -1.093147
5.227922 16.451370 -1.148720
5.719191 16.371113 -1.122746
4.216610 16.347031 -1.037956
4.708884 16.297621 -1.067928
5.182805 16.105186 -1.156929
5.674669 16.044308 -1.165995
4.177233 16.020624 -1.079168
4.669049 15.985303 -1.135664
5.137882 15.760159 -1.161432
5.627529 15.699553 -1.170513
4.139020 15.713340 -1.152443
4.630071 15.682340 -1.218002
5.091021 15.398067 -1.126730
5.577897 15.337804 -1.135822
4.097819 15.351301 -1.115948
4.584467 15.301939 -1.146105
5.046542 15.055775 -1.123732
5.531200 14.995784 -1.132835
4.056906 14.991131 -1.075483
4.540375 14.937428 -1.096741
5.002271 14.714756 -1.117094
5.479494 14.619888 -1.054533
4.018139 14.668128 -1.102873
4.500297 14.618884 -1.133131
4.958213 14.375044 -1.106844
5.433301 14.281069 -1.043985
3.980167 14.358816 -1.153999
4.459611 14.292265 -1.148268
4.914372 14.036678 -1.092997
5.389851 13.960546 -1.065994
3.941004 14.024266 -1.147778
4.418383 13.958070 -1.141941
4.866891 13.666270 -1.003002
5.349023 13.657417 -1.121025
3.901041 13.670092 -1.092638
4.375663 13.604334 -1.086679
4.823580 13.331332 -0.981752
5.303369 13.321801 -1.100224
3.862718 13.346637 -1.097519
4.334239 13.264894 -1.054968
4.784193 13.030008 -1.030144
5.257944 12.987638 -1.075893
3.822770 12.984026 -1.007532
4.293386 12.931078 -1.028833
4.739908 12.685558 -0.974625
5.208625 12.627501 -0.983810
3.786245 12.694869 -1.079018
4.254920 12.626199 -1.063578
4.700332 12.381722 -1.007566
5.167799 12.323803 -1.016764
3.747353 12.347663 -1.009407
4.212391 12.267998 -0.966127
4.659559 12.066982 -1.009789
5.023018 11.331892 0.645546
3.710119 12.036650 -1.019411
4.175694 11.983909 -1.040752
4.543426 11.086962 0.661612
4.613914 11.708776 -0.897484
4.980415 11.017984 0.689510
3.672753 11.719049 -1.007744
4.132648 11.614894 -0.898968
4.503254 10.774146 0.708738
4.961605 10.860662 0.336315
3.621018 10.986887 0.079256
4.047931 10.677195 0.729826
4.484053 10.647124 0.273232
4.963071 10.835464 -0.380743
3.578879 10.486548 0.615353
4.013661 10.412313 0.660112
4.471759 10.582603 -0.349737
4.932011 10.595698 -0.546482
3.543481 10.172482 0.679270
3.986937 10.253598 0.301798
4.434441 10.295333 -0.381294
4.886806 10.263225 -0.456394
3.515464 10.113237 0.040400
3.947650 9.918414 0.424366
4.381082 9.863322 0.004974
4.839935 9.920054 -0.325060
3.481101 9.846325 -0.033010
3.923239 9.798930 -0.063484
4.350787 9.638146 -0.190193
4.801902 9.634332 -0.350885
3.446636 9.575737 -0.094540
3.889812 9.550517 -0.191401
4.314669 9.360261 -0.231833
4.761051 9.330278 -0.317055
3.412605 9.326753 -0.220095
3.854022 9.266475 -0.212708
4.278926 9.085483 -0.280403
4.723247 9.045787 -0.337303
3.377184 9.003307 -0.114948
3.819457 9.000992 -0.288506
4.243206 8.810620 -0.326448
4.677219 8.708608 -0.183071
3.343396 8.774230 -0.302544
3.785209 8.740829 -0.381048
4.202511 8.489533 -0.216862
4.646548 8.469454 -0.341030
3.308502 8.464904 -0.229815
3.746500 8.405393 -0.222231
4.170635 8.249526 -0.372602
4.608166 8.180943 -0.333971
3.274050 8.179908 -0.230793
3.711900 8.137318 -0.280775
4.132424 7.950408 -0.324421
4.568635 7.885145 -0.295298
3.239692 7.887440 -0.200197
3.678169 7.885079 -0.394682
4.095842 7.665976 -0.321516
4.530983 7.601159 -0.292311
3.205471 7.646108 -0.350098
3.641446 7.576683 -0.303766
4.057231 7.361826 -0.238609
4.492234 7.310271 -0.257647
3.171244 7.362092 -0.343313
3.606794 7.305893 -0.345205
4.022018 7.089363 -0.268921
4.454866 7.027963 -0.249243
3.137144 7.078813 -0.333860
3.571476 7.020339 -0.326017
3.985859 6.807442 -0.257915
4.418784 6.753505 -0.267307
3.103281 6.789162 -0.292614
3.536105 6.730993 -0.284700
3.950777 6.535498 -0.283182
4.383144 6.481600 -0.292582
3.069479 6.507681 -0.277798
3.501209 6.449766 -0.269827
3.913940 6.245949 -0.227985
4.345005 6.194431 -0.247143
3.036042 6.218174 -0.221346
3.466451 6.169349 -0.252331
3.880116 5.985611 -0.296999
4.309540 5.923388 -0.267345
3.002082 5.953545 -0.269615
3.432113 5.898196 -0.271318
3.842777 5.689795 -0.197371
4.272419 5.642370 -0.236153
2.968269 5.684510 -0.295956
3.397830 5.627223 -0.287848
3.808837 5.427604 -0.251724
4.236125 5.366280 -0.221941
2.934943 5.405734 -0.270845
3.363411 5.348702 -0.262684
3.773961 5.155561 -0.254665
4.200596 5.094632 -0.224823
2.901461 5.133471 -0.272623
3.329252 5.076645 -0.264423
3.738657 4.878547 -0.225622
4.164224 4.818068 -0.195724
2.868401 4.856272 -0.242413
3.295204 4.806771 -0.273527
3.704142 4.609302 -0.233429
4.129195 4.549200 -0.203476
2.835863 4.574924 -0.180088
3.261099 4.523709 -0.201344
3.669695 4.340336 -0.238810
4.095381 4.287030 -0.248268
2.801670 4.317658 -0.253288
3.227290 4.261465 -0.244965
3.635866 4.077819 -0.281288
4.060445 4.018404 -0.251234
2.768264 4.050337 -0.264975
3.193491 3.992805 -0.246737
3.601011 3.803332 -0.242311
4.024521 3.744368 -0.212208
2.735847 3.774521 -0.214907
3.159765 3.724478 -0.246092
3.566780 3.535335 -0.240444
3.990792 3.482141 -0.249920
2.702279 3.510774 -0.241556
3.125973 3.463206 -0.292587
3.532627 3.267705 -0.236172
3.956322 3.215809 -0.255569
2.669614 3.240532 -0.216290
3.092506 3.190164 -0.247509
3.498927 3.005236 -0.269215
3.922607 2.953219 -0.288630
2.636885 2.972216 -0.198515
3.059056 2.921712 -0.229740
3.464892 2.738056 -0.260197
3.887782 2.684900 -0.269688
2.603261 2.709988 -0.228016
3.025342 2.660343 -0.269211
3.430729 2.468241 -0.218948
3.852645 2.415174 -0.228445
2.569636 2.447510 -0.255213
2.992041 2.392576 -0.246687
3.397141 2.205940 -0.244961
3.818059 2.148250 -0.204681
2.536011 2.184804 -0.280098
2.958431 2.129990 -0.271564
3.363309 1.939174 -0.218845
3.785462 1.890283 -0.278166
2.503090 1.919365 -0.272787
2.925110 1.864725 -0.264231
3.329669 1.674598 -0.210291
3.751170 1.624548 -0.259682
2.469507 1.656519 -0.293028
2.891543 1.602000 -0.284462
3.296183 1.412390 -0.229322
3.716973 1.359325 -0.238832
2.438232 1.387489 -0.221186
2.858452 1.336503 -0.262468
3.262691 1.149435 -0.236063
3.684111 1.099214 -0.295486
2.405834 1.122775 -0.196835
2.825461 1.071548 -0.238117
3.229243 0.887521 -0.260462
3.649450 0.832440 -0.230026
2.371318 0.862588 -0.250010
2.791598 0.810503 -0.281340
3.195794 0.624898 -0.272566
3.616040 0.570128 -0.242117
2.337884 0.599964 -0.260958
2.758136 0.547655 -0.292297
3.162363 0.362176 -0.282364
3.583135 0.308970 -0.291878
2.304469 0.337252 -0.269598
2.725336 0.283499 -0.260965
3.128951 0.099377 -0.289846
3.549719 0.046135 -0.299364
2.269523 0.075652 -0.325884
2.691097 0.021933 -0.317270
3.095562 -0.163482 -0.295019
3.516325 -0.216759 -0.304539
2.237704 -0.188357 -0.279940
2.657688 -0.241207 -0.321291
3.062198 -0.426379 -0.297876
3.482957 -0.479691 -0.307396
2.202698 -0.450899 -0.331614
2.624304 -0.504375 -0.322996
3.028618 -0.689356 -0.338425
3.449926 -0.742774 -0.347942
2.169328 -0.714198 -0.331003
2.590335 -0.767675 -0.352379
2.995268 -0.952616 -0.336658
3.415505 -1.004156 -0.186190
2.135990 -0.977485 -0.328077
2.556115 -1.031611 -0.389439
2.962530 -1.214534 -0.262590
3.382581 -1.266870 -0.222120
2.102685 -1.240740 -0.322836
2.523430 -1.294708 -0.354204
2.929793 -1.475750 -0.206224
3.349426 -1.529063 -0.215746
2.067912 -1.505077 -0.355236
2.493224 -1.554225 -0.216736
2.896680 -1.737846 -0.197548
3.316172 -1.789679 -0.167093
2.039671 -1.763749 -0.215538
2.459860 -1.816844 -0.216887
2.863606 -1.999862 -0.186563
3.283230 -2.053246 -0.196083
2.006582 -2.026011 -0.203388
2.427034 -2.078597 -0.194756
2.831082 -2.259637 -0.133339
3.250147 -2.312988 -0.142853
1.973536 -2.288161 -0.188934
2.394004 -2.340626 -0.180305
2.798140 -2.521084 -0.117767
3.217196 -2.571916 -0.087364
1.940537 -2.550180 -0.172173
2.361020 -2.602523 -0.163555
2.764652 -2.785220 -0.139795
3.184224 -2.841610 -0.189199
1.905434 -2.815625 -0.202934
2.327793 -2.865003 -0.154467
2.731765 -3.046710 -0.119602
3.151288 -3.103481 -0.168978
1.872481 -3.077753 -0.181534
2.293687 -3.129941 -0.172951
2.698250 -3.311540 -0.136950
3.118280 -3.368761 -0.186291
1.839583 -3.339689 -0.157825
2.261117 -3.390850 -0.139303
2.664704 -3.576858 -0.151936
3.083380 -3.677807 -0.639103
1.805351 -3.604336 -0.161644
2.226678 -3.657327 -0.163042
2.622698 -3.888948 -0.602026
3.050049 -3.943552 -0.611513
1.772061 -3.867148 -0.143238
2.187156 -3.940600 -0.333429
2.588623 -4.158968 -0.611835
3.017034 -4.204429 -0.541857
1.729118 -4.152802 -0.320959
2.142072 -4.244520 -0.650003
2.556230 -4.419614 -0.539852
2.983871 -4.469319 -0.509642
1.679841 -4.456575 -0.614861
2.109866 -4.506690 -0.586731
2.523095 -4.684529 -0.505268
2.950091 -4.744545 -0.554386
1.646122 -4.723549 -0.588890
2.076690 -4.772055 -0.550900
2.487213 -4.965890 -0.587145
2.916593 -5.015185 -0.557018
1.614519 -4.984764 -0.521011
2.043583 -5.037104 -0.512737
2.454089 -5.231201 -0.547752
2.882227 -5.298175 -0.636309
1.577250 -5.261508 -0.559498
2.006269 -5.318392 -0.580904
2.419760 -5.504001 -0.555395
2.849558 -5.557518 -0.554981
1.542577 -5.531390 -0.546131
1.973194 -5.583687 -0.537935
2.385934 -5.773982 -0.540852
2.816026 -5.829169 -0.550303
1.504625 -5.811365 -0.589422
1.935271 -5.868737 -0.610828
2.350737 -6.052776 -0.573107
2.781934 -6.108135 -0.582552
1.469920 -6.082005 -0.571127
1.900543 -6.141331 -0.602352
2.316605 -6.325233 -0.563471
2.748351 -6.380693 -0.572908
1.432384 -6.361886 -0.599472
1.865814 -6.414185 -0.591415
2.280085 -6.613205 -0.629866
2.713490 -6.668905 -0.639297
1.401733 -6.619703 -0.507648
1.834623 -6.671813 -0.499599
2.245871 -6.886819 -0.615164
2.680507 -6.934580 -0.585411
1.358841 -6.918381 -0.619015
1.792288 -6.978748 -0.650188
2.212941 -7.152326 -0.558878
2.646892 -7.208161 -0.568293
1.323504 -7.192354 -0.600529
1.759331 -7.244604 -0.592607
2.177464 -7.434639 -0.578323
2.613285 -7.481926 -0.548698
1.290627 -7.457822 -0.540585
1.726467 -7.509954 -0.532692
2.141915 -7.717790 -0.595129
2.578075 -7.773965 -0.604527
1.250998 -7.747553 -0.585262
1.687892 -7.802038 -0.587162
2.106297 -8.001753 -0.609280
2.544411 -8.048704 -0.579800
1.217569 -8.015213 -0.530138
1.653121 -8.076752 -0.561165
2.073504 -8.267181 -0.543190
2.510765 -8.323559 -0.552574
1.177145 -8.309112 -0.579132
1.616351 -8.361327 -0.571409
2.036355 -8.562022 -0.590874
2.475275 -8.618636 -0.600250
1.139192 -8.594411 -0.586632
1.579519 -8.646655 -0.578972
2.000592 -8.847941 -0.597086
2.440617 -8.904724 -0.606449
1.101181 -8.880438 -0.591442
1.542630 -8.932710 -0.583839
1.966342 -9.123911 -0.562075
2.407932 -9.170059 -0.532909
1.065814 -9.156477 -0.555092
1.505687 -9.219469 -0.586002
1.930513 -9.410900 -0.562967
2.372192 -9.467951 -0.572313
1.027740 -9.443551 -0.554573
1.469239 -9.504131 -0.575861
1.894633 -9.698557 -0.561140
2.336322 -9.767174 -0.608801
0.989618 -9.731276 -0.551331
1.433877 -9.783566 -0.543901
1.859131 -9.983938 -0.547022
2.302598 -10.044239 -0.565907
0.948633 -10.031314 -0.583496
1.394567 -10.083708 -0.576147
1.822741 -10.275765 -0.549278
2.267735 -10.333317 -0.558592
0.910387 -10.320599 -0.574659
1.357441 -10.373024 -0.567377
1.785405 -10.574509 -0.567730
2.233138 -10.619886 -0.539022
0.872828 -10.607372 -0.553574
1.320865 -10.659813 -0.546354
1.750692 -10.855330 -0.526396
2.197896 -10.913215 -0.535692
0.834520 -10.897699 -0.539228
1.280695 -10.966105 -0.579374
1.710913 -11.171891 -0.586380
2.160331 -11.230076 -0.595661
0.793201 -11.201550 -0.559807
1.241608 -11.267202 -0.590464
1.672837 -11.476964 -0.605436
2.125253 -11.522009 -0.577032
0.751776 -11.506551 -0.577360
1.201200 -11.575987 -0.617384
1.644318 -11.715014 -0.433678
2.090149 -11.814425 -0.555605
0.942782 -10.775164 2.256134
0.711014 -11.809260 -0.582497
1.164430 -11.865467 -0.584965
1.629898 -11.853221 0.001965
2.053607 -12.121322 -0.568796
0.990160 -10.669911 3.271830
0.667848 -12.123380 -0.612644
1.387951 -10.718757 3.270803
1.127023 -12.158739 -0.559126
1.653535 -11.720551 1.127914
1.564535 -12.352466 -0.523045
2.110574 -11.507435 1.818230
2.018425 -12.414948 -0.541609
0.964290 -10.891040 3.390015
0.635533 -12.388837 -0.509298
1.295107 -11.309868 2.430071
1.190415 -11.891928 0.921879
1.086370 -12.470392 -0.577003
1.649226 -11.784659 1.700705
1.522091 -12.690061 -0.604610
2.101050 -11.553665 2.416533
1.980236 -12.738318 -0.585953
0.929071 -11.154759 3.398750
0.592240 -12.704567 -0.533455
1.272594 -11.512217 2.618351
1.050197 -12.757525 -0.526779
1.654932 -11.776278 2.429846
1.487761 -12.970262 -0.534349
2.162184 -10.911983 4.690088
2.047427 -12.032643 1.920422
1.945335 -13.029618 -0.543564
0.885764 -11.456475 3.317690
0.737799 -12.143796 1.617311
0.547213 -13.029095 -0.572855
1.372913 -11.021441 4.509109
1.207133 -11.956118 2.207157
1.006066 -13.089744 -0.584772
1.591856 -12.259230 1.938278
2.018666 -12.268373 2.039829
0.980575 -11.111790 4.805229
0.841405 -11.764219 3.230724
0.510978 -13.313264 -0.507574
1.341358 -11.269362 4.537476
1.148845 -12.361963 1.912273
1.560187 -12.518066 2.004908
1.989276 -12.510720 2.142851
0.880791 -11.677010 4.082840
0.465740 -13.640106 -0.540533
1.119326 -12.605505 2.017063
0.926802 -13.705155 -0.561655
1.645490 -11.934864 4.016150
1.533546 -12.740902 2.156399
1.984797 -12.512924 2.797678
0.916892 -11.599761 4.876431
0.421184 -13.964520 -0.560911
1.279619 -11.758120 4.619747
0.886389 -14.017999 -0.554605
1.621034 -12.139905 4.162245
1.329297 -14.245826 -0.583277
1.982458 -12.496575 3.468634
0.877896 -11.878499 4.838223
0.381557 -14.265969 -0.523279
1.264269 -11.913082 4.864763
0.843794 -14.343937 -0.571692
1.599664 -12.322639 4.355410
1.918810 -13.070625 2.819145
0.840452 -12.150476 4.821154
1.186541 -12.429908 4.312393
0.804644 -14.650444 -0.540016
1.531056 -12.847914 3.807434
1.252048 -14.871650 -0.547190
1.886837 -13.339999 2.856762
1.723504 -14.902912 -0.492958
0.772741 -12.570985 4.490931
0.294523 -14.907861 -0.520336
1.119159 -12.889487 3.911797
1.521948 -12.942136 4.195431
1.422323 -13.666407 2.671749
1.211872 -15.196375 -0.546917
1.954505 -12.658849 4.889561
1.682626 -15.253165 -0.547031
0.783532 -12.607821 4.984482
0.245213 -15.258230 -0.572311
1.113145 -12.990797 4.281969
0.717484 -15.316623 -0.575396
1.477634 -13.292394 4.044390
1.170405 -15.530908 -0.561213
1.931509 -12.845857 5.058764
1.642002 -15.601054 -0.588284
0.730999 -12.955791 4.823090
0.199221 -15.593131 -0.584614
1.263653 -12.165821 6.532799
0.677420 -15.629869 -0.542984
1.515643 -13.042199 5.113264
1.426234 -13.695055 3.799231
1.130028 -15.857916 -0.554066
1.850085 -13.588087 4.111956
1.607301 -15.892815 -0.509539
0.677162 -13.311917 4.657030
0.153995 -15.924925 -0.584425
1.194098 -12.637098 6.100533
0.632817 -15.970449 -0.560894
1.486627 -13.280558 5.178921
1.088332 -16.194975 -0.561291
1.871969 -13.349880 5.134264
1.562609 -16.279589 -0.614885
0.859333 -12.482844 6.829287
0.748756 -13.038925 5.737751
0.118559 -16.208138 -0.483103
1.225493 -12.508451 6.864450
1.077168 -13.393639 5.133284
0.593401 -16.280714 -0.512987
1.379322 -14.093154 4.139442
1.047774 -16.524126 -0.547195
1.835361 -13.666881 5.051781
1.526382 -16.586323 -0.556274
0.815242 -12.784998 6.740910
0.487381 -14.444779 3.551907
0.065066 -16.582726 -0.555811
1.173709 -12.875291 6.652092
1.061311 -13.549253 5.361845
0.542434 -16.660568 -0.594505
1.432576 -13.728654 5.370026
1.005869 -16.863565 -0.547268
1.808941 -13.887810 5.158173
1.488682 -16.907297 -0.521061
0.847028 -12.701636 7.385897
0.660805 -13.650485 5.600983
0.023243 -16.899006 -0.509920
1.170483 -12.951078 6.998615
0.501320 -16.982023 -0.557299
1.421201 -13.837718 5.679298
0.963857 -17.204214 -0.543695
1.682383 -15.051332 3.528658
1.446896 -17.266994 -0.552752
0.829113 -12.869314 7.546253
0.604911 -14.018853 5.428543
-0.035269 -17.301220 -0.618301
1.189958 -12.888288 7.589775
1.033914 -13.832482 5.856413
0.450718 -17.361288 -0.621815
1.392062 -14.077510 5.744011
1.745678 -14.428756 5.193457
1.633300 -15.484033 3.289204
0.773091 -13.233003 7.350777
-0.079148 -17.629343 -0.582569
1.112523 -13.412072 7.106453
1.388831 -14.126103 6.150078
0.877546 -17.903700 -0.551596
1.609328 -15.681070 3.481283
1.502328 -16.683979 1.708057
1.367529 -17.947445 -0.525860
0.752474 -13.414768 7.489307
0.577744 -14.321480 5.886232
0.954200 -14.432198 5.772493
1.296284 -14.835316 5.396196
0.833202 -18.262911 -0.562767
1.657137 -15.207080 4.833723
1.573916 -15.985726 3.484507
1.323718 -18.326658 -0.571789
0.741591 -13.545345 7.715511
1.114994 -13.503495 7.861757
1.004144 -14.182761 6.688765
0.867212 -15.021855 5.239775
1.252488 -15.184926 5.289776
0.792123 -18.598385 -0.526920
1.665867 -15.100940 5.513170
1.285120 -18.657322 -0.527327
0.638706 -14.157850 7.118879
0.401019 -15.405354 5.000355
-0.219661 -18.663006 -0.531816
1.008916 -14.207480 7.109608
0.825175 -15.337905 5.196163
0.272305 -18.739317 -0.561338
1.207688 -15.542582 5.179089
0.747550 -18.960197 -0.530298
1.484622 -16.767893 3.218510
1.242085 -19.029678 -0.547855
0.633560 -14.258937 7.401682
-0.274431 -19.050611 -0.575657
1.006966 -14.272248 7.452250
0.785450 -15.640379 5.181843
0.223330 -19.112137 -0.579533
1.274346 -15.071601 6.435116
1.163260 -15.898058 5.081333
1.578574 -15.868401 5.208662
1.199446 -19.398542 -0.555645
0.597546 -14.522523 7.412930
0.932415 -14.786021 7.055655
0.176719 -19.471004 -0.568010
1.274864 -15.091373 6.859440
1.170171 -15.871546 5.606138
0.654487 -19.714418 -0.567236
1.606542 -15.586161 6.139240
0.484354 -15.198170 6.768799
-0.372740 -19.768929 -0.548471
0.904570 -15.011423 7.139254
0.128306 -19.841663 -0.569384
1.232473 -15.430934 6.768570
1.545081 -16.136053 5.732286
1.110866 -20.167624 -0.600824
0.446533 -15.474463 6.781189
0.197229 -16.810688 4.683008
-0.423039 -20.135210 -0.537260
0.640609 -16.711420 4.916128
0.080620 -20.208422 -0.558161
1.012978 -17.095009 4.638622
0.562957 -20.459209 -0.561737
1.475656 -16.759319 5.232718
1.342042 -17.998245 3.323370
0.197421 -16.889326 5.044220
-0.476464 -20.519018 -0.546955
0.594074 -17.059319 4.858646
0.033695 -20.571016 -0.534452
0.521405 -20.800781 -0.502682
1.309378 -18.278896 3.401751
1.029927 -20.866831 -0.511625
0.431532 -15.700349 7.313086
0.094779 -17.522894 4.558571
-0.530041 -20.904486 -0.552202
0.552569 -17.376385 4.855194
-0.020324 -20.978764 -0.573086
1.019068 -17.099482 5.577808
0.826221 -18.545525 3.425653
1.425714 -17.181696 5.527617
1.266504 -18.654337 3.342304
0.980651 -21.298395 -0.581324
0.523902 -15.268658 8.379349
0.362303 -16.147346 7.076204
-0.589902 -21.324936 -0.602467
0.754166 -16.160273 7.124483
0.375624 -18.548500 3.592985
-0.071020 -21.366381 -0.573854
1.141152 -16.207012 7.336346
0.990372 -17.339294 5.682467
1.531583 -16.184696 7.434568
1.383602 -17.551920 5.443289
0.936599 -21.681849 -0.571692
0.512129 -15.399848 8.591724
0.034695 -18.007753 4.795961
-0.637631 -21.680220 -0.549255
0.724559 -16.398153 7.204977
0.472777 -17.991816 4.892130
0.329029 -18.901670 3.571676
0.892753 -18.097643 5.045254
0.728914 -19.329779 3.278732
1.348025 -17.861929 5.453579
0.891807 -22.072420 -0.565825
0.458068 -15.762329 8.470667
0.238731 -16.965767 6.751442
-0.694748 -22.087498 -0.565447
0.436371 -18.278086 4.948467
0.268751 -19.342407 3.432312
-0.172827 -22.146267 -0.561855
0.884978 -18.181051 5.386795
1.338108 -17.935595 5.800697
0.845628 -22.476072 -0.571672
0.443475 -15.908628 8.662081
0.247540 -16.988350 7.147913
-0.133852 -19.090057 4.200546
0.397232 -18.582087 4.983627
-0.226652 -22.555815 -0.573338
0.825847 -18.651514 5.186741
0.270905 -22.836693 -0.596157
1.286777 -18.391434 5.614149
0.798656 -22.887310 -0.580826
0.414383 -16.134588 8.741770
-0.174858 -19.395489 4.252256
-0.803171 -22.872614 -0.534946
0.397503 -18.634735 5.368343
-0.279731 -22.961342 -0.571877
0.814753 -18.760038 5.490654
0.228892 -23.184460 -0.511982
1.287161 -18.371361 6.083820
1.124083 -19.872007 4.053459
0.755384 -23.264772 -0.536922
-0.046689 -18.761200 5.578377
-0.868198 -23.326385 -0.592733
0.524341 -17.875328 6.839638
0.359547 -18.931255 5.416170
-0.335733 -23.386311 -0.589592
0.886451 -18.242311 6.623709
0.173447 -23.634193 -0.559557
1.288375 -18.344522 6.551258
0.708135 -23.679167 -0.536547
-0.075727 -18.996824 5.707970
-0.223692 -19.822416 4.612112
-0.927061 -23.746964 -0.597187
0.362656 -18.964264 5.816889
0.818022 -18.783852 6.336016
0.120950 -24.062250 -0.569855
1.288430 -18.329163 6.992619
-0.050617 -18.929037 6.234232
-0.226693 -19.915379 4.948528
0.337250 -19.179911 5.971653
-0.441700 -24.199732 -0.554258
0.719827 -19.552084 5.772919
1.227064 -18.878351 6.700340
-0.072451 -19.122808 6.412687
-1.034389 -24.532309 -0.512453
0.349075 -19.154894 6.434011
-0.494387 -24.605526 -0.525412
0.783434 -19.093506 6.783947
0.023586 -24.862190 -0.496664
1.231976 -18.819542 7.189377
-0.144469 -19.599497 6.234879
-1.056377 -24.747120 -0.237587
0.261142 -19.774914 6.076870
0.100245 -20.817488 4.769373
-0.543346 -24.987797 -0.460609
0.681847 -19.889082 6.210306
1.158349 -19.481382 6.775732
-0.235736 -20.186998 5.932388
0.230299 -20.026131 6.192549
-0.603925 -25.446051 -0.484135
0.647951 -20.171072 6.288181
-0.088236 -25.774187 -0.535505
1.026314 -20.677992 5.732746
0.465596 -25.813702 -0.505850
-0.229917 -20.224926 6.313337
0.197611 -20.289490 6.295481
-0.675421 -25.976307 -0.586292
0.749099 -19.424297 7.600168
0.575505 -20.747147 6.017504
0.448034 -21.718515 4.855350
1.245540 -18.658564 8.570330
0.411897 -26.289171 -0.536093
-1.030462 -24.863001 1.204483
0.421027 -18.880554 8.388943
-0.722766 -26.350065 -0.491020
0.716489 -19.695860 7.675243
0.416066 -21.987957 4.981079
-0.198319 -26.675459 -0.528681
1.239627 -18.701820 8.896235
0.947392 -21.375134 5.761768
0.361507 -26.734705 -0.522348
-0.111596 -19.685402 7.774220
-1.068311 -25.164059 1.359461
0.404317 -19.035503 8.588507
-0.789864 -26.853548 -0.542675
0.421776 -21.969854 5.441040
1.099078 -19.976576 7.797628
-0.013582 -19.187113 8.738380
-1.077656 -25.301332 1.704998
0.365968 -19.332214 8.624100
-0.153994 -22.744625 4.708303
-0.856242 -27.353342 -0.580275
0.645314 -20.285446 7.782291
0.370549 -22.386768 5.397957
-0.315933 -27.636774 -0.559147
0.870223 -22.057486 5.830387
0.007434 -19.127857 9.178560
-1.088762 -25.447674 2.035852
0.427921 -18.969509 9.407648
0.790830 -19.194141 9.387316
1.030116 -20.586435 7.888220
0.816201 -22.540165 5.715185
0.203658 -28.134634 -0.507256
0.031497 -19.049112 9.630783
0.397286 -19.214659 9.496292
0.784327 -19.265303 9.669073
1.106193 -19.882584 9.042681
-0.007278 -19.333086 9.677231
0.343284 -19.614464 9.419184
0.214981 -20.462452 8.496115
-0.583348 -25.738829 2.752588
0.674016 -20.132969 9.089336
-0.065395 -25.807270 2.980942
1.130802 -19.649595 9.657545
-0.068199 -19.746378 9.589130
0.325924 -19.772453 9.609150
0.630121 -20.492043 9.073456
1.091832 -19.997280 9.644186
-0.187970 -20.504482 9.146643
-0.806262 -24.114527 5.343529
0.260275 -20.250845 9.461632
-0.344890 -24.268522 5.238876
-1.174151 -29.773973 -0.547592
0.634544 -20.480007 9.449888
1.015514 -20.685766 9.283672
-0.106107 -20.084986 9.944473
0.281550 -20.152100 9.921211
0.644101 -20.428144 9.860075
0.971302 -21.081673 9.239756
-0.213612 -20.773960 9.593208
0.190542 -20.800755 9.612370
0.624242 -20.602634 10.034941
0.914502 -21.592564 9.088341
-0.213457 -20.831465 9.891340
0.195746 -20.808437 9.959499
0.520072 -21.427811 9.567991
0.928254 -21.461029 9.580723
-0.125327 -20.368298 10.696737
-0.371116 -21.820295 9.270626
0.121947 -21.344296 9.783197
-0.321414 -24.312872 6.874008
0.502786 -21.583357 9.772449
0.813782 -22.497753 8.932554
0.579288 -24.633129 6.867226
-0.215415 -20.957069 10.465166
0.184307 -20.968002 10.497631
0.011376 -22.128241 9.380337
0.454063 -21.982071 9.744593
0.856641 -22.102139 9.674582
-0.310935 -21.580154 10.215221
-0.589811 -23.236738 8.644247
0.102907 -21.555853 10.281309
0.508443 -21.583303 10.470585
0.778348 -22.809938 9.367035
-0.350995 -21.875078 10.286064
0.053378 -21.930567 10.276968
0.459129 -21.986956 10.439926
0.824397 -22.386429 10.115036
-0.356734 -21.965416 10.548254
0.048289 -22.006050 10.552639
0.428662 -22.245014 10.548374
0.792844 -22.669643 10.206522
-0.413857 -22.362711 10.531754
0.008590 -22.315092 10.615629
0.313905 -23.157814 10.078262
0.721150 -23.318428 9.977596
0.611276 -24.317965 9.091900
-0.469912 -22.754484 10.527357
-0.004718 -22.445770 10.840370
-0.262200 -24.190042 9.301922
-0.471266 -25.606327 8.052755
0.266619 -23.547855 10.087351
0.660441 -23.867598 9.850195
-0.486276 -22.908247 10.736568
-0.116228 -23.242685 10.486656
-0.326499 -24.669756 9.250027
0.289141 -23.395370 10.568148
0.135672 -24.589314 9.544752
0.616826 -24.261652 9.866962
-1.136761 -26.886944 7.682388
-0.349870 -24.872173 9.443371
-0.091288 -26.380285 8.397190
0.559674 -24.779230 9.786547
0.344927 -26.732149 8.145329
-0.680787 -27.169319 7.885529
-0.166159 -26.989027 8.275564
0.206469 -27.989340 7.493368
-0.251324 -27.679043 8.100260
0.286173 -27.263187 8.481119
-0.694458 -31.165913 5.707016
0.128474 -28.696238 7.722322
0.213904 -24.093967 11.685480
0.027599 -25.550392 10.543676
0.087388 -29.069445 7.828203
0.181364 -24.370813 11.801435
-0.030438 -26.052031 10.858862
-1.224233 -40.996574 -0.382362
-0.090318 -26.545216 10.839979
-1.310134 -41.779381 -0.412497
-0.091996 -26.582458 11.162321
3.193309 -0.828801 29.937822
-1.472136 -43.258274 -0.368876
3.177384 -0.928973 29.873384
3.189455 -0.863899 29.918530
3.190220 -0.856960 29.926054
3.184378 -0.874364 29.916960
3.190087 -0.858209 29.927942
3.189038 -0.867790 29.924414
3.184097 -0.877002 29.921064
3.189825 -0.860658 29.931753
3.188224 -0.844593 29.944254
3.193407 -0.828093 29.954798
3.183825 -0.879568 29.925215
3.189573 -0.863040 29.935606
3.190146 -0.829731 29.958092
3.188514 -0.872738 29.932415
3.184643 -0.873502 29.934464
3.190271 -0.856780 29.944555
3.189212 -0.866488 29.941462