# This PCD file was generated using the MATLAB® pcwrite function
# from Computer Vision System Toolbox®.
# .PCD v.7 - Point Cloud Data file format
VERSION .7
FIELDS x y z
SIZE 4 4 4
TYPE F F F
COUNT 1 1 1
WIDTH 841
HEIGHT 1
VIEWPOINT 0 0 0 1 0 0 0
POINTS 841
DATA ascii
23.464649 2.947277 4.708206
26.683487 4.400968 -0.253042
26.286650 4.894711 -0.175451
23.120865 2.915436 4.735079
26.289413 4.370276 -0.245899
25.945379 4.885502 -0.247030
25.912527 4.345861 -0.259121
25.564020 4.855182 -0.249186
25.511702 4.308555 -0.226879
25.184219 4.823984 -0.247219
25.152943 4.289604 -0.256775
24.810928 4.794469 -0.249485
24.736254 4.240856 -0.182493
24.453606 4.771766 -0.272896
24.419144 4.239557 -0.271706
24.073626 4.735455 -0.250494
24.044792 4.208438 -0.256443
23.700203 4.700856 -0.232445
23.658134 4.169195 -0.211676
23.328558 4.665427 -0.210400
23.319778 4.153424 -0.248041
23.031019 4.670329 -0.321064
22.936884 4.112522 -0.195242
22.697334 4.653939 -0.360397
22.605274 4.097638 -0.233049
22.298868 4.598104 -0.267115
22.269951 4.079569 -0.258915
21.916286 4.549170 -0.195375
21.956947 4.073003 -0.324902
21.498474 4.476139 -0.041204
21.627182 4.055928 -0.353006
21.154877 4.446284 -0.030710
21.298172 4.038130 -0.377869
20.828899 4.426065 -0.051785
20.909101 3.982736 -0.267450
20.786819 3.505116 -0.407507
20.679781 2.956127 -0.212494
20.487885 4.394753 -0.034443
20.515289 3.921618 -0.135071
20.444986 3.477813 -0.387917
20.380129 2.952816 -0.280388
20.179464 4.383512 -0.084354
20.144545 3.872025 -0.042688
20.120136 3.459110 -0.400560
20.045525 2.929096 -0.264954
19.837040 4.348180 -0.051512
19.807156 3.841411 -0.017580
19.739399 3.404724 -0.275681
19.723701 2.911260 -0.273125
19.533611 4.338178 -0.104250
19.501234 3.829845 -0.060595
19.358324 3.347245 -0.137667
19.432537 2.910334 -0.350327
19.212107 4.314483 -0.109488
19.181009 3.807732 -0.064852
19.013432 3.310052 -0.076693
19.130157 2.902161 -0.397776
18.905846 4.300545 -0.147486
18.879646 3.797312 -0.111027
18.691948 3.286196 -0.066500
18.799562 2.875710 -0.369753
18.586025 4.275507 -0.146618
18.557543 3.771391 -0.100203
18.388977 3.273376 -0.098595
18.408028 2.808897 -0.174372
18.267254 4.249805 -0.142660
18.240067 3.747279 -0.095301
18.086428 3.259912 -0.127869
18.078598 2.778864 -0.130121
17.962837 4.233897 -0.171883
17.950310 3.742339 -0.160124
17.757942 3.227058 -0.081175
17.737705 2.739339 -0.045891
17.632982 4.196428 -0.125540
17.624636 3.709492 -0.121967
17.469833 3.221688 -0.141310
17.450848 2.734494 -0.105450
17.358555 4.202770 -0.230995
17.335411 3.703282 -0.181324
17.156506 3.196928 -0.125263
17.138706 2.711349 -0.088594
17.055498 4.184945 -0.251802
17.030628 3.684040 -0.192192
16.856569 3.180921 -0.143143
16.827759 2.687574 -0.068752
16.752979 4.166490 -0.269819
16.717552 3.656720 -0.172590
16.557190 3.164290 -0.158255
16.541843 2.680865 -0.120245
16.448114 4.144789 -0.275845
16.431952 3.651120 -0.233145
16.258392 3.147043 -0.170612
16.244278 2.664697 -0.131948
16.180696 4.156504 -0.399025
16.131947 3.632488 -0.244877
15.960204 3.129182 -0.180227
15.936088 2.639071 -0.103565
15.870805 4.128326 -0.381229
15.832561 3.613241 -0.253859
15.673517 3.120104 -0.224440
15.651009 2.630535 -0.147167
15.567364 4.104771 -0.379082
15.536486 3.595867 -0.269411
15.365762 3.091636 -0.191263
15.365925 2.621397 -0.188255
15.277613 4.093697 -0.420652
15.256399 3.592788 -0.338297
15.082301 3.083699 -0.239613
15.070629 2.602811 -0.189186
14.977930 4.071540 -0.422365
14.978327 3.591584 -0.414145
14.786389 3.063424 -0.238468
14.776048 2.583632 -0.187420
14.678967 4.048781 -0.421347
14.677912 3.567430 -0.403202
14.500734 3.051944 -0.272331
14.482207 2.563863 -0.182976
14.371470 4.014958 -0.380138
14.383067 3.547645 -0.408310
14.215166 3.039869 -0.303682
14.207565 2.561189 -0.251677
14.076588 3.993628 -0.383005
14.086581 3.524786 -0.401340
13.927496 3.024858 -0.323063
13.907946 2.533620 -0.213581
13.786628 3.976937 -0.402046
13.808158 3.521179 -0.467239
13.650755 3.020977 -0.387329
13.624592 2.520936 -0.239328
13.482532 3.941360 -0.352514
13.496021 3.477315 -0.379360
13.357166 2.997761 -0.373201
13.341394 2.507669 -0.262596
13.203699 3.936561 -0.413542
13.217903 3.472528 -0.440229
13.072258 2.983335 -0.394526
13.066236 2.502641 -0.321600
12.911121 3.912889 -0.405941
12.924067 3.447338 -0.422741
12.781942 2.961308 -0.384729
12.781206 2.486006 -0.330410
12.624687 3.896467 -0.424179
12.629311 3.419106 -0.393093
12.495932 2.943390 -0.391466
12.512709 2.488609 -0.423010
12.324713 3.858611 -0.363916
12.333911 3.387844 -0.351252
12.205247 2.917895 -0.366962
12.229434 2.473013 -0.436558
12.050904 3.859277 -0.443638
12.061193 3.388131 -0.430882
11.928416 2.910506 -0.416580
11.948050 2.459043 -0.457256
11.754472 3.822907 -0.387657
11.770394 3.360676 -0.403032
11.645086 2.893208 -0.425428
11.651436 2.422556 -0.379175
11.475647 3.814593 -0.433981
11.492376 3.352386 -0.449221
11.362070 2.875341 -0.431810
11.376976 2.416233 -0.433460
11.189570 3.792704 -0.430143
11.208447 3.333660 -0.454679
11.073978 2.847611 -0.397207
11.095178 2.398376 -0.437122
10.906593 3.775440 -0.442951
10.920958 3.306991 -0.428854
10.797075 2.837918 -0.437202
10.813742 2.379960 -0.438337
10.627431 3.765379 -0.482065
10.642862 3.296968 -0.467817
10.515141 2.818367 -0.436222
10.531497 2.358803 -0.427423
10.334542 3.723682 -0.403671
10.350927 3.256932 -0.388874
10.233611 2.798259 -0.432798
10.252039 2.341458 -0.433449
10.059967 3.722822 -0.476332
10.076420 3.253127 -0.451900
9.952508 2.777599 -0.426939
9.966732 2.310502 -0.378819
9.773094 3.690389 -0.431326
9.799226 3.243827 -0.493328
9.675539 2.765620 -0.457394
9.691117 2.298581 -0.409124
9.487373 3.657431 -0.383797
9.509463 3.199761 -0.397194
9.392505 2.736936 -0.417629
9.411903 2.277414 -0.398186
9.215181 3.665113 -0.487885
9.235817 3.199090 -0.472479
9.111979 2.712331 -0.394804
9.136971 2.266524 -0.433506
8.933183 3.641333 -0.474047
8.954161 3.173468 -0.448732
8.838751 2.710150 -0.466656
8.861012 2.252893 -0.456758
8.654103 3.627263 -0.496368
8.676849 3.161885 -0.480642
8.558754 2.684440 -0.439051
8.581978 2.227916 -0.428928
8.376919 3.622852 -0.554932
8.400781 3.156990 -0.539267
8.282411 2.671923 -0.467371
8.306158 2.213166 -0.447456
8.093816 3.587173 -0.495258
8.118676 3.122451 -0.479254
8.003376 2.645135 -0.434978
8.030222 2.197847 -0.463642
7.815035 3.573944 -0.520103
7.840634 3.106732 -0.494377
7.726994 2.631488 -0.458586
7.752900 2.173398 -0.438427
7.536746 3.567763 -0.571587
7.562507 3.090442 -0.507135
7.449911 2.612719 -0.460369
7.478083 2.165508 -0.488970
7.256388 3.540656 -0.543352
7.284315 3.073582 -0.517529
7.173088 2.595660 -0.469534
7.201330 2.139970 -0.459034
6.976912 3.520619 -0.541740
7.006080 3.056154 -0.525557
6.896284 2.580297 -0.486086
6.925485 2.122411 -0.465820
6.697577 3.502554 -0.547426
6.727819 3.045336 -0.560343
6.619225 2.568868 -0.519770
6.649527 2.112765 -0.509350
6.418242 3.483921 -0.550732
6.449653 3.017209 -0.524797
6.341896 2.552343 -0.531616
6.373333 2.094060 -0.511444
6.138004 3.477302 -0.600042
6.171327 3.000470 -0.535437
6.065471 2.524031 -0.492386
6.097169 2.074796 -0.511190
5.859653 3.444954 -0.550213
5.893131 2.980780 -0.533997
5.787721 2.510864 -0.519001
5.820770 2.057073 -0.518358
5.579009 3.434640 -0.585091
5.614997 2.960529 -0.530188
5.510670 2.490410 -0.514027
5.545018 2.034593 -0.503630
5.299535 3.413723 -0.578882
5.335639 2.946805 -0.553133
5.231363 2.480515 -0.555389
5.266768 2.024096 -0.545170
5.020165 3.392243 -0.570297
5.057433 2.925415 -0.544582
4.954087 2.458915 -0.545685
4.990503 2.002574 -0.535500
4.738447 3.380139 -0.598001
4.776913 2.912863 -0.572468
4.676948 2.436759 -0.533619
4.711835 1.988794 -0.562529
4.459005 3.357515 -0.584642
4.498633 2.890332 -0.559168
4.399966 2.414051 -0.519197
4.439122 1.955807 -0.499352
4.179733 3.334333 -0.568907
4.217388 2.876584 -0.582266
4.117439 2.406157 -0.570465
4.160182 1.940876 -0.521646
3.897133 3.320445 -0.589399
3.938250 2.855244 -0.573891
3.840229 2.382296 -0.551287
3.879852 1.927391 -0.551291
3.610186 3.315761 -0.646051
3.656278 2.840295 -0.592171
3.563240 2.357885 -0.529743
3.603783 1.903061 -0.529821
3.326298 3.300614 -0.661655
3.374890 2.822422 -0.598356
3.277871 2.350307 -0.583456
3.320479 1.892441 -0.574125
3.046533 3.275095 -0.636288
3.096627 2.797041 -0.573128
2.996039 2.333396 -0.595903
3.039691 1.875081 -0.586790
2.760914 3.261181 -0.656649
2.807689 2.791776 -0.632437
2.718801 2.307253 -0.567186
2.763460 1.849031 -0.558172
2.482605 3.232101 -0.616865
2.525311 2.772091 -0.631329
2.435189 2.291305 -0.584475
2.482224 1.830489 -0.566025
2.197794 3.214561 -0.622726
2.241346 2.754089 -0.637423
2.148193 2.279010 -0.618633
2.200626 1.811339 -0.571442
1.900758 3.215653 -0.702858
1.949654 2.746830 -0.689190
1.864870 2.259661 -0.621311
1.911190 1.801557 -0.622833
1.613015 3.199213 -0.713276
1.664583 2.727560 -0.690304
1.587611 2.231215 -0.582964
1.636430 1.771218 -0.574947
1.321485 3.186917 -0.740320
1.387447 2.696414 -0.640932
1.304021 2.210683 -0.580772
1.353877 1.750247 -0.573023
1.041360 3.157299 -0.697910
1.095287 2.684941 -0.675510
1.013091 2.197957 -0.614574
1.064023 1.736540 -0.607222
0.737897 3.157947 -0.777149
0.802183 2.672782 -0.707504
0.719373 2.186644 -0.655394
0.778759 1.716278 -0.609953
0.459455 3.124766 -0.720249
0.513873 2.653261 -0.708206
0.426513 2.172541 -0.683994
0.495026 1.693440 -0.600563
0.161666 3.114574 -0.756111
0.221202 2.637540 -0.725466
0.142885 2.147375 -0.662128
0.203034 1.677754 -0.627102
-0.124655 3.089624 -0.732321
-0.068019 2.616737 -0.721069
-0.151295 2.131948 -0.685570
-0.089820 1.661382 -0.651024
-0.430495 3.085061 -0.791359
-0.364057 2.601892 -0.742670
-0.448504 2.117887 -0.715914
-0.392248 1.652003 -0.710596
-0.731070 3.072761 -0.819208
-0.651934 2.577609 -0.723631
-0.735303 2.092889 -0.695972
-0.675751 1.624670 -0.681431
-1.030266 3.057432 -0.834900
-0.956240 2.567946 -0.768414
-1.031661 2.075422 -0.711519
-0.973314 1.608146 -0.706989
-1.308416 3.020702 -0.763063
-1.237677 2.535872 -0.715811
-1.338571 2.065362 -0.762320
-1.269371 1.589021 -0.720325
-1.618395 3.013233 -0.811153
-1.546167 2.526955 -0.764629
-1.626636 2.038411 -0.734579
-1.545989 1.554180 -0.655046
-0.576612 1.815208 4.042801
-1.919394 2.995862 -0.818823
-1.845718 2.508679 -0.772903
-1.935664 2.026878 -0.779837
-1.863671 1.548698 -0.738964
-0.832118 1.800492 4.036362
-2.234467 2.989135 -0.870590
-2.156633 2.498239 -0.816061
-2.224448 1.998622 -0.746843
-2.161861 1.527495 -0.744232
-0.999904 1.712942 4.331209
-2.531718 2.965793 -0.854002
-1.065805 1.404632 3.925924
-2.457881 2.478523 -0.818806
-2.535489 1.985609 -0.786493
-2.457940 1.503754 -0.737360
-2.826429 2.939548 -0.825424
-2.745596 2.447552 -0.772039
-2.836361 1.963927 -0.785723
-2.760199 1.483006 -0.746618
-3.153449 2.937251 -0.896500
-3.071027 2.443290 -0.844055
-3.137836 1.941547 -0.782206
-3.060292 1.459718 -0.743715
-1.465608 1.444374 5.248753
-3.458302 2.916280 -0.890226
-1.531584 1.139195 4.876389
-3.386373 2.429791 -0.875702
-3.452023 1.926255 -0.813238
-3.370036 1.441165 -0.766132
-1.734685 1.443667 5.186081
-3.748246 2.883544 -0.834923
-1.796903 1.132090 4.832548
-3.693689 2.409266 -0.876526
-3.767423 1.910168 -0.841303
-3.674618 1.418245 -0.766981
-1.945101 1.400414 5.301289
-4.056946 2.863420 -0.832407
-4.008037 2.392140 -0.893019
-4.058417 1.877897 -0.792158
-3.976705 1.392814 -0.755692
-2.238746 1.413754 5.179033
-4.366314 2.842566 -0.827038
-4.329883 2.378346 -0.925024
-4.375498 1.860312 -0.814438
-4.292375 1.373785 -0.778748
-4.683004 2.825332 -0.837133
-4.646367 2.359643 -0.935532
-4.693703 1.841925 -0.833696
-4.595762 1.346905 -0.761780
-5.004056 2.809481 -0.853382
-4.956964 2.336102 -0.924696
-5.037119 1.835945 -0.914289
-4.923639 1.331581 -0.806591
-5.266614 2.756250 -0.711601
-5.233192 2.291665 -0.819464
-5.361583 1.817738 -0.936419
-5.256591 1.317119 -0.857388
-5.602739 2.747550 -0.758537
-5.544116 2.266782 -0.803110
-5.683635 1.796836 -0.946272
-5.548059 1.281039 -0.794855
-5.867200 2.695418 -0.621002
-5.895802 2.263068 -0.883850
-6.006687 1.775125 -0.953035
-5.912812 1.278623 -0.912510
-3.113421 0.941667 6.785608
-6.219994 2.693604 -0.697979
-6.234815 2.250425 -0.924759
-6.285475 1.730565 -0.847733
-6.205290 1.241080 -0.844156
-6.437227 2.615159 -0.447474
-3.374874 0.589999 6.605314
-6.472306 2.183803 -0.718472
-6.609468 1.707385 -0.848619
-6.558865 1.229934 -0.918430
-3.371875 0.785456 7.325945
-6.721236 2.574203 -0.356962
-6.859105 2.193100 -0.861448
-6.934375 1.683390 -0.846369
-6.887192 1.206045 -0.925739
-3.686336 0.807169 7.168024
-7.347532 2.711062 -1.032171
-3.759264 0.500791 6.863649
-7.241403 2.197283 -0.982313
-7.292237 1.672952 -0.912821
-7.212560 1.179653 -0.920820
-7.726466 2.713197 -1.129656
-4.103322 0.528989 6.655552
-7.557778 2.167537 -0.947208
-7.668579 1.668614 -1.011366
-7.555091 1.159033 -0.948647
-4.164036 0.767478 7.208645
-8.128857 2.724416 -1.267452
-4.534581 0.594157 6.273464
-7.696537 2.054841 -0.526392
-7.980932 1.634818 -0.963259
-7.832533 1.111348 -0.829876
-4.511212 0.798623 7.007174
-7.917665 2.437478 -0.111383
-7.685407 1.878042 0.195934
-8.280686 1.595041 -0.885563
-8.176663 1.089092 -0.851324
-4.703454 0.753767 7.135275
-8.724430 2.639974 -1.081144
-4.753696 0.426918 6.894545
-7.993279 1.847734 0.235867
-8.577607 2.104009 -0.965170
-8.571429 1.551150 -0.787439
-8.526489 1.067512 -0.878157
-9.084855 2.625941 -1.111038
-4.805851 0.322249 7.306370
-9.001440 2.115967 -1.128540
-8.953974 1.542974 -0.871735
-8.891001 1.049745 -0.927921
-9.268433 2.531250 -0.788204
-4.976177 0.270205 7.472120
-9.616270 2.204470 -1.655016
-5.654403 0.124967 6.259701
-9.321142 1.526780 -0.916811
-9.217190 1.016728 -0.894621
-5.911202 0.896465 6.303524
-9.383816 2.409015 -0.342953
-5.928201 0.536706 6.130081
-9.951574 2.172456 -1.615320
-9.963806 1.611493 -1.482178
-9.584822 0.996986 -0.937029
-6.223719 0.897655 6.226601
-9.672445 2.363879 -0.235394
-6.130680 0.491057 6.261230
-10.319572 2.152422 -1.633142
-10.427450 1.624331 -1.682478
-9.991318 0.988580 -1.045382
-6.576047 0.913450 6.084229
-7.420935 1.264145 4.534010
-10.002535 2.335716 -0.202770
-6.416053 0.477758 6.238369
-10.553183 2.078792 -1.396404
-10.565798 1.518617 -1.271187
-10.419666 0.985018 -1.183964
-10.318888 2.300928 -0.141148
-11.058319 2.600646 -1.470018
-6.759877 0.485231 6.115229
-7.697994 0.839542 4.419554
-10.745687 1.990602 -1.089224
-7.804417 0.413299 4.346668
-10.865747 1.471273 -1.161602
-10.545666 0.882763 -0.763998
-10.877666 2.361349 -0.503159
-7.072939 0.479050 6.056042
-10.842026 1.868597 -0.618332
-10.834017 1.311752 -0.465834
-10.689743 0.788507 -0.387253
-11.311178 2.368137 -0.628757
-11.039356 1.786159 -0.335709
-11.522747 1.394297 -1.036734
-11.129263 0.785482 -0.533138
-12.038074 2.483052 -1.239634
-11.347677 1.744071 -0.247229
-12.037117 1.414242 -1.283924
-11.852997 0.863564 -1.151524
-12.635061 2.542301 -1.605150
-11.605028 1.683918 -0.071371
-12.562346 2.012524 -1.667509
-12.124205 1.296663 -0.805983
-12.461779 0.901952 -1.547853
-13.111166 2.552715 -1.753798
-12.019873 1.676821 -0.153923
-12.991339 2.002537 -1.742086
-12.271349 1.200319 -0.438257
-13.042719 0.927763 -1.877157
-13.497274 2.528329 -1.746946
-13.376078 1.975835 -1.736586
-12.528646 1.138710 -0.254480
-13.384895 0.884145 -1.804167
-13.895262 2.506529 -1.752562
-13.740953 1.941293 -1.693720
-12.858459 1.098423 -0.185205
-13.857862 1.389653 -1.750700
-13.758999 0.848188 -1.777925
-14.289412 2.481778 -1.745623
-14.176197 1.927602 -1.754622
-13.188396 1.057337 -0.112623
-14.266281 1.364011 -1.769159
-13.510080 0.649103 -0.783371
-14.663132 2.448736 -1.701666
-14.548737 1.892622 -1.711843
-14.665545 1.334134 -1.766642
-13.555882 0.531444 -0.266609
-9.559580 0.646958 6.437660
-15.125824 2.443192 -1.784174
-14.988094 1.876399 -1.763357
-15.060699 1.301614 -1.751562
-13.721081 0.446084 0.059549
-15.569149 2.429095 -1.828878
-15.452188 1.865325 -1.842398
-11.425455 0.199932 4.124525
-15.518772 1.284323 -1.821806
-14.212179 0.440523 -0.096144
-16.031805 2.418866 -1.892679
-15.851385 1.833394 -1.818922
-15.939857 1.255275 -1.830004
-14.633745 0.415892 -0.140112
-15.807131 0.691924 -1.822935
-9.675501 0.346343 7.579264
-12.553219 1.215696 3.558893
-16.451324 2.393306 -1.887026
-11.563612 0.492729 4.795826
-16.228834 1.793959 -1.758944
-16.408651 1.236604 -1.897890
-15.097721 0.399163 -0.235786
-16.303089 0.675766 -1.933012
-12.885277 1.188043 3.592422
-16.901377 2.375101 -1.916506
-16.745911 1.791459 -1.886854
-16.886055 1.217854 -1.968260
-16.639853 0.621513 -1.812155
-10.257479 0.303228 7.617416
-13.494205 1.239325 3.257664
-17.418221 2.374195 -2.027842
-17.290335 1.793432 -2.040224
-17.289734 1.179092 -1.929556
-12.241755 -0.467259 4.740078
-17.011391 0.574207 -1.735880
-12.487625 0.828861 5.077841
-13.949970 1.242707 3.143448
-17.825781 2.339565 -1.983480
-14.194286 0.843557 2.662130
-17.690725 1.754804 -1.989389
-17.670540 1.133590 -1.854803
-17.490345 0.548761 -1.798544
-12.935709 0.836430 4.949251
-14.637747 1.307788 2.737961
-18.306444 2.323791 -2.028421
-12.482304 0.285699 5.395514
-14.488312 0.796847 2.774397
-18.097923 1.716610 -1.942049
-18.093941 1.096800 -1.830984
-12.595556 -0.595151 5.186583
-17.887762 0.504245 -1.745089
-12.499245 0.601676 5.959780
-18.722740 2.288343 -1.982271
-13.433109 0.413469 4.620598
-18.512091 1.678798 -1.898027
-18.549141 1.065628 -1.841425
-13.170513 -0.577796 4.894384
-18.365105 0.474676 -1.789133
-12.433863 0.473060 6.475275
-13.270590 0.694985 5.426353
-12.598715 0.098314 6.129532
-19.013256 1.660771 -1.957865
-19.055622 1.043874 -1.908583
-18.869570 0.448440 -1.858625
-14.270496 0.841396 4.635912
-19.639048 2.234928 -1.975718
-15.448019 0.671992 3.028648
-19.467566 1.629262 -1.950087
-19.490217 1.004415 -1.877157
-19.252472 0.396531 -1.767309
-14.537487 0.793056 4.765879
-15.382753 0.539068 3.588909
-19.892160 1.589063 -1.898813
-19.881937 0.954453 -1.787226
-19.616682 0.340081 -1.648851
-12.540886 0.181551 7.588593
-13.411135 -0.024635 6.415644
-14.687073 0.265834 4.889959
-20.235188 1.528872 -1.744101
-20.235691 0.895655 -1.647478
-20.006081 0.287399 -1.557100
-13.585293 0.333636 6.766895
-20.958998 2.127914 -1.847013
-13.488886 -0.109741 6.742706
-14.893753 0.202936 5.092045
-20.647930 1.483626 -1.668879
-20.601742 0.838599 -1.519201
-20.408571 0.235987 -1.476261
-13.646246 0.242822 7.108276
-21.251991 2.054133 -1.622713
-15.059498 0.131330 5.340652
-17.243725 0.606593 2.818710
-21.152000 1.456987 -1.693838
-21.058506 0.798376 -1.491936
-20.928415 0.203819 -1.526316
-15.544699 0.581838 5.370874
-21.700323 2.016548 -1.573332
-14.201004 -0.157563 6.749153
-21.494768 1.393898 -1.526930
-21.503574 0.754275 -1.444441
-14.923780 -0.937164 5.857855
-21.503506 0.178820 -1.629648
-15.694328 0.505162 5.638159
-22.136541 1.974623 -1.504080
-14.549213 -0.185209 6.769831
-21.935764 1.350683 -1.467207
-14.869179 -0.604245 6.481600
-22.089121 0.734700 -1.546728
-21.876951 0.117857 -1.495901
-14.951588 0.230042 6.875031
-22.586937 1.934432 -1.444397
-14.557978 -0.283139 7.167896
-15.786695 -0.033408 5.821238
-22.391062 1.308899 -1.417036
-22.564537 0.692444 -1.516981
-22.296867 0.063508 -1.409660
-15.687153 0.287096 6.492836
-23.193598 1.926836 -1.545755
-15.653488 -0.163336 6.387829
-22.975616 1.291208 -1.499523
-16.208897 -0.558120 5.858038
-22.994106 0.640360 -1.430681
-22.676746 0.001631 -1.274870
-23.858664 1.928744 -1.696627
-15.525507 -0.289079 6.935989
-23.597717 1.278084 -1.610533
-15.332315 -0.807531 7.204456
-16.527325 -0.601579 5.942694
-23.690538 0.632961 -1.620668
-16.088446 -1.125264 6.264381
-23.322197 -0.020600 -1.418373
-16.309601 0.209136 6.664066
-24.342834 1.889363 -1.646551
-16.200089 -0.259541 6.636681
-24.217012 1.261427 -1.706251
-16.632236 -0.681825 6.252661
-24.089153 0.571949 -1.486519
-16.217287 -1.198165 6.542683
-23.807056 -0.069751 -1.380886
-24.856075 1.854188 -1.618914
-17.061766 -0.199368 6.162622
-24.687626 1.214299 -1.637877
-17.053261 -0.709340 6.236265
-24.480604 0.508762 -1.340881
-16.815037 -1.202614 6.336866
-24.272532 -0.123421 -1.316154
-25.174959 1.778131 -1.389004
-15.016499 -0.671230 8.634132
-17.975378 -0.135334 5.659117
-25.152237 1.164502 -1.556890
-17.370968 -0.755100 6.330753
-25.124269 0.484979 -1.444273
-17.621143 -1.180809 5.934448
-24.893135 -0.156785 -1.401346
-25.908875 1.783118 -1.565569
-17.869238 -0.257571 6.187464
-25.645882 1.118330 -1.498312
-17.462191 -0.837045 6.652109
-25.743626 0.454461 -1.511213
-17.495947 -1.291201 6.475965
-25.291233 -0.223335 -1.254110
-26.705193 1.796259 -1.787165
-17.499304 -0.422713 6.961182
-26.354301 1.107543 -1.641195
-26.230751 0.401141 -1.438595
-26.009747 -0.248181 -1.415148
-27.313713 1.769958 -1.813524
-26.730114 1.037185 -1.452291
-26.826885 0.362344 -1.462944
-26.783623 -0.269210 -1.614573
-28.120770 1.777438 -2.014566
-27.199066 0.981446 -1.347717
-27.941200 0.395923 -1.962137
-27.635735 -0.284084 -1.871531
-28.816891 1.760867 -2.097174
-28.507923 1.059378 -2.011980
-28.554264 0.352738 -1.973364
-28.355801 -0.319297 -1.987848
-29.421207 1.725007 -2.084135
-29.146553 1.024155 -2.035963
-29.155201 0.305439 -1.963251
-28.932938 -0.374661 -1.960245
-21.437677 0.215544 5.546471
-30.094658 1.698568 -2.122484
-29.810352 0.990133 -2.071383
-29.855110 0.269010 -2.031301
-29.578865 -0.424229 -1.985022
-30.748928 1.666002 -2.132334
-30.484798 0.954898 -2.104521
-30.558731 0.230061 -2.089895
-30.242676 -0.474372 -2.014402
-31.458771 1.639812 -2.178705
-31.222660 0.926080 -2.180544
-31.326351 0.196216 -2.190866
-30.947220 -0.522758 -2.067488
-32.149326 1.607445 -2.196329
-31.850662 0.878385 -2.150156
-32.007057 0.148319 -2.204165
-31.655254 -0.573672 -2.111017
-32.827618 1.570264 -2.192057
-32.534332 0.835998 -2.156069
-32.629353 0.090718 -2.157465
-32.305447 -0.633356 -2.093813
-33.608822 1.546025 -2.260122
-33.243938 0.794346 -2.171694
-33.346176 0.041788 -2.178152
-32.958000 -0.695271 -2.067972
-34.269829 1.500416 -2.218271
-33.964359 0.751210 -2.183954
-34.003933 -0.016700 -2.139261
-33.768078 -0.744601 -2.158640
-35.058075 1.470766 -2.265749
-34.625336 0.697504 -2.137114
-34.695129 -0.074000 -2.116278
-34.512119 -0.803437 -2.182215
-35.724125 1.420358 -2.205301
-35.406334 0.656298 -2.172964
-35.475475 -0.124484 -2.151045
-35.204288 -0.869857 -2.152655
-36.479282 1.379786 -2.201982
-36.175049 0.610333 -2.185934
-36.291065 -0.174528 -2.199106
-35.930496 -0.935946 -2.137991
-37.341122 1.350560 -2.265413
-36.962910 0.563498 -2.200224
-37.030571 -0.235549 -2.176111
-36.659351 -1.004595 -2.113398
-38.142921 1.309661 -2.269773
-37.794159 0.518441 -2.233084
-37.796803 -0.296840 -2.160662
-37.487068 -1.068090 -2.149946
-38.915611 1.261717 -2.239817
-38.532181 0.459491 -2.184309
-38.565819 -0.360858 -2.134619
-38.253784 -1.139611 -2.127951
-39.756035 1.219199 -2.245031
-39.378113 0.409465 -2.200346
-39.435181 -0.418736 -2.167059
-39.055691 -1.211445 -2.118502
-40.632530 1.177628 -2.261091
-40.276569 0.361537 -2.238634
-40.308262 -0.479824 -2.187155
-39.860538 -1.286170 -2.097818
-41.512623 1.132838 -2.264730
-41.088470 0.300982 -2.202230
-41.184910 -0.544127 -2.194834
-40.799850 -1.354768 -2.156313
-42.429283 1.088669 -2.277998
-42.035423 0.250724 -2.243372
-42.164433 -0.603498 -2.256681
-41.710274 -1.429076 -2.178907
-43.449566 1.052397 -2.343596
-42.953178 0.193704 -2.248934
-43.115017 -0.669208 -2.282385
-42.616028 -1.507287 -2.182917
-44.373959 1.001213 -2.329763
-43.941418 0.139574 -2.284678
-43.901756 -0.751246 -2.186117
-43.466564 -1.592365 -2.135820
-45.394352 0.956534 -2.361139
-44.832764 0.072558 -2.241953
-44.993809 -0.813754 -2.271193
-44.530186 -1.668428 -2.210985
-46.461281 0.912413 -2.403864
-45.997765 0.026124 -2.355288
-46.023033 -0.885249 -2.297979
-45.488480 -1.754586 -2.201551
-47.464523 0.857370 -2.389608
-46.955620 -0.042939 -2.321234
-47.090393 -0.958315 -2.330500
-46.518215 -1.840757 -2.220064
-48.608292 0.812025 -2.442343
-48.096222 -0.100747 -2.381102
-48.093430 -1.039893 -2.306295
-47.440605 -1.936301 -2.156408
-49.550255 0.742654 -2.357550
-49.035248 -0.179332 -2.302649
-49.168663 -1.120896 -2.307898
-48.580570 -2.025153 -2.206606
-50.641724 0.683447 -2.343405
-50.080467 -0.253365 -2.270510
-50.143852 -1.212159 -2.233877
-49.586777 -2.124485 -2.159605
-51.147717 -1.305498 -2.160418
-50.595947 -2.227544 -2.097883
-52.320309 -1.393480 -2.164160
-51.773758 -2.327860 -2.113844
-53.549648 -1.483199 -2.178953
-54.256210 -2.538125 -2.154085
6.496765 -4.604917 30.387293
6.440035 -4.600737 30.367147
6.485789 -4.605845 30.387079
6.493947 -4.606542 30.393269
6.511073 -4.604056 30.404106
6.493043 -4.607085 30.395279
6.482975 -4.607537 30.393337
6.509456 -4.605061 30.407837
6.491292 -4.608172 30.399319
6.508672 -4.605564 30.409712
6.527440 -4.608916 30.416555
6.507905 -4.606067 30.411596
6.489613 -4.609262 30.403391
6.525804 -4.606858 30.420710
6.479488 -4.609800 30.401793
6.515778 -4.607198 30.418915
6.497350 -4.610341 30.411057
6.487232 -4.610901 30.409552