# This PCD file was generated using the MATLAB® pcwrite function
# from Computer Vision System Toolbox®.
# .PCD v.7 - Point Cloud Data file format
VERSION .7
FIELDS x y z
SIZE 4 4 4
TYPE F F F
COUNT 1 1 1
WIDTH 750
HEIGHT 1
VIEWPOINT 0 0 0 1 0 0 0
POINTS 750
DATA ascii
-29.420515 -15.788914 0.338926
-28.511581 -15.980635 0.391563
-28.872356 -15.471773 0.371983
-28.015675 -15.684943 0.387661
-28.419306 -15.205381 0.320793
-27.534708 -15.397987 0.378141
-27.941275 -14.926330 0.303360
-27.068470 -15.119618 0.362583
-27.517088 -14.676067 0.239132
-26.623127 -14.853189 0.333712
-27.042204 -14.399680 0.235939
-26.160248 -14.577604 0.332363
-26.543552 -14.111402 0.267675
-25.762152 -14.337925 0.268454
-26.123615 -13.864793 0.223623
-25.290085 -14.058235 0.294788
-25.679649 -13.606109 0.213909
-24.894495 -13.820742 0.243305
-25.262411 -13.361812 0.182545
-24.469261 -13.567491 0.233393
-24.821690 -13.105779 0.185949
-24.057814 -13.322167 0.215424
-24.413565 -12.867122 0.159925
-23.647840 -13.078055 0.203550
-23.976297 -12.613849 0.176239
-23.239403 -12.835187 0.197737
-23.534943 -12.358976 0.206423
-22.879936 -12.619222 0.138800
-23.197601 -12.158131 0.117628
-22.497780 -12.391336 0.114733
-22.789347 -11.921187 0.122789
-22.093651 -12.151983 0.126198
-22.412216 -11.700646 0.096388
-21.714317 -11.926391 0.113319
-22.007164 -11.466241 0.113150
-21.342068 -11.704981 0.098251
-21.621256 -11.242064 0.112947
-20.965498 -11.481624 0.096149
-21.248325 -11.024918 0.102913
-20.607182 -11.268414 0.076212
-20.865456 -10.803140 0.113596
-20.261124 -11.062102 0.045700
-20.512247 -10.596807 0.090807
-19.894196 -10.844991 0.051327
-20.160170 -10.391418 0.072886
-19.561279 -10.646352 0.014730
-19.814762 -10.189760 0.051914
-19.213175 -10.439956 0.006481
-19.486742 -9.997190 0.011814
-18.823965 -10.212123 0.067055
-19.095118 -9.773110 0.072062
-18.541779 -10.041321 -0.027906
-18.785381 -9.590405 0.017143
-18.135262 -9.805122 0.075203
-18.402702 -9.371684 0.079657
-18.509428 -8.845055 0.070244
-18.774616 -8.410440 0.078045
-17.854416 -9.635583 -0.011560
-18.120850 -9.203487 -0.007315
-18.184984 -8.658977 0.050331
-18.432775 -8.219765 0.082325
-17.533125 -9.445003 -0.029200
-17.777473 -9.005069 0.007610
-17.861534 -8.473725 0.034674
-18.113232 -8.039242 0.058317
-17.187866 -9.242168 -0.001308
-17.435598 -8.807791 0.027174
-17.539114 -8.289322 0.023249
-17.768732 -7.848308 0.079739
-16.854145 -9.045734 0.014681
-17.095266 -8.611677 0.051350
-17.177425 -8.087232 0.082567
-17.425800 -7.658549 0.105757
-16.555994 -8.868203 -0.023329
-16.796074 -8.436125 0.013311
-16.877621 -7.914023 0.046453
-17.124878 -7.487270 0.069485
-16.220001 -8.671241 0.009661
-16.458469 -8.242102 0.046228
-16.563713 -7.734690 0.039354
-16.784714 -7.299624 0.104219
-15.942653 -8.505085 -0.054214
-16.180361 -8.077442 -0.017653
-16.280014 -7.569436 -0.014471
-16.525043 -7.146542 0.008249
-15.628036 -8.319847 -0.046755
-15.864415 -7.894664 -0.010244
-15.943938 -7.380779 0.028725
-16.187300 -6.960784 0.051216
-15.333152 -8.145118 -0.069366
-15.568490 -7.721914 -0.032885
-15.647477 -7.210414 0.007961
-15.894519 -6.794351 0.021751
-15.002587 -7.952283 -0.019583
-15.236320 -7.532022 0.016825
-15.351817 -7.040730 -0.009109
-15.592942 -6.624590 0.013065
-14.709809 -7.779228 -0.034445
-14.947066 -7.363134 -0.006693
-15.038580 -6.863557 0.012054
-15.278314 -6.449831 0.034035
-14.440032 -7.618222 -0.089012
-14.672035 -7.201319 -0.052639
-14.749411 -6.697453 -0.006195
-14.969671 -6.277991 0.050331
-14.126839 -7.435262 -0.053202
-14.384064 -7.033588 -0.069155
-14.452069 -6.528072 -0.003447
-14.707727 -6.125583 -0.016645
-13.836712 -7.264386 -0.057135
-14.083767 -6.860318 -0.055866
-14.177827 -6.369158 -0.040838
-14.418951 -5.962533 -0.028049
-13.534831 -7.087826 -0.031069
-13.780375 -6.685941 -0.030014
-13.891001 -6.205033 -0.048542
-14.108957 -5.791346 0.008049
-13.292692 -6.941802 -0.124960
-13.537710 -6.540412 -0.124043
-13.617869 -6.047156 -0.079306
-13.852621 -5.641972 -0.058029
-13.004984 -6.772941 -0.118477
-13.252875 -6.375319 -0.126635
-13.328400 -5.882535 -0.071281
-13.562029 -5.479277 -0.050165
-12.738503 -6.615029 -0.153063
-12.944310 -6.199518 -0.072264
-13.039991 -5.718736 -0.059729
-13.255651 -5.310826 -0.003086
-12.464495 -6.453568 -0.166599
-12.694053 -6.051078 -0.139355
-12.768981 -5.562675 -0.080532
-13.000641 -5.162782 -0.059696
-12.179482 -6.286870 -0.149868
-12.403965 -5.884498 -0.113705
-12.498559 -5.407142 -0.098156
-12.729369 -5.008690 -0.077438
-11.880262 -6.113416 -0.093513
-12.103433 -5.713510 -0.057409
-12.212986 -5.245582 -0.076445
-12.458715 -4.855142 -0.092018
-11.643045 -5.970991 -0.178585
-11.869864 -5.573366 -0.151516
-11.944094 -5.091316 -0.087606
-12.172932 -4.696229 -0.067167
-11.379499 -5.815715 -0.197327
-11.598030 -5.416028 -0.152098
-11.672068 -4.936064 -0.086519
-11.919361 -4.549734 -0.111740
-11.109236 -5.657375 -0.194721
-11.330718 -5.261014 -0.158623
-11.423305 -4.790600 -0.137142
-11.650719 -4.397906 -0.116913
-10.829130 -5.494494 -0.161396
-11.064117 -5.106595 -0.162033
-11.137891 -4.630547 -0.093168
-11.382800 -4.246680 -0.118979
-10.564293 -5.339348 -0.161556
-10.783995 -4.946476 -0.125513
-10.875520 -4.480144 -0.101082
-11.100958 -4.090813 -0.081127
-10.313926 -5.191454 -0.195631
-10.547147 -4.805749 -0.196556
-10.638510 -4.340052 -0.170753
-10.849247 -3.946096 -0.113880
-10.050369 -5.037406 -0.189789
-10.268860 -4.647059 -0.153765
-10.373503 -4.189116 -0.163622
-10.601318 -3.802923 -0.153112
-9.804070 -4.891877 -0.227463
-10.035594 -4.508242 -0.228662
-10.122896 -4.044083 -0.190718
-10.346604 -3.657613 -0.171017
-9.541829 -4.738938 -0.215706
-9.759177 -4.350999 -0.179699
-9.846009 -3.889239 -0.140266
-10.082154 -3.509281 -0.158073
-9.293049 -4.592638 -0.238430
-9.509933 -4.205721 -0.202425
-9.596582 -3.745231 -0.161583
-9.818586 -3.361636 -0.142124
-9.035370 -4.442353 -0.230194
-9.273611 -4.066105 -0.259993
-9.347504 -3.601588 -0.180157
-9.581930 -3.223198 -0.198368
-8.787493 -4.296905 -0.247332
-9.003238 -3.912397 -0.211348
-9.098792 -3.458321 -0.195990
-9.322820 -3.077652 -0.186125
-8.525313 -4.145029 -0.214430
-8.752271 -3.767114 -0.216299
-8.850475 -3.315443 -0.209095
-9.073853 -2.935684 -0.199339
-8.292897 -4.007169 -0.273422
-8.507719 -3.624709 -0.237446
-8.593664 -3.169794 -0.191013
-8.813148 -2.790373 -0.171917
-8.046227 -3.862906 -0.282394
-8.260587 -3.481470 -0.246424
-8.346412 -3.027858 -0.198618
-8.562349 -2.648496 -0.170095
-7.775503 -3.707950 -0.202780
-8.002733 -3.334195 -0.214552
-8.110923 -2.890235 -0.241701
-8.326630 -2.511383 -0.213202
-7.554252 -3.575649 -0.292248
-7.778574 -3.200547 -0.294544
-7.864327 -2.748992 -0.244034
-8.090817 -2.374366 -0.253828
-7.308992 -3.432680 -0.293152
-7.532566 -3.058432 -0.295553
-7.628962 -2.611743 -0.282064
-7.854933 -2.237455 -0.291977
-7.061739 -3.289060 -0.281767
-7.287072 -2.916772 -0.293896
-7.383105 -2.471239 -0.279158
-7.600242 -2.095608 -0.260401
-6.827339 -3.151310 -0.315887
-7.039609 -2.774637 -0.279945
-7.137795 -2.331209 -0.273600
-7.364779 -1.959246 -0.293447
-6.595281 -3.014715 -0.357212
-6.814738 -2.641163 -0.350225
-6.893054 -2.191664 -0.265402
-7.116632 -1.819844 -0.275766
-6.342470 -2.869386 -0.308954
-6.551533 -2.493788 -0.263348
-6.656079 -2.054757 -0.283627
-6.874143 -1.682210 -0.274763
-6.108573 -2.732376 -0.335554
-6.326678 -2.360618 -0.328722
-6.412320 -1.916088 -0.270252
-6.617786 -1.541699 -0.213013
-5.866141 -2.591971 -0.320801
-6.083570 -2.221110 -0.314043
-6.169193 -1.777937 -0.254271
-6.383633 -1.406699 -0.235893
-5.630563 -2.454635 -0.332687
-5.851805 -2.085761 -0.345474
-5.937585 -1.643240 -0.284414
-6.160758 -1.274201 -0.305012
-5.389217 -2.315161 -0.312807
-5.607569 -1.946414 -0.315943
-5.701719 -1.507569 -0.292643
-5.909041 -1.136005 -0.245098
-5.163943 -2.182324 -0.368624
-5.374130 -1.810904 -0.332693
-5.462054 -1.371197 -0.278851
-5.681654 -1.002852 -0.289948
-4.917847 -2.041458 -0.314344
-5.127369 -1.671426 -0.278448
-5.226861 -1.236211 -0.282133
-5.439800 -0.867323 -0.263968
-4.683576 -1.905467 -0.316320
-4.902082 -1.538867 -0.329491
-4.993839 -1.101950 -0.292780
-5.214262 -0.734687 -0.313879
-4.451308 -1.770426 -0.325687
-4.667498 -1.403643 -0.329111
-4.753763 -0.966458 -0.261709
-4.965813 -0.598986 -0.243666
-4.220843 -1.636216 -0.342503
-4.428141 -1.267351 -0.296761
-4.521384 -0.832858 -0.267490
-4.734926 -0.466055 -0.259325
-3.981097 -1.498912 -0.297771
-4.189569 -1.131662 -0.261898
-4.297486 -0.700919 -0.320168
-4.507543 -0.333615 -0.292318
-3.761539 -1.368808 -0.378912
-3.976593 -1.002654 -0.382486
-4.063576 -0.567394 -0.311365
-4.274981 -0.200837 -0.293417
-3.525565 -1.233261 -0.349085
-3.739936 -0.867839 -0.352732
-3.837588 -0.435202 -0.349573
-4.050539 -0.068699 -0.341503
-3.288954 -1.097848 -0.306900
-3.502574 -0.733280 -0.310619
-3.606964 -0.302503 -0.355812
-3.816599 0.063756 -0.328012
-3.063254 -0.966033 -0.341560
-3.276681 -0.601352 -0.345310
-3.369677 -0.169488 -0.310162
-3.585937 0.195854 -0.331917
-2.837241 -0.834175 -0.373943
-3.045471 -0.468562 -0.338041
-3.143544 -0.037630 -0.341398
-3.354066 0.327669 -0.323568
-2.609826 -0.702003 -0.394108
-2.823972 -0.337377 -0.407845
-2.912293 0.094329 -0.330643
-3.122507 0.459163 -0.312855
-2.384345 -0.570370 -0.431858
-2.596089 -0.205233 -0.425747
-2.685904 0.226059 -0.357279
-2.896087 0.590910 -0.339493
-2.153672 -0.437664 -0.417578
-2.361940 -0.072719 -0.381662
-2.453974 0.357452 -0.331911
-2.669415 0.722665 -0.363848
-1.926880 -0.305908 -0.440790
-2.139057 0.058854 -0.444679
-2.228456 0.489082 -0.363892
-2.438300 0.853485 -0.346148
-1.699861 -0.174160 -0.461716
-1.908342 0.190662 -0.425776
-1.998034 0.620006 -0.343815
-2.207570 0.983944 -0.326109
-1.466059 -0.041854 -0.390593
-1.674020 0.321818 -0.354694
-1.771342 0.751358 -0.361256
-1.980846 1.115315 -0.343554
-1.239318 0.089458 -0.406889
-1.448110 0.453169 -0.380959
-1.544467 0.882679 -0.376415
-1.757244 1.248110 -0.398552
-1.007766 0.220545 -0.341040
-1.215382 0.583127 -0.305166
-1.315384 1.013096 -0.359369
-1.526869 1.377949 -0.371592
-0.785331 0.351961 -0.432632
-0.993611 0.715448 -0.396715
-1.090239 1.145184 -0.399878
-1.299650 1.509194 -0.382181
-0.558119 0.483132 -0.442076
-0.766507 0.846558 -0.406155
-0.858680 1.273354 -0.328346
-1.069303 1.637901 -0.340637
-0.330786 0.614237 -0.449232
-0.539280 0.977601 -0.413307
-0.631852 1.404098 -0.334343
-0.844836 1.771487 -0.396498
-0.102515 0.744671 -0.424118
-0.311948 1.108567 -0.418175
-0.406822 1.537067 -0.387972
-0.617276 1.902516 -0.400225
0.124178 0.876205 -0.456682
-0.084529 1.239446 -0.420753
-0.180351 1.669370 -0.419355
-0.389638 2.033453 -0.401661
0.352153 1.006194 -0.426991
0.143547 1.369010 -0.391077
0.047318 1.800187 -0.418505
-0.161937 2.164288 -0.400810
0.579423 1.137785 -0.454983
0.370502 1.500903 -0.419054
0.275031 1.930893 -0.415367
0.065807 2.295011 -0.397671
0.807107 1.268405 -0.450699
0.598079 1.631462 -0.414772
0.502771 2.061476 -0.409939
0.292996 2.428636 -0.432125
1.035615 1.402219 -0.524057
0.825831 1.764574 -0.458134
0.730518 2.194642 -0.442131
0.521149 2.558480 -0.414431
1.264100 1.533381 -0.525166
1.054233 1.897404 -0.489199
0.958788 2.327291 -0.462038
0.749178 2.693151 -0.454239
1.492468 1.663980 -0.513988
1.283224 2.030433 -0.517941
1.187789 2.461578 -0.499567
0.977856 2.827217 -0.481760
1.721785 1.796057 -0.530460
1.511754 2.160987 -0.504461
1.416371 2.592094 -0.484938
1.206470 2.957750 -0.467127
1.950698 1.927051 -0.524660
1.740232 2.291375 -0.488689
1.644893 2.722437 -0.468014
1.434789 3.087139 -0.440248
2.179214 2.057322 -0.506584
1.968641 2.421585 -0.470623
1.873337 2.852598 -0.448795
1.663497 3.218290 -0.430979
2.409862 2.190103 -0.526068
2.198420 2.553995 -0.480137
2.103500 2.986319 -0.467070
1.891877 3.348278 -0.409472
2.641011 2.323031 -0.543201
2.429670 2.688142 -0.507217
2.335742 3.123122 -0.512808
2.123361 3.485772 -0.455172
2.869820 2.453055 -0.518194
2.658373 2.818105 -0.482220
2.564680 3.253150 -0.486629
2.352028 3.615646 -0.429026
3.103958 2.588483 -0.560450
2.891919 2.954319 -0.524452
2.793470 3.382955 -0.458158
2.585430 3.754793 -0.479870
3.333000 2.718362 -0.530790
3.124791 3.088972 -0.544416
3.025872 3.518073 -0.476942
2.814388 3.884554 -0.449062
3.566528 2.852445 -0.548416
3.353930 3.218767 -0.512423
3.254691 3.647618 -0.443836
3.046968 4.020435 -0.465410
3.799610 2.985776 -0.553738
3.590380 3.356731 -0.557339
3.490559 3.786463 -0.487534
3.279264 4.155174 -0.469473
4.033085 3.119190 -0.556671
3.819721 3.486361 -0.520666
3.727411 3.925726 -0.528748
3.514678 4.294063 -0.500744
4.270407 3.255723 -0.586851
4.056452 3.623682 -0.550827
3.956780 4.055162 -0.488569
3.748936 4.430472 -0.509832
4.499907 3.385162 -0.545477
4.290500 3.757779 -0.548920
4.194946 4.194887 -0.524878
3.982628 4.565579 -0.506653
4.740911 3.524218 -0.590487
4.531076 3.898035 -0.593843
4.429215 4.329538 -0.519327
4.216648 4.700730 -0.501060
4.976073 3.658021 -0.583744
4.760902 4.027377 -0.547712
4.663794 4.464223 -0.511362
4.455824 4.842020 -0.532284
5.217363 3.796589 -0.613869
5.001534 4.166855 -0.577816
4.904087 4.604721 -0.540178
4.690743 4.977394 -0.521790
5.453403 3.930604 -0.602213
5.235730 4.299948 -0.556360
5.139527 4.739606 -0.527298
4.925934 5.112778 -0.508865
5.689706 4.064622 -0.588125
5.477727 4.439909 -0.581425
5.375221 4.874491 -0.511982
5.159943 5.246510 -0.483749
5.919528 4.193394 -0.532515
5.707668 4.568748 -0.525787
5.617466 5.015656 -0.533220
5.403095 5.390309 -0.514662
6.161267 4.331277 -0.542873
5.952414 4.710492 -0.555569
5.867137 5.163590 -0.590776
5.644038 5.531030 -0.523500
6.412806 4.476348 -0.599327
6.194588 4.849594 -0.563255
6.104366 5.298904 -0.567892
5.888937 5.675518 -0.549170
6.644775 4.606259 -0.546179
6.433723 4.985792 -0.548956
6.341771 5.434171 -0.542543
6.126091 5.811284 -0.523777
6.898221 4.752107 -0.597290
6.684624 5.131605 -0.590263
6.592463 5.581550 -0.582399
6.376045 5.960005 -0.563524
7.150944 4.897032 -0.635923
6.930759 5.273015 -0.599812
6.840427 5.725875 -0.600187
6.614008 6.095930 -0.533041
7.389950 5.031549 -0.604242
7.177609 5.414677 -0.606705
7.069008 5.852322 -0.519045
6.852088 6.231774 -0.500078
7.640055 5.173974 -0.618198
7.427286 5.558299 -0.620552
7.317921 5.996882 -0.531639
7.106481 6.383380 -0.541355
7.888709 5.315067 -0.619831
7.666767 5.693425 -0.583702
7.565474 6.139843 -0.531935
7.345322 6.519352 -0.503233
8.138015 5.456374 -0.618774
7.915418 5.835646 -0.582636
7.820399 6.288839 -0.558186
7.603779 6.673776 -0.548479
8.385533 5.596161 -0.605465
8.174099 5.985435 -0.617044
8.081015 6.442238 -0.600626
7.859094 6.824591 -0.571737
8.638497 5.739577 -0.608545
8.424284 6.128205 -0.610464
8.331012 6.586105 -0.592602
8.101530 6.962965 -0.535189
8.889631 5.881446 -0.599354
8.665076 6.263460 -0.563194
8.581586 6.730139 -0.581844
8.368022 7.123105 -0.590683
9.138693 6.021635 -0.577959
8.936660 6.422105 -0.626972
8.830178 6.872223 -0.558901
8.621298 7.270615 -0.586452
9.412530 6.178821 -0.638842
9.199386 6.573526 -0.649813
9.092189 7.025084 -0.580334
8.872711 7.416080 -0.570004
9.665795 6.321411 -0.621214
9.452362 6.717230 -0.632038
9.355284 7.178388 -0.598770
9.132457 7.568582 -0.578915
9.945230 6.481763 -0.685255
9.714184 6.867299 -0.639618
9.608439 7.323233 -0.576771
9.385079 7.714405 -0.556833
10.185493 6.614934 -0.615047
9.956924 7.002861 -0.578810
9.864879 7.470438 -0.561312
9.660176 7.879382 -0.606480
10.440467 6.757998 -0.588957
10.225883 7.157643 -0.599293
10.150829 7.640811 -0.635910
9.914269 8.025701 -0.578564
10.708137 6.909452 -0.597216
10.492985 7.310695 -0.607376
10.406158 7.786379 -0.605137
10.180354 8.181930 -0.584839
10.986193 7.067632 -0.630175
10.782541 7.479787 -0.677134
10.674017 7.941515 -0.608448
10.447397 8.338525 -0.588028
11.259204 7.222092 -0.641401
11.039500 7.624736 -0.641949
10.955231 8.106669 -0.645430
10.727516 8.505620 -0.624855
11.516880 7.366002 -0.603506
11.300021 7.772034 -0.613104
11.225210 8.262643 -0.642385
10.999786 8.665628 -0.630838
11.801684 7.527790 -0.635996
11.567575 7.924134 -0.599638
11.509055 8.428910 -0.672701
11.266725 8.820803 -0.615385
12.101594 7.699275 -0.701542
11.879418 8.107564 -0.701576
11.767784 8.575529 -0.626865
11.550604 8.989463 -0.642242
12.347633 7.834728 -0.618029
12.111685 8.233884 -0.581638
12.053866 8.742685 -0.650568
11.835868 9.158710 -0.665644
12.621842 7.988622 -0.604294
12.398933 8.399053 -0.604046
12.330938 8.902590 -0.643745
12.108944 9.317616 -0.649534
12.925863 8.161847 -0.659441
12.701762 8.574804 -0.658981
12.615968 9.068110 -0.651596
12.382790 9.476771 -0.630220
13.216958 8.326231 -0.674887
12.977427 8.731060 -0.638382
12.891376 9.226043 -0.629183
12.671470 9.647371 -0.643404
13.479208 8.471471 -0.615347
13.272309 8.900438 -0.659185
13.182143 9.395067 -0.639130
12.961412 9.818483 -0.653038
13.787624 8.646568 -0.659588
13.561046 9.065164 -0.658583
13.474147 9.564589 -0.645508
13.237949 9.978584 -0.623699
14.097803 8.822447 -0.699936
13.850863 9.230301 -0.654476
13.767351 9.734585 -0.648298
13.530053 10.150518 -0.626331
14.389862 8.986240 -0.692301
14.161241 9.409282 -0.690884
14.077191 9.916355 -0.682587
13.834716 10.331758 -0.651655
14.691015 9.155619 -0.698666
14.457437 9.578094 -0.688280
14.357244 10.075929 -0.643017
14.117743 10.495737 -0.620735
14.989321 9.322855 -0.692574
14.738610 9.736282 -0.647141
14.685872 10.270449 -0.704451
14.444705 10.693155 -0.681944
15.305407 9.501206 -0.717560
15.073685 9.930972 -0.715509
14.984103 10.442441 -0.692320
14.757821 10.879314 -0.704218
15.618843 9.677518 -0.729864
15.385996 10.109688 -0.727594
15.283375 10.614807 -0.676485
15.052192 11.050667 -0.679453
15.925093 9.848911 -0.721006
15.674308 10.271761 -0.684155
15.600451 10.799562 -0.691181
15.355693 11.228559 -0.668163
16.241205 10.026289 -0.725433
16.010544 10.465925 -0.731266
15.901967 10.972761 -0.667706
15.672885 11.416348 -0.678564
16.527609 10.184470 -0.666290
16.296366 10.625692 -0.671890
16.217413 11.155509 -0.665880
15.974497 11.591936 -0.650988
16.886452 10.388332 -0.739115
16.653528 10.833084 -0.744390
16.560539 11.357436 -0.710548
16.311621 11.793684 -0.686954
17.211205 10.570204 -0.739723
16.954655 11.002467 -0.702669
16.865549 11.531930 -0.675167
16.628696 11.979914 -0.676525
17.537325 10.752611 -0.736137
17.297575 11.199435 -0.732477
17.225704 11.744855 -0.735920
16.969271 12.183110 -0.703592
17.845991 10.923705 -0.695065
17.605316 11.372563 -0.691183
17.533112 11.920233 -0.692297
17.293589 12.373734 -0.692949
18.217323 11.133891 -0.757648
17.970142 11.583254 -0.745207
17.897135 12.134813 -0.743595
17.655851 12.591792 -0.743841
18.566935 11.330028 -0.773977
18.303949 11.772927 -0.736673
18.225664 12.324115 -0.724358
17.983177 12.783609 -0.724262
18.854725 11.487123 -0.679396
18.615002 11.947212 -0.682915
18.574507 12.527110 -0.733343
18.311693 12.975852 -0.700377
19.246515 11.708940 -0.751932
18.965778 12.147345 -0.690166
18.925001 12.730770 -0.737591
18.679546 13.196253 -0.736740
19.600836 11.906949 -0.754353
19.333021 12.357864 -0.716860
19.277103 12.935069 -0.737072
19.030167 13.403545 -0.735840
19.956745 12.105585 -0.751991
19.687206 12.559376 -0.714428
19.645678 13.150225 -0.755688
19.362753 13.597307 -0.698263
20.329609 12.314386 -0.768721
20.083485 12.787966 -0.770866
20.026196 13.373051 -0.785017
19.755877 13.834201 -0.751286
20.693939 12.517508 -0.764469
20.400164 12.964168 -0.695116
20.342617 13.551523 -0.706614
20.091208 14.028971 -0.704237
21.054583 12.717981 -0.747387
20.805561 13.197758 -0.748852
20.757372 13.796720 -0.772739
20.488449 14.267585 -0.746450
21.501753 12.971517 -0.850279
21.223963 13.439245 -0.812319
21.117506 14.004143 -0.747353
20.867472 14.492549 -0.751860
21.887642 13.186754 -0.853500
21.607861 13.657846 -0.815451
21.500057 14.226329 -0.747858
21.269112 14.733007 -0.782692
22.253557 13.389306 -0.820549
21.972057 13.863277 -0.782425
21.927027 14.478039 -0.804178
21.651939 14.959501 -0.777081
22.659224 13.615923 -0.836077
22.380960 14.097125 -0.805479
22.313522 14.701812 -0.793379
22.031153 15.182891 -0.758432
23.072483 13.846769 -0.853386
22.786530 14.328325 -0.815037
22.679869 14.911544 -0.746929
22.422657 15.414412 -0.749481
23.470985 14.068149 -0.842165
23.182976 14.553193 -0.803720
23.113451 15.165974 -0.785225
22.848509 15.669479 -0.779745
23.882528 14.297097 -0.840240
23.592329 14.785875 -0.801685
23.549509 15.421439 -0.817051
23.260225 15.913982 -0.781408
24.278734 14.516268 -0.810179
24.009212 15.022893 -0.801144
23.942986 15.647858 -0.783434
23.657234 16.147617 -0.754951
24.699570 14.750055 -0.803925
24.410851 15.249706 -0.772507
24.360622 15.889904 -0.773436
24.095066 16.409134 -0.773861
25.169048 15.013001 -0.849905
24.871805 15.513834 -0.810980
24.803043 16.147888 -0.786316
24.529514 16.667633 -0.778938
25.570387 15.234053 -0.802027
25.271160 15.738256 -0.763008
25.247688 16.406757 -0.792564
24.977520 16.934877 -0.791861
26.020697 15.484420 -0.805828
25.718945 15.992968 -0.766670
25.671087 16.650980 -0.763634
25.416233 17.195036 -0.783758
26.497196 15.750177 -0.831383
26.222383 16.282375 -0.827581
26.137476 16.923069 -0.777945
25.862757 17.459957 -0.776121
26.951914 16.002256 -0.821527
26.668852 16.535151 -0.810236
26.636019 17.215719 -0.820158
26.328972 17.737774 -0.782721
27.402496 16.251379 -0.797924
27.147486 16.807707 -0.821148
27.089273 17.477896 -0.799055
26.803415 18.020550 -0.789095
27.935230 16.549574 -0.857643
27.622364 17.077332 -0.817839
27.568691 17.756674 -0.798639
27.280172 18.304216 -0.788137
28.433712 16.826563 -0.867851
28.111750 17.355524 -0.821012
28.099337 18.068371 -0.845377
27.813644 18.625893 -0.841072
28.584801 17.622896 -0.796305
28.558893 18.332874 -0.802668
28.264772 18.890675 -0.791046
29.101093 18.650726 -0.839945
28.797512 19.210310 -0.821028
29.583445 18.928881 -0.802345
24.315771 16.131187 4.501078
24.480566 16.207840 4.782368
25.210949 16.022722 4.727598
24.990187 16.517307 4.708393
26.358875 17.368572 4.249578
25.620752 16.804958 5.871346
0.917505 0.269362 29.446123
0.935205 0.285868 29.427923
0.933642 0.279289 29.437960
0.891579 0.256321 29.474253
0.921508 0.271314 29.451944
0.912821 0.270224 29.458117
0.922813 0.271947 29.453911
0.907330 0.266360 29.465879
0.882901 0.246314 29.490717
0.888139 0.253451 29.485104
0.925380 0.273184 29.457880
0.937080 0.285581 29.446665
0.898810 0.256111 29.482531
0.883336 0.249912 29.494038
0.927888 0.274385 29.461899
0.939767 0.286867 29.450970
0.872749 0.239277 29.508066
0.920160 0.273750 29.469669
0.894887 0.253136 29.493189
0.907294 0.265101 29.482508
0.894243 0.256362 29.495064