# This PCD file was generated using the MATLAB® pcwrite function
# from Computer Vision System Toolbox®.
# .PCD v.7 - Point Cloud Data file format
VERSION .7
FIELDS x y z
SIZE 4 4 4
TYPE F F F
COUNT 1 1 1
WIDTH 897
HEIGHT 1
VIEWPOINT 0 0 0 1 0 0 0
POINTS 897
DATA ascii
8.125137 31.888374 -0.980812
8.744617 31.755539 -0.949080
8.056135 31.267437 -0.926105
8.662832 31.071245 -0.831297
7.980456 30.550047 -0.765057
8.572601 30.291817 -0.605976
7.915540 29.972273 -0.727764
8.517540 29.885660 -0.736216
7.865408 29.593859 -0.881811
8.458109 29.430635 -0.811829
7.799458 28.992685 -0.802034
8.388168 28.858744 -0.759771
7.695263 27.844116 -0.135469
8.295714 28.035789 -0.432228
7.643444 27.426062 -0.216934
8.208319 27.261616 -0.136414
7.602606 27.164297 -0.462454
8.150651 26.811802 -0.175146
7.565214 26.953997 -0.764936
8.114180 26.597315 -0.467836
7.505981 26.422112 -0.707508
8.069160 26.287193 -0.654388
7.454341 25.998434 -0.763535
8.019468 25.923494 -0.777542
7.394437 25.445753 -0.662796
7.955169 25.391024 -0.699326
7.338562 24.948351 -0.615852
7.908170 25.054594 -0.843475
7.294621 24.632177 -0.778011
7.854112 24.635023 -0.883928
7.244308 24.214243 -0.812922
7.796073 24.166391 -0.857311
7.197396 23.847532 -0.905291
7.744805 23.774811 -0.918558
7.152514 23.511963 -1.032867
7.693770 23.384054 -0.975275
7.100002 23.047882 -0.990711
7.644486 23.012430 -1.051239
7.046560 22.562227 -0.910931
7.574638 22.388590 -0.788221
6.992321 22.055897 -0.792933
7.520841 21.955502 -0.765394
6.937419 21.529789 -0.636152
7.450439 21.312927 -0.446590
6.891384 21.153767 -0.675549
7.405276 20.979654 -0.541483
6.846224 20.790255 -0.727024
7.362474 20.675100 -0.673717
6.784010 20.103489 -0.305824
7.319230 20.364229 -0.794687
6.726438 19.487396 0.034035
7.225614 19.398119 0.055796
8.264884 19.592937 -0.743406
6.682178 19.117056 0.024599
7.183251 19.089197 -0.044891
7.712274 19.381239 -0.888737
8.218441 19.272541 -0.838299
6.653381 19.054367 -0.449194
7.168374 19.145369 -0.703405
7.663954 19.027607 -0.930313
8.157781 18.839088 -0.753435
6.628362 19.082108 -1.075562
7.130593 18.901115 -0.910421
7.616377 18.680107 -0.976469
8.113064 18.530672 -0.857639
6.581353 18.658596 -1.002350
7.087554 18.585787 -1.005392
7.564308 18.286039 -0.942429
8.060481 18.159142 -0.856800
6.537943 18.306107 -1.034681
7.036287 18.155161 -0.909889
7.510592 17.873316 -0.869665
8.008205 17.789091 -0.851774
6.491114 17.871693 -0.926350
6.992160 17.820530 -0.963245
7.467345 17.565392 -0.963703
7.964530 17.486681 -0.954212
6.450280 17.568161 -1.027714
6.951393 17.532175 -1.090500
7.422202 17.237129 -1.020153
7.917757 17.158846 -1.010517
6.405982 17.178795 -0.979191
6.902677 17.127758 -1.016151
7.377683 16.914232 -1.081858
7.868668 16.811676 -1.028709
6.363460 16.826324 -0.987000
6.860772 16.819801 -1.102200
7.330962 16.567228 -1.096664
7.822237 16.484999 -1.078020
6.323041 16.523849 -1.078266
6.816354 16.472820 -1.115328
7.284484 16.221302 -1.107738
7.775962 16.158800 -1.123945
6.282497 16.216316 -1.157799
6.773427 16.146076 -1.159830
7.234701 15.838664 -1.044703
7.722855 15.776591 -1.060871
6.240732 15.870891 -1.163803
6.729460 15.801023 -1.165693
7.192278 15.532851 -1.118767
7.677036 15.452371 -1.099562
6.199069 15.521989 -1.157270
6.684591 15.438615 -1.132442
7.146557 15.190398 -1.118765
7.629143 15.110501 -1.099379
6.157827 15.179025 -1.155884
6.641181 15.096255 -1.130791
7.097809 14.813181 -1.043745
7.579313 14.751945 -1.059856
6.115947 14.805834 -1.088333
6.596966 14.737229 -1.089758
7.052703 14.473848 -1.036154
7.523378 14.342432 -0.908850
6.075313 14.465944 -1.079412
6.552083 14.362503 -1.008888
7.003201 14.083687 -0.916983
7.480721 14.040536 -0.969027
6.034099 14.092650 -0.994833
6.510343 14.037910 -1.022972
6.961794 13.782080 -0.974051
7.431966 13.687765 -0.917786
5.994862 13.790175 -1.050810
6.467410 13.688737 -0.979404
6.921950 13.497363 -1.064455
7.391656 13.403723 -1.007898
5.956060 13.504585 -1.140158
6.429049 13.420616 -1.104740
6.804690 12.316150 0.833628
6.877857 13.162857 -1.042894
7.254628 12.317302 0.690462
5.916110 13.152841 -1.080957
6.387023 13.081903 -1.072607
6.773174 12.116251 0.600836
6.831986 12.805613 -0.962952
7.209316 11.987624 0.749834
5.876475 12.799166 -1.008816
6.309726 12.031063 0.593342
6.344907 12.736794 -1.018583
6.725330 11.723604 0.809992
7.174727 11.746498 0.610765
5.837896 12.499105 -1.052284
6.268068 11.662589 0.749073
6.698458 11.579533 0.443306
7.155636 11.634967 0.160381
5.792279 11.487569 0.603912
5.799043 12.160626 -1.000628
6.230017 11.363241 0.752148
6.678644 11.524878 -0.154221
7.108294 11.286364 0.273985
5.755601 11.145941 0.711176
6.198983 11.219488 0.378584
6.642932 11.278878 -0.298227
7.078483 11.084737 0.029427
5.720085 10.966535 0.422834
6.171875 11.180900 -0.273407
6.601324 10.958661 -0.253937
7.041890 10.825584 -0.074110
5.684285 10.949893 -0.293205
6.134345 10.904470 -0.339445
6.563063 10.679192 -0.309114
7.003585 10.551405 -0.137978
5.647349 10.694723 -0.412691
6.096984 10.631325 -0.412275
6.524069 10.389236 -0.333551
6.963708 10.263186 -0.161795
5.610371 10.427960 -0.501844
6.055182 10.230201 -0.135334
6.485210 10.099721 -0.355196
6.927099 10.002383 -0.258087
5.573896 10.099587 -0.419235
6.021231 10.050228 -0.456289
6.446488 9.810673 -0.374058
6.882840 9.674953 -0.163364
5.537730 9.780088 -0.352077
5.982681 9.730809 -0.389111
6.402377 9.444674 -0.163052
6.844897 9.401308 -0.216621
5.501493 9.488334 -0.357374
5.944824 9.426181 -0.356543
6.365089 9.171181 -0.213673
6.808435 9.140035 -0.305319
5.465552 9.190996 -0.340872
5.906178 9.079199 -0.187939
6.328479 8.906767 -0.290325
6.767440 8.838423 -0.267969
5.430502 8.867196 -0.235775
5.870144 8.833165 -0.320429
6.290486 8.620913 -0.297815
6.728716 8.555977 -0.284893
5.394149 8.605447 -0.318260
5.833496 8.558960 -0.364901
6.251907 8.324065 -0.264307
6.688184 8.256691 -0.241724
5.358159 8.331420 -0.360149
5.796546 8.258836 -0.320656
6.214268 8.039764 -0.266266
6.649479 7.972838 -0.243578
5.323109 8.034893 -0.322750
5.759926 7.965757 -0.292664
6.176788 7.756113 -0.265532
6.610933 7.689634 -0.242739
5.288311 7.739692 -0.282467
5.723517 7.671130 -0.252205
6.138869 7.462540 -0.223545
6.571395 7.396585 -0.200644
5.252577 7.469622 -0.326105
5.687406 7.396227 -0.276426
6.101760 7.180595 -0.217365
6.534330 7.125275 -0.233032
5.218332 7.173839 -0.270639
5.651402 7.116454 -0.278776
6.064947 6.901856 -0.218212
6.495481 6.836782 -0.195124
5.182817 6.904378 -0.309174
5.615561 6.834791 -0.268818
6.028165 6.621302 -0.206753
6.458395 6.563815 -0.212698
5.149528 6.603754 -0.219063
5.580007 6.544394 -0.217358
5.991973 6.350774 -0.231571
6.420687 6.284232 -0.198580
5.115170 6.323714 -0.203823
5.544558 6.264612 -0.202047
5.955123 6.062536 -0.175949
6.383384 6.007658 -0.191593
5.080990 6.044482 -0.185970
5.509492 5.976819 -0.145103
5.919112 5.790809 -0.185934
6.345799 5.727483 -0.162498
5.045379 5.783189 -0.243647
5.473691 5.724464 -0.241770
5.883005 5.513238 -0.164080
6.308626 5.450365 -0.140564
5.011682 5.502916 -0.210958
5.438765 5.444468 -0.209007
5.847547 5.252341 -0.218065
6.273209 5.189773 -0.194487
4.977072 5.233535 -0.224667
5.403617 5.175276 -0.222666
5.811718 4.975853 -0.191198
6.237054 4.921226 -0.206829
4.943501 4.956842 -0.196665
5.368468 4.908175 -0.243715
5.776254 4.709307 -0.210945
6.201171 4.654702 -0.226580
4.908142 4.695466 -0.244778
5.333612 4.637585 -0.242685
5.740820 4.439407 -0.208601
6.164392 4.378050 -0.184820
4.875640 4.414824 -0.182251
5.300208 4.348777 -0.130806
5.705476 4.165050 -0.174215
6.127982 4.104146 -0.150366
4.841781 4.145433 -0.176285
5.265069 4.088076 -0.174065
5.670333 3.904074 -0.216339
6.093576 3.851135 -0.241844
4.807487 3.879610 -0.187637
5.229947 3.827002 -0.215025
5.635327 3.626627 -0.147348
6.057286 3.576663 -0.192640
4.773867 3.611034 -0.176834
5.195306 3.561256 -0.224003
5.600345 3.365887 -0.184736
6.021917 3.311550 -0.200354
4.738856 3.349839 -0.213116
5.160920 3.294338 -0.220699
5.565385 3.104826 -0.219830
5.986534 3.045354 -0.195778
4.705134 3.083188 -0.207451
5.125937 3.032866 -0.254679
5.530857 2.832598 -0.163282
5.951174 2.778355 -0.178888
4.669890 2.822933 -0.249008
5.091737 2.766372 -0.246637
5.495994 2.572848 -0.203619
5.916036 2.513036 -0.169540
4.636686 2.555548 -0.228693
5.057858 2.499198 -0.226280
5.461205 2.311629 -0.231735
5.881370 2.253229 -0.207561
4.601523 2.294941 -0.265629
5.023062 2.237683 -0.253263
5.426846 2.045422 -0.207775
5.846654 1.992077 -0.233343
4.568544 2.028277 -0.240582
4.989194 1.972241 -0.238123
5.392545 1.780718 -0.191401
5.811783 1.727325 -0.216970
4.535340 1.763120 -0.223112
4.955218 1.708114 -0.230585
5.357963 1.519611 -0.212545
5.777005 1.462303 -0.188271
4.500727 1.501539 -0.243137
4.920856 1.445816 -0.240639
5.323306 1.259012 -0.241369
5.742503 1.201323 -0.207094
4.464172 1.243202 -0.310705
4.885267 1.186846 -0.298250
5.289295 0.995059 -0.217997
5.708043 0.940183 -0.223623
4.432849 0.976091 -0.246361
4.851787 0.922402 -0.273766
5.254326 0.735797 -0.272171
5.673636 0.681399 -0.287788
4.398400 0.714314 -0.259460
4.817320 0.660488 -0.286875
5.220498 0.472272 -0.244162
5.639250 0.417912 -0.259773
4.364000 0.452426 -0.270258
4.782902 0.398462 -0.297676
5.186174 0.210717 -0.253794
5.604921 0.156321 -0.269405
4.329652 0.190446 -0.278753
4.749446 0.135386 -0.276203
5.151219 -0.049887 -0.301104
5.570774 -0.106313 -0.236750
4.295358 -0.071606 -0.284937
4.715483 -0.126777 -0.272396
5.117685 -0.312619 -0.266151
5.537122 -0.369547 -0.121784
4.261120 -0.333709 -0.288822
4.679968 -0.388086 -0.316250
5.084881 -0.574956 -0.198891
5.502920 -0.629669 -0.164495
4.225514 -0.595610 -0.320364
4.647459 -0.650659 -0.267855
5.051885 -0.836106 -0.149323
5.469217 -0.890351 -0.124918
4.193312 -0.857983 -0.279680
4.617564 -0.912193 -0.147202
5.018848 -1.096481 -0.107462
5.435358 -1.150766 -0.123047
4.165250 -1.118896 -0.156799
4.581526 -1.173676 -0.204136
4.984150 -1.357539 -0.143284
5.467802 -1.267548 7.349440
4.133449 -1.379156 -0.111540
4.550616 -1.433377 -0.118883
4.951337 -1.617165 -0.096849
5.441646 -1.465523 7.274324
4.095038 -1.642159 -0.193781
4.515366 -1.695077 -0.151232
4.916687 -1.878820 -0.128073
5.415143 -1.665569 7.180994
5.333848 -1.932919 -0.133669
4.063412 -1.902045 -0.143936
4.482460 -1.955167 -0.121355
4.884108 -2.137619 -0.077078
5.300598 -2.192047 -0.092661
4.029777 -2.162914 -0.131727
4.446435 -2.218495 -0.169048
4.852779 -2.393548 0.016098
5.266558 -2.454326 -0.119280
3.996774 -2.423148 -0.107256
4.416175 -2.475117 -0.074724
4.817180 -2.657683 -0.048157
5.230773 -2.724673 -0.263325
3.962742 -2.684309 -0.100431
4.406662 -2.699906 0.500412
4.812354 -2.850305 0.936981
4.770607 -2.948702 -0.478991
5.192225 -3.009018 -0.564466
3.930499 -2.943397 -0.061428
4.375698 -2.952219 0.558966
4.761252 -3.149927 0.338678
5.159052 -3.270032 -0.504072
3.891924 -3.210619 -0.129633
4.297763 -3.288135 -0.425825
4.698437 -3.488632 -0.585083
5.124633 -3.537243 -0.521090
3.840076 -3.498399 -0.414171
4.255868 -3.567366 -0.580976
4.667307 -3.745497 -0.480257
5.091725 -3.797188 -0.456114
3.796168 -3.777892 -0.556793
4.225442 -3.825071 -0.484978
4.631037 -4.017367 -0.532293
5.056602 -4.068892 -0.508198
3.761904 -4.043369 -0.537970
4.189963 -4.093032 -0.496031
4.597478 -4.281384 -0.502413
5.022241 -4.337166 -0.518082
3.728346 -4.307637 -0.506884
4.154492 -4.361431 -0.504686
4.564017 -4.545141 -0.470211
4.988775 -4.600957 -0.485878
3.692319 -4.576499 -0.513096
4.119538 -4.629011 -0.501026
4.529174 -4.813799 -0.475327
4.954482 -4.869721 -0.490997
3.656960 -4.844454 -0.507004
4.084105 -4.898135 -0.504875
4.494347 -5.082843 -0.478033
4.921176 -5.133274 -0.454111
3.623631 -5.108449 -0.468870
4.050266 -5.163416 -0.476648
4.459538 -5.352250 -0.478321
4.885945 -5.408383 -0.493996
3.581641 -5.391265 -0.556702
4.012759 -5.438978 -0.515190
4.423140 -5.628211 -0.515669
4.851708 -5.678238 -0.491863
3.548389 -5.655687 -0.513750
3.977378 -5.709247 -0.511753
4.387921 -5.900262 -0.520901
4.817497 -5.948414 -0.487297
3.515946 -5.918090 -0.458639
3.945369 -5.969850 -0.446814
4.353559 -6.169337 -0.503984
4.783313 -6.218890 -0.480299
3.474453 -6.202412 -0.528954
3.907266 -6.248945 -0.487741
4.318379 -6.442135 -0.504303
4.747974 -6.496948 -0.510164
3.441430 -6.466588 -0.478870
3.869668 -6.527324 -0.516253
4.284103 -6.711572 -0.482523
4.713812 -6.768298 -0.498215
3.399792 -6.753122 -0.543955
3.832021 -6.806629 -0.542175
4.247603 -6.990965 -0.507284
4.679688 -7.039882 -0.483809
3.363194 -7.027346 -0.537888
3.796129 -7.080827 -0.536163
4.211059 -7.271248 -0.529440
4.644290 -7.320000 -0.506042
3.325118 -7.306077 -0.548826
3.760867 -7.353307 -0.517883
4.178294 -7.535216 -0.470940
4.610207 -7.592324 -0.486637
3.288543 -7.581184 -0.537703
3.723788 -7.632480 -0.526356
4.141755 -7.816533 -0.488007
4.574772 -7.873815 -0.503712
3.255844 -7.845428 -0.475483
3.690482 -7.898778 -0.473906
4.107176 -8.089404 -0.463575
4.540742 -8.146789 -0.479280
3.213917 -8.136992 -0.527285
3.650229 -8.190448 -0.525805
4.070614 -8.371999 -0.475435
4.505284 -8.429558 -0.491150
3.175831 -8.417983 -0.527889
3.613126 -8.471451 -0.526480
4.036100 -8.645429 -0.445948
4.471321 -8.703090 -0.461662
3.136139 -8.704542 -0.545170
3.574692 -8.758060 -0.543842
3.997411 -8.939480 -0.491169
4.436244 -8.984456 -0.458635
3.106949 -8.958551 -0.434546
3.544963 -9.011880 -0.433226
3.960777 -9.224317 -0.495016
4.400365 -9.271716 -0.472235
3.061560 -9.264398 -0.513897
3.501800 -9.317908 -0.512701
3.926326 -9.498911 -0.457752
4.366505 -9.546080 -0.435064
3.019319 -9.561302 -0.551838
3.461232 -9.614921 -0.550743
3.887464 -9.796057 -0.494606
4.329341 -9.843134 -0.472031
2.983719 -9.836947 -0.510408
3.426199 -9.890525 -0.509373
3.853641 -10.068406 -0.442562
4.295538 -10.118155 -0.429640
2.944785 -10.124185 -0.504578
3.389099 -10.174873 -0.494085
3.814112 -10.370386 -0.483315
4.256513 -10.429147 -0.499075
2.906709 -10.409042 -0.486500
3.353462 -10.453650 -0.457092
3.777431 -10.658459 -0.473562
4.220936 -10.717390 -0.489328
2.866910 -10.700459 -0.484682
3.312750 -10.754142 -0.483892
3.740752 -10.947103 -0.461058
4.185361 -11.006204 -0.476828
2.824449 -11.002053 -0.508394
3.271962 -11.055847 -0.507711
3.704077 -11.236291 -0.445787
4.150262 -11.292315 -0.452116
2.781916 -11.304832 -0.529106
3.234115 -11.345728 -0.490824
3.667411 -11.526000 -0.427744
4.114229 -11.585440 -0.443523
2.742921 -11.595507 -0.509235
3.193227 -11.649451 -0.508741
3.628239 -11.829774 -0.444458
4.210262 -10.961784 2.093178
4.076225 -11.892863 -0.469637
2.704852 -11.883261 -0.477201
3.156138 -11.937224 -0.476788
3.765437 -11.175733 2.123903
3.588367 -12.138140 -0.467489
4.039141 -12.194581 -0.473938
2.657614 -12.206083 -0.535727
3.315495 -11.347570 1.901228
3.112828 -12.253261 -0.516779
3.549714 -12.440643 -0.468756
4.003551 -12.486507 -0.447269
2.857711 -11.584102 1.882622
2.620457 -12.491638 -0.488579
3.318142 -11.447461 2.368084
3.070989 -12.563699 -0.534904
3.701352 -11.693236 2.218447
3.513663 -12.729499 -0.429844
4.119831 -11.712074 2.296137
2.878529 -11.634467 2.470993
2.580547 -12.788183 -0.466532
3.035495 -12.846073 -0.475697
3.672085 -11.937103 2.306408
4.091324 -11.951454 2.393045
2.796076 -12.084652 2.042301
2.539697 -13.088977 -0.450809
3.228064 -12.077823 2.182407
3.643644 -12.176492 2.405767
4.062984 -12.189996 2.492056
2.767374 -12.326523 2.143934
3.196235 -12.333654 2.246668
3.612625 -12.430524 2.470455
4.035361 -12.423783 2.602350
2.738845 -12.567513 2.247688
3.168653 -12.569757 2.359169
3.587275 -12.652665 2.610775
4.007371 -12.660509 2.705498
2.748628 -12.653212 2.709660
3.146303 -12.780940 2.528522
3.558644 -12.893449 2.707287
3.977286 -12.912548 2.774225
2.703047 -12.961981 2.652527
3.125109 -12.986044 2.708570
3.525165 -13.162271 2.742342
3.947301 -13.164307 2.845306
2.856591 -12.449351 4.410528
2.678234 -13.186213 2.789007
3.090510 -13.255125 2.745090
3.501134 -13.376913 2.897697
3.919765 -13.398924 2.954950
2.677791 -13.308346 3.143860
3.207734 -12.787097 4.364042
3.062883 -13.490806 2.856493
3.473709 -13.611173 3.009682
3.890028 -13.649741 3.030594
2.757174 -13.091995 4.199482
2.566403 -13.895337 2.510508
3.036316 -13.721226 2.978947
3.510334 -13.470452 3.895494
3.952225 -13.236567 4.472975
3.862818 -13.882751 3.144495
2.515120 -14.233215 2.422298
2.183404 -15.642903 -0.476038
3.075484 -13.627146 3.765759
3.419408 -14.076760 3.239799
3.838245 -14.096996 3.296188
2.730082 -13.431122 4.635809
2.144470 -15.941995 -0.414089
2.923852 -14.476599 2.632689
2.625953 -15.957528 -0.334970
3.464040 -13.884688 4.194132
3.810821 -14.332225 3.405109
2.699416 -13.673051 4.704733
2.088938 -16.313253 -0.491056
2.858447 -14.903267 2.382219
2.572927 -16.332968 -0.421354
3.437427 -14.112304 4.301645
3.320449 -14.808591 2.955576
3.779149 -14.598769 3.454126
2.621564 -14.120967 4.378813
2.039500 -16.659527 -0.510820
3.016947 -14.203442 4.309793
2.523323 -16.692669 -0.468090
3.246730 -15.321784 2.551252
3.736009 -14.949642 3.347105
2.518645 -14.682673 3.856873
2.002680 -16.951441 -0.421373
2.997761 -14.392824 4.490953
2.486466 -16.988888 -0.387726
3.319365 -14.957846 3.794582
2.940706 -17.234756 -0.425419
3.710768 -15.170401 3.489964
2.511844 -14.823589 4.138599
1.949954 -17.314054 -0.460255
2.961215 -14.670424 4.507252
2.437620 -17.346743 -0.418200
3.277413 -15.280520 3.745789
2.899333 -17.565083 -0.401541
3.668666 -15.515261 3.407602
2.605705 -14.513332 5.229927
2.368782 -15.571627 3.315804
1.899244 -17.668974 -0.477648
2.941547 -14.861861 4.683208
2.387714 -17.711201 -0.453377
3.297267 -15.228972 4.369698
2.851510 -17.935337 -0.443668
3.574396 -16.245014 2.651445
2.530159 -14.957214 4.945766
2.113310 -16.833347 1.621317
1.856036 -17.991272 -0.430492
2.857757 -15.384844 4.271500
2.341465 -18.057926 -0.449787
3.238606 -15.653849 4.143435
2.809233 -18.272886 -0.421066
3.626322 -15.898929 3.799866
2.534963 -15.039984 5.305006
2.246121 -16.349615 3.031013
1.808480 -18.333904 -0.414427
2.666041 -16.473764 2.901806
2.299939 -18.380993 -0.399305
3.193413 -15.998150 4.068947
3.100558 -16.567114 3.097061
2.760361 -18.651638 -0.463642
3.538355 -16.585003 3.150633
2.221772 -16.572832 3.187260
1.754275 -18.707800 -0.446051
2.621049 -16.804096 2.878601
2.249766 -18.750006 -0.422621
3.083263 -16.743418 3.331203
3.517526 -16.775934 3.358780
3.210446 -19.052107 -0.441002
2.420985 -15.767536 5.058697
2.201004 -16.779217 3.370941
1.696606 -19.098927 -0.498957
2.563305 -17.202711 2.748281
2.199480 -19.120777 -0.441740
3.002635 -17.310827 2.919582
2.667205 -19.384224 -0.484606
3.471144 -17.156887 3.253263
2.348439 -16.206146 4.827930
2.145834 -17.144321 3.293371
1.653315 -19.424976 -0.437050
2.743663 -16.340645 4.684483
2.585698 -17.178221 3.318609
2.458149 -17.854525 2.215729
3.015993 -17.297777 3.463980
2.624727 -19.726570 -0.446554
3.449286 -17.356291 3.448767
2.309213 -16.492208 4.856001
2.110748 -17.417387 3.372002
1.605563 -19.772394 -0.405449
2.566595 -17.371979 3.523552
2.961937 -17.703007 3.332626
2.581398 -20.075008 -0.413208
3.411264 -17.676552 3.452072
2.281341 -16.725676 4.971048
2.084838 -17.647715 3.520487
1.540762 -20.200649 -0.495806
2.689493 -16.803926 4.921263
2.492957 -17.857635 3.268396
2.048006 -20.243189 -0.473629
3.078499 -17.041948 4.863712
2.531152 -20.467548 -0.443007
3.347819 -18.187721 3.165964
3.035452 -20.523796 -0.442535
2.207870 -17.174458 4.754807
1.491727 -20.556303 -0.464186
2.637015 -17.172539 4.830141
2.448932 -18.186340 3.270096
2.001355 -20.598858 -0.442307
2.488617 -20.812801 -0.393299
3.502878 -17.062864 5.375847
3.355574 -18.166861 3.702648
2.996475 -20.858192 -0.376295
2.159264 -17.507774 4.726963
1.962260 -18.443914 3.309595
1.434612 -20.951231 -0.486635
2.408900 -18.494350 3.308739
1.951648 -20.971960 -0.431915
2.889353 -18.362734 3.830027
2.439066 -21.203079 -0.406015
3.435423 -17.603853 5.031353
3.328735 -18.405138 3.839649
2.129100 -17.754099 4.834927
1.953929 -18.591585 3.590727
1.383176 -21.320341 -0.463226
2.556896 -17.779007 4.867882
2.381136 -18.736248 3.449713
1.895751 -21.379797 -0.466732
2.995526 -17.757256 5.202980
2.707111 -19.583467 2.530106
2.390298 -21.589493 -0.405945
3.405434 -17.864601 5.114082
2.159813 -17.707731 5.371183
1.880662 -19.050335 3.413740
1.331705 -21.690605 -0.435627
1.846916 -21.750332 -0.439299
2.976235 -17.943075 5.394211
2.790903 -19.120956 3.702127
2.335185 -22.017298 -0.458597
3.384619 -18.056711 5.297617
3.250675 -19.066881 3.850370
2.131520 -17.943499 5.489489
1.271976 -22.101793 -0.460793
2.326214 -19.216785 3.738314
1.788714 -22.173344 -0.480959
2.937374 -18.253626 5.408085
2.288017 -22.395756 -0.432905
3.488711 -17.305161 6.807163
3.362559 -18.258509 5.466373
2.807490 -22.453236 -0.433098
2.070244 -18.339771 5.383570
2.659734 -17.461931 6.678505
1.738714 -22.552460 -0.452715
3.017798 -17.801357 6.483070
3.443470 -17.680899 6.710747
3.328397 -18.552269 5.507595
2.759984 -22.856483 -0.435488
2.014655 -18.710058 5.322989
2.628077 -17.716160 6.754244
3.015690 -17.874725 6.810196
2.687767 -19.981400 3.946756
3.423720 -17.864273 6.883953
2.162706 -18.079983 6.624622
1.800619 -19.861362 4.212986
1.101625 -23.300245 -0.442589
2.606045 -17.917099 6.904602
2.336611 -19.420216 4.874910
3.002095 -18.021349 7.033199
2.691836 -20.021444 4.363773
2.136148 -23.603704 -0.417299
3.389268 -18.159697 6.907156
2.149062 -18.240366 6.834187
2.557523 -18.266409 6.858261
2.287238 -19.781103 4.849892
2.951507 -18.406998 6.940386
2.637796 -20.436222 4.280796
3.351614 -18.480244 6.902132
2.618554 -24.064058 -0.398006
2.128462 -18.434669 6.997496
2.512074 -18.599669 6.839985
2.173198 -20.507189 4.356232
2.914794 -18.703951 6.970558
2.568468 -20.951628 4.077393
3.272152 -19.120682 6.492062
2.070237 -18.816732 6.919851
2.496853 -18.763115 7.045097
2.929287 -18.668234 7.425821
2.805038 -19.477266 6.403017
1.975127 -24.881105 -0.428694
3.301999 -18.927357 7.153687
3.000723 -21.231018 4.248384
2.074462 -18.886707 7.243546
0.861715 -24.978857 -0.426649
2.503756 -18.800549 7.406839
1.408866 -25.016933 -0.400810
2.922579 -18.769608 7.700342
3.327288 -18.767809 7.755791
2.068097 -19.008623 7.497229
2.473940 -19.045900 7.504921
1.345427 -25.480061 -0.432739
2.879719 -19.107393 7.682400
2.702533 -20.268507 6.266062
3.289326 -19.092754 7.752724
1.675518 -21.088854 5.368885
0.733222 -25.869154 -0.437767
2.096179 -21.283543 5.190876
1.286253 -25.920301 -0.428146
2.869740 -19.230049 7.928530
3.258774 -19.361574 7.822479
2.984378 -21.471516 5.300007
2.363246 -26.247650 -0.409950
2.111579 -18.963057 8.340298
1.643995 -21.346481 5.496313
0.671320 -26.304512 -0.419788
2.128855 -21.178394 5.753229
2.841580 -19.472260 8.030987
3.205640 -19.804998 7.690411
3.004387 -21.355358 5.869455
2.110493 -19.053772 8.615173
2.517228 -19.017929 8.705975
2.043871 -21.749620 5.511183
1.171014 -26.786787 -0.379917
2.838141 -19.551394 8.324221
2.532080 -21.575586 5.983053
3.192778 -19.938898 7.925924
2.991544 -21.491947 6.133736
2.093409 -19.225676 8.792593
2.461678 -19.410706 8.627794
1.888554 -22.731043 4.812695
2.810393 -19.791225 8.430395
1.639019 -27.561419 -0.399349
3.214372 -19.806553 8.460981
2.089290 -19.330225 9.045721
2.018487 -22.059368 6.011374
1.040854 -27.744907 -0.407019
2.828669 -19.725285 8.880083
2.357697 -22.858597 5.381664
1.574408 -28.069721 -0.436682
3.175865 -20.138927 8.465580
2.038285 -19.677237 9.026220
0.402722 -28.167660 -0.411873
2.354508 -20.177839 8.516947
2.770339 -20.169111 8.760742
1.514651 -28.547201 -0.430601
3.179728 -20.143427 8.834808
1.971761 -20.106373 8.923487
2.404982 -19.953806 9.135336
2.792620 -20.075159 9.231125
3.153646 -20.380409 8.947092
1.917892 -20.471142 8.899300
2.404619 -20.025644 9.421371
2.717971 -20.630148 9.003750
3.088132 -20.924988 8.736305
2.040382 -19.909870 9.858414
2.310787 -20.648237 9.123871
2.652063 -21.128517 8.849157
2.989402 -21.730309 8.268017
2.024984 -20.070240 10.042559
1.799386 -21.261410 8.808413
2.280476 -20.897690 9.228470
2.670320 -21.060867 9.284966
3.028030 -21.464842 8.915081
1.863027 -30.568178 -0.376616
1.936464 -20.617931 9.831921
2.235040 -21.237419 9.243858
2.650911 -21.246796 9.457060
3.083005 -21.070242 9.675686
1.829067 -21.268869 9.531315
1.335317 -23.897007 6.902323
2.156562 -21.775196 9.067219
1.815977 -23.806219 7.039646
2.704759 -20.935959 10.120037
3.078644 -21.139284 9.959293
1.818960 -21.403425 9.754889
2.187875 -21.658369 9.545174
2.569770 -21.906948 9.522335
2.992744 -21.848761 9.619007
1.781266 -21.685396 9.834661
2.178277 -21.785080 9.778257
2.555037 -22.062208 9.729492
2.983191 -21.959761 9.866381
1.809055 -21.615316 10.252136
1.243025 -24.663372 7.359632
2.161833 -21.952606 9.971029
1.527527 -25.772972 6.352676
2.538470 -22.230009 9.924213
2.937086 -22.358984 9.842083
1.684634 -22.365873 9.896372
0.963226 -26.265221 6.260572
2.079502 -22.518103 9.793226
2.458133 -22.834944 9.716244
2.877866 -22.862873 9.728960
1.587809 -22.970753 9.692976
1.344047 -24.293205 8.481449
2.065682 -22.670725 10.005722
1.751451 -24.575438 8.264074
2.322639 -23.821123 9.177256
2.043641 -25.738075 7.443054
2.793150 -23.569870 9.443018
1.613641 -22.910660 10.101959
1.991439 -23.190519 9.887665
2.298343 -24.045532 9.341045
2.782146 -23.695164 9.689976
1.614295 -22.986198 10.383587
2.016963 -23.103857 10.315861
1.679018 -25.165058 8.496477
2.240636 -24.500977 9.304483
2.745954 -24.020531 9.760933
1.564897 -23.335266 10.424606
1.997796 -23.288923 10.500372
2.195873 -24.868298 9.352051
2.660340 -24.739574 9.499355
1.537406 -23.564772 10.573183
1.916085 -23.857769 10.358412
2.281469 -24.332182 10.166834
2.518719 -25.906666 8.877205
1.896126 -27.068041 8.251169
2.723322 -24.316710 10.563318
2.248574 -24.672886 10.584019
2.677189 -24.723965 10.576031
1.984737 -26.572021 9.411579
2.520130 -26.019827 9.887003
1.945519 -26.906157 9.516479
2.506573 -26.169874 10.127600
2.484493 -26.388672 10.314690
1.870766 -27.551054 9.757214
1.783244 -28.228281 9.620073
2.227664 -28.540594 9.421265
1.706792 -28.829649 9.551886
5.642541 -1.041597 29.822065
5.641296 -1.052356 29.820049
5.643197 -1.037303 29.833277
5.640776 -1.029885 29.840717
5.642073 -1.046763 29.829510
5.640943 -1.056304 29.825901
5.640574 -1.032181 29.844215
5.637759 -1.082599 29.811596
5.635810 -1.066777 29.824581
5.641747 -1.050468 29.835209
5.640380 -1.034415 29.847754
5.641644 -1.051669 29.837130
5.639112 -1.043969 29.844336
5.644649 -1.027426 29.854673
5.636661 -1.062102 29.835951
5.642483 -1.045502 29.846132
5.637175 -1.089436 29.822739