# This PCD file was generated using the MATLAB® pcwrite function
# from Computer Vision System Toolbox®.
# .PCD v.7 - Point Cloud Data file format
VERSION .7
FIELDS x y z
SIZE 4 4 4
TYPE F F F
COUNT 1 1 1
WIDTH 770
HEIGHT 1
VIEWPOINT 0 0 0 1 0 0 0
POINTS 770
DATA ascii
-8.023183 -4.843657 -0.556342
-8.139482 -4.690536 -0.573058
-7.728283 -4.667200 -0.558985
-7.867896 -4.531004 -0.603647
-7.584874 -4.581426 -0.560339
-7.710654 -4.439444 -0.591632
-7.454422 -4.503242 -0.573473
-7.535455 -4.338022 -0.556175
-7.318249 -4.421800 -0.577602
-7.410993 -4.264829 -0.574333
-7.194763 -4.347778 -0.593907
-7.305295 -4.202089 -0.612023
-7.035480 -4.253071 -0.565332
-7.150869 -4.112449 -0.590860
-6.930925 -4.190139 -0.599392
-7.027539 -4.040087 -0.603480
-6.802765 -4.113590 -0.602828
-6.922547 -3.977914 -0.636206
-6.680972 -4.040783 -0.611728
-6.770170 -3.889662 -0.608655
-6.571205 -3.974988 -0.633697
-6.659894 -3.824700 -0.630654
-6.421397 -3.886101 -0.601808
-6.549827 -3.759908 -0.651130
-6.312456 -3.820893 -0.620330
-6.405393 -3.676282 -0.624899
-6.181206 -3.742855 -0.606981
-6.296129 -3.612062 -0.642000
-6.084156 -3.684611 -0.637562
-6.181470 -3.544940 -0.649955
-5.970577 -3.616879 -0.643766
-6.044816 -3.465831 -0.625500
-5.862868 -3.552579 -0.656134
-5.953325 -3.411525 -0.661054
-5.739234 -3.479157 -0.643581
-5.828910 -3.339262 -0.648595
-5.626967 -3.412336 -0.644970
-5.726847 -3.279278 -0.665798
-5.515149 -3.345824 -0.644791
-5.608909 -3.210690 -0.657891
-5.414258 -3.285646 -0.659000
-5.502159 -3.148266 -0.664261
-5.303263 -3.219707 -0.655819
-5.390523 -3.083244 -0.661162
-5.172314 -3.142360 -0.618785
-5.253468 -3.004482 -0.616144
-5.077717 -3.085940 -0.636716
-5.168748 -2.954212 -0.650352
-4.973298 -3.023926 -0.637075
-5.078882 -2.901183 -0.675369
-4.859435 -2.956548 -0.619567
-4.964062 -2.834695 -0.658142
-4.751115 -2.892399 -0.608739
-4.844978 -2.765980 -0.631038
-4.662585 -2.839626 -0.629734
-4.746212 -2.708308 -0.635548
-4.774505 -2.545281 -0.633012
-4.875913 -2.422310 -0.668594
-4.559906 -2.778797 -0.624513
-4.681474 -2.669014 -0.697384
-4.481098 -2.731657 -0.660031
-4.563937 -2.601330 -0.665980
-4.563116 -2.425087 -0.611634
-4.662889 -2.303574 -0.647752
-4.383671 -2.673911 -0.660777
-4.484759 -2.554326 -0.700665
-4.493685 -2.383355 -0.662479
-4.573977 -2.252639 -0.664895
-4.268394 -2.606021 -0.626198
-4.354571 -2.480007 -0.640810
-4.386565 -2.322713 -0.644361
-4.470986 -2.195154 -0.655383
-4.171964 -2.548939 -0.624241
-4.275817 -2.433321 -0.673201
-4.280084 -2.262486 -0.624805
-4.373173 -2.140186 -0.653098
-4.093626 -2.502208 -0.655460
-4.174459 -2.374585 -0.661685
-4.201458 -2.216249 -0.655560
-4.261946 -2.079066 -0.623719
-3.997729 -2.445507 -0.651196
-4.100218 -2.330373 -0.700725
-4.086967 -2.152197 -0.616108
-4.169664 -2.026857 -0.627481
-3.902244 -2.389084 -0.645700
-3.973338 -2.258164 -0.634676
-4.004243 -2.104021 -0.636040
-4.082144 -1.976913 -0.638803
-3.802951 -2.330538 -0.630243
-3.903713 -2.216486 -0.680337
-3.930233 -2.060187 -0.672510
-4.008014 -1.933168 -0.675313
-3.712554 -2.277093 -0.631045
-3.808320 -2.161154 -0.672634
-3.830369 -2.003622 -0.655432
-3.911956 -1.879405 -0.667094
-3.618371 -2.221539 -0.621901
-3.696690 -2.097292 -0.628451
-3.722673 -1.943303 -0.619397
-3.816348 -1.825939 -0.657668
-3.524645 -2.166286 -0.611562
-3.614772 -2.049214 -0.644747
-3.640678 -1.895682 -0.635168
-3.716990 -1.770873 -0.638175
-3.439320 -2.115837 -0.617832
-3.561183 -2.016095 -0.722379
-3.566903 -1.852105 -0.667819
-3.626522 -1.719927 -0.635231
-3.369805 -2.074372 -0.658838
-3.447177 -1.951186 -0.665554
-3.468901 -1.796768 -0.645966
-3.544554 -1.672866 -0.649081
-3.276977 -2.019742 -0.645267
-3.373362 -1.907466 -0.696923
-3.395161 -1.753270 -0.676811
-3.486725 -1.636596 -0.715907
-3.180882 -1.963309 -0.621512
-3.276354 -1.851627 -0.673420
-3.301889 -1.700368 -0.661724
-3.373011 -1.575506 -0.655917
-3.118707 -1.926071 -0.678008
-3.183755 -1.798166 -0.657729
-3.212934 -1.649624 -0.654547
-3.283724 -1.525377 -0.648759
-3.030556 -1.874196 -0.670311
-3.102775 -1.750818 -0.668152
-3.146779 -1.609847 -0.700912
-3.221456 -1.487150 -0.704207
-2.932113 -1.816563 -0.634160
-3.032807 -1.709224 -0.705023
-3.058194 -1.559379 -0.691806
-3.113790 -1.429141 -0.649495
-2.862422 -1.775161 -0.670030
-2.937612 -1.654576 -0.677063
-2.973612 -1.510883 -0.690809
-3.032887 -1.382883 -0.657542
-2.778757 -1.725924 -0.668404
-2.860571 -1.609380 -0.693876
-2.903422 -1.469226 -0.725656
-2.973714 -1.345980 -0.719885
-2.695373 -1.676881 -0.665796
-2.783535 -1.564212 -0.709843
-2.805281 -1.414465 -0.685860
-2.878562 -1.293697 -0.689364
-2.625418 -1.635403 -0.699267
-2.706507 -1.519078 -0.724963
-2.721550 -1.366554 -0.681917
-2.791039 -1.244779 -0.676203
-2.529478 -1.579392 -0.657659
-2.599924 -1.458859 -0.655592
-2.624835 -1.312693 -0.639782
-2.693785 -1.191896 -0.634107
-2.459568 -1.537994 -0.689450
-2.542863 -1.424008 -0.724692
-2.567999 -1.277340 -0.708481
-2.637239 -1.156066 -0.702778
-2.374032 -1.487887 -0.673738
-2.447244 -1.369537 -0.681049
-2.484913 -1.229891 -0.701772
-2.544141 -1.105106 -0.667994
-2.294968 -1.441431 -0.675787
-2.386337 -1.332727 -0.739467
-2.389712 -1.177004 -0.656514
-2.470866 -1.062371 -0.688437
-2.224896 -1.400016 -0.705205
-2.294724 -1.280415 -0.703179
-2.319723 -1.135651 -0.685494
-2.400608 -1.020859 -0.717529
-2.137413 -1.348936 -0.677225
-2.221474 -1.237410 -0.722445
-2.249507 -1.094190 -0.713764
-2.308860 -0.970774 -0.679754
-2.061728 -1.304455 -0.686098
-2.133829 -1.187232 -0.693572
-2.179071 -1.052624 -0.741323
-2.235685 -0.928176 -0.697744
-1.980670 -1.257022 -0.675140
-2.063569 -1.145783 -0.720663
-2.085815 -1.000989 -0.692077
-2.142174 -0.877686 -0.648430
-1.907920 -1.214227 -0.691850
-1.968618 -1.092123 -0.661286
-2.001757 -0.953542 -0.670303
-2.075008 -0.837518 -0.683767
-1.829953 -1.168572 -0.688683
-1.909179 -1.056073 -0.724934
-1.945034 -0.918039 -0.743196
-2.004746 -0.796131 -0.708888
-1.757229 -1.125842 -0.703816
-1.828354 -1.009503 -0.711435
-1.853465 -0.867473 -0.690977
-1.918210 -0.748665 -0.675802
-1.669852 -1.075071 -0.660550
-1.765441 -0.971713 -0.764256
-1.793311 -0.830418 -0.753005
-1.850599 -0.708309 -0.708959
-1.599830 -1.033888 -0.683648
-1.677587 -0.921821 -0.720223
-1.712671 -0.784666 -0.737420
-1.769985 -0.663220 -0.693298
-1.529626 -0.992623 -0.706037
-1.616516 -0.884911 -0.781315
-1.632431 -0.739174 -0.720938
-1.699620 -0.621872 -0.715355
-1.450381 -0.946433 -0.689011
-1.520389 -0.831218 -0.696763
-1.561878 -0.697740 -0.742286
-1.629080 -0.580446 -0.736698
-1.382265 -0.906352 -0.719586
-1.454470 -0.792014 -0.737059
-1.482169 -0.652609 -0.724110
-1.549108 -0.535808 -0.718541
-1.291064 -0.853729 -0.642591
-1.370969 -0.744525 -0.698994
-1.402882 -0.607750 -0.705054
-1.469557 -0.491441 -0.699505
-1.225133 -0.814890 -0.681339
-1.304725 -0.705179 -0.737864
-1.332425 -0.566446 -0.724094
-1.390435 -0.447350 -0.679595
-1.135671 -0.763336 -0.602364
-1.212113 -0.653646 -0.649271
-1.253711 -0.521971 -0.703376
-1.320135 -0.406162 -0.697844
-1.082684 -0.731519 -0.708059
-1.159377 -0.620519 -0.755045
-1.183252 -0.480714 -0.720917
-1.249691 -0.364913 -0.715379
-1.010466 -0.689330 -0.715426
-1.071934 -0.571564 -0.684167
-1.103256 -0.435947 -0.688755
-1.179106 -0.323606 -0.732203
-0.924638 -0.639888 -0.643553
-1.014046 -0.535965 -0.769220
-1.034698 -0.395441 -0.714598
-1.100887 -0.280140 -0.709080
-0.862810 -0.603312 -0.708264
-0.931208 -0.489257 -0.716225
-0.962401 -0.353589 -0.720101
-1.023131 -0.236968 -0.685110
-0.784571 -0.558014 -0.673987
-0.865529 -0.450138 -0.760712
-0.893443 -0.312897 -0.744551
-0.961386 -0.198051 -0.748865
-0.715837 -0.517787 -0.698001
-0.789980 -0.406752 -0.745433
-0.816305 -0.269486 -0.719014
-0.880604 -0.154297 -0.703655
-0.629967 -0.468584 -0.602855
-0.708859 -0.361118 -0.689867
-0.745683 -0.228277 -0.732148
-0.811649 -0.113492 -0.726642
-0.574921 -0.435558 -0.724208
-0.642686 -0.321782 -0.732244
-0.674955 -0.187028 -0.744569
-0.734920 -0.071014 -0.699533
-0.495506 -0.389836 -0.666946
-0.565346 -0.277911 -0.694807
-0.593250 -0.142650 -0.677076
-0.664404 -0.029912 -0.711186
-0.433590 -0.353182 -0.747564
-0.501179 -0.239302 -0.755630
-0.528063 -0.103056 -0.727618
-0.588374 0.012111 -0.682506
-0.359460 -0.310257 -0.728403
-0.426750 -0.196687 -0.736488
-0.462187 -0.063084 -0.777536
-0.523090 0.052384 -0.732356
-0.287758 -0.268605 -0.728331
-0.354889 -0.155104 -0.736429
-0.382007 -0.019663 -0.707636
-0.447485 0.094114 -0.702165
-0.216123 -0.227015 -0.727526
-0.285151 -0.114295 -0.755521
-0.311427 0.021382 -0.716400
-0.381438 0.134785 -0.750668
-0.146328 -0.186357 -0.745892
-0.213282 -0.072753 -0.754013
-0.244714 0.061771 -0.764250
-0.310498 0.176016 -0.758752
-0.071466 -0.143260 -0.703803
-0.143246 -0.031817 -0.771690
-0.170053 0.103528 -0.731788
-0.232635 0.217294 -0.696457
-0.002417 -0.103001 -0.730695
-0.071390 0.009670 -0.768736
-0.099270 0.144622 -0.738413
-0.164803 0.258368 -0.732936
0.070936 -0.060747 -0.697059
0.001830 0.051443 -0.745108
-0.028429 0.185727 -0.744324
-0.091489 0.299215 -0.708949
0.141995 -0.019608 -0.692602
0.073349 0.092688 -0.740683
0.042464 0.226838 -0.749518
-0.023097 0.340568 -0.744039
0.211939 0.021022 -0.707392
0.142461 0.133479 -0.775464
0.113403 0.267954 -0.753999
0.049863 0.381164 -0.718590
0.281215 0.061401 -0.741459
0.215076 0.174831 -0.749634
0.186516 0.308697 -0.717822
0.119398 0.422570 -0.742303
0.353117 0.102801 -0.714881
0.284723 0.215885 -0.783010
0.257230 0.349637 -0.720859
0.191380 0.463116 -0.725382
0.424318 0.143852 -0.697566
0.356956 0.256971 -0.755725
0.327975 0.390570 -0.723182
0.262638 0.503784 -0.717722
0.494016 0.184486 -0.739516
0.427116 0.298276 -0.787686
0.397518 0.432393 -0.764763
0.333017 0.545047 -0.729319
0.564728 0.225446 -0.750771
0.498150 0.339583 -0.798944
0.469533 0.472409 -0.725689
0.404168 0.585607 -0.720228
0.636145 0.266000 -0.661314
0.570587 0.379276 -0.709508
0.539713 0.514554 -0.765848
0.474732 0.626930 -0.730401
0.706607 0.307401 -0.751138
0.641003 0.421141 -0.759325
0.610827 0.555609 -0.765315
0.545305 0.668799 -0.749846
0.777265 0.347945 -0.720255
0.712127 0.462911 -0.788425
0.681944 0.596643 -0.764069
0.616258 0.710301 -0.758586
0.847817 0.388563 -0.708660
0.782672 0.501923 -0.716850
0.753058 0.637653 -0.762104
0.687359 0.751303 -0.756621
0.919207 0.429957 -0.736337
0.855014 0.545791 -0.804474
0.824165 0.678636 -0.759423
0.758221 0.790457 -0.723998
0.991688 0.472116 -0.783264
0.926163 0.586546 -0.791434
0.895259 0.719588 -0.756027
0.829379 0.832571 -0.740570
1.061712 0.512202 -0.749542
0.997805 0.628042 -0.797653
0.966335 0.760507 -0.751917
0.900594 0.874132 -0.746436
1.132687 0.553051 -0.745079
1.068766 0.668643 -0.783184
1.038506 0.803237 -0.777012
0.972845 0.917954 -0.781483
1.199230 0.590692 -0.660086
1.136664 0.706015 -0.708158
1.110204 0.844869 -0.781420
1.044156 0.958962 -0.775919
1.274551 0.634632 -0.734009
1.211262 0.750586 -0.772066
1.181493 0.885842 -0.775137
1.113614 0.996631 -0.729815
1.348236 0.677289 -0.767260
1.283089 0.792097 -0.775393
1.252743 0.926768 -0.768137
1.186667 1.040844 -0.762638
1.419374 0.718139 -0.759910
1.356437 0.834940 -0.797896
1.323946 0.967644 -0.760421
1.257251 1.080802 -0.744983
1.490464 0.758939 -0.751846
1.433319 0.880754 -0.859414
1.398100 1.011800 -0.791737
1.331716 1.126344 -0.786219
1.556863 0.796622 -0.693377
1.492331 0.910978 -0.701490
1.469497 1.052742 -0.782552
1.402344 1.166280 -0.767112
1.626461 0.836439 -0.674006
1.570484 0.957716 -0.771443
1.544434 1.097300 -0.812315
1.474420 1.208151 -0.767132
1.706622 0.883098 -0.753119
1.641711 0.998525 -0.761191
1.615026 1.137331 -0.791743
1.545673 1.248963 -0.756514
1.783452 0.927501 -0.791694
1.724781 1.048760 -0.859164
1.687496 1.179219 -0.790265
1.621758 1.295339 -0.794618
1.853591 0.967558 -0.770072
1.788580 1.083571 -0.778108
1.763414 1.224270 -0.817686
1.693234 1.336232 -0.782505
1.927407 1.009942 -0.777399
1.869743 1.131939 -0.844687
1.839847 1.269590 -0.844283
1.768018 1.380688 -0.799260
2.001434 1.052424 -0.783957
1.936322 1.169023 -0.791954
1.906585 1.306110 -0.791220
1.840750 1.422817 -0.795517
2.075669 1.095001 -0.789740
2.017418 1.217062 -0.846964
1.988831 1.356323 -0.855617
1.910976 1.462360 -0.771360
2.151630 1.138624 -0.804583
2.086347 1.255928 -0.812533
2.055073 1.392513 -0.801171
1.983660 1.504414 -0.766152
2.224732 1.180423 -0.798970
2.167126 1.303494 -0.855993
2.132604 1.438366 -0.824587
2.064961 1.554760 -0.818997
2.301224 1.224301 -0.812216
2.235841 1.342191 -0.820120
2.198031 1.474042 -0.768833
2.136667 1.595642 -0.802404
2.379797 1.269426 -0.834425
2.317584 1.390259 -0.861869
2.282517 1.525438 -0.829758
2.214565 1.642298 -0.824154
2.449723 1.309172 -0.806930
2.384307 1.427526 -0.814785
2.361179 1.571863 -0.850657
2.287978 1.684672 -0.815794
2.523170 1.351072 -0.798251
2.468742 1.477326 -0.864562
2.433120 1.612807 -0.831750
2.364859 1.730133 -0.826131
2.602547 1.396583 -0.818000
2.536960 1.515642 -0.825801
2.504925 1.653649 -0.812122
2.443847 1.777338 -0.845335
2.666013 1.432320 -0.759205
2.604743 1.553689 -0.786401
2.592133 1.706497 -0.869309
2.515792 1.818235 -0.824906
2.760532 1.487007 -0.845164
2.694634 1.607014 -0.852901
2.664239 1.747461 -0.848070
2.595375 1.865728 -0.842417
2.828016 1.525155 -0.804282
2.772959 1.652248 -0.860312
2.736191 1.788313 -0.826108
2.667314 1.906573 -0.820459
2.910911 1.572656 -0.830266
2.847176 1.694623 -0.847584
2.807985 1.829050 -0.803426
2.747465 1.954339 -0.836256
2.980344 1.611951 -0.797585
2.925916 1.740042 -0.853320
2.888559 1.876391 -0.818428
2.810709 1.987913 -0.774383
3.066345 1.661255 -0.831397
3.000241 1.782429 -0.839006
2.960310 1.917054 -0.794209
2.891109 2.035772 -0.788550
3.135656 1.700431 -0.797205
3.084198 1.831261 -0.862192
3.041412 1.964644 -0.807478
2.962671 2.076303 -0.763618
3.212315 1.744022 -0.790977
3.153777 1.870403 -0.827149
3.122912 2.012434 -0.819820
3.053121 2.132100 -0.814125
3.294337 1.790812 -0.802962
3.238386 1.919552 -0.848532
3.204803 2.060420 -0.831231
3.137173 2.182525 -0.835011
3.382149 1.841041 -0.832996
3.307732 1.958512 -0.811994
3.276684 2.101055 -0.803821
3.196471 2.213165 -0.760253
3.453989 1.881641 -0.805203
3.387554 2.004393 -0.812634
3.359046 2.149256 -0.813461
3.288651 2.269863 -0.807736
3.539851 1.930621 -0.823862
3.473156 2.054027 -0.831249
3.441776 2.197640 -0.822153
3.373757 2.320807 -0.825819
3.614554 1.972884 -0.803894
3.576351 2.115117 -0.905270
3.524867 2.246200 -0.829890
3.453880 2.367754 -0.824131
3.683208 2.011510 -0.764396
3.631279 2.144543 -0.818575
3.596770 2.286746 -0.799253
3.525769 2.408292 -0.793500
3.782094 2.068155 -0.817684
3.721011 2.196689 -0.843630
3.692095 2.343834 -0.842475
3.608976 2.457506 -0.799417
3.841336 2.101123 -0.748631
3.783818 2.231285 -0.783793
3.776217 2.392897 -0.847310
3.695476 2.509131 -0.813645
3.938191 2.156470 -0.790483
3.902339 2.301951 -0.890440
3.860667 2.442118 -0.851165
3.776391 2.556420 -0.808329
4.029393 2.208402 -0.812601
3.965095 2.336465 -0.828969
3.935933 2.484874 -0.826360
3.863679 2.608436 -0.820535
4.111167 2.254693 -0.805961
4.063178 2.393732 -0.868309
4.030515 2.541013 -0.855912
3.945086 2.655947 -0.813313
4.220402 2.317235 -0.871835
4.148759 2.442881 -0.869670
4.115897 2.590678 -0.856792
4.039604 2.713144 -0.841768
4.285655 2.353659 -0.817342
4.231225 2.489986 -0.860888
4.201573 2.640479 -0.856671
4.128221 2.765824 -0.850782
4.361017 2.396053 -0.789598
4.292953 2.523815 -0.796528
4.287533 2.690413 -0.855541
4.200382 2.806299 -0.813319
4.457965 2.451183 -0.815500
4.432110 2.606976 -0.931223
4.387833 2.750080 -0.889590
4.299827 2.866766 -0.847477
4.548223 2.502315 -0.822101
4.479496 2.631626 -0.828917
4.460277 2.790658 -0.850232
4.386036 2.917423 -0.844300
4.638884 2.553644 -0.827605
4.584647 2.692961 -0.870351
4.547041 2.840957 -0.846045
4.458176 2.957802 -0.804228
4.718459 2.598398 -0.805132
4.668197 2.740534 -0.856630
4.634055 2.891369 -0.840826
4.562873 3.021719 -0.843793
4.829160 2.661456 -0.853149
4.751856 2.788139 -0.841953
4.736467 2.952104 -0.870153
4.646183 3.070073 -0.828596
4.917142 2.711086 -0.846370
4.843401 2.840677 -0.844076
4.808800 2.992505 -0.827282
4.733375 3.121165 -0.821291
4.977148 2.744232 -0.776665
4.927389 2.888407 -0.827399
4.912207 3.053738 -0.854201
4.820790 3.172352 -0.812940
5.089684 2.808228 -0.820880
5.019515 2.941211 -0.827351
5.000401 3.104691 -0.844649
4.924101 3.234780 -0.838608
5.182418 2.860541 -0.819757
5.128362 3.004437 -0.861188
5.105030 3.166546 -0.868962
5.028152 3.297590 -0.862885
5.300865 2.927896 -0.869785
5.229754 3.062911 -0.876121
5.193889 3.217810 -0.857121
5.100499 3.337880 -0.816303
5.368876 2.965631 -0.814084
5.348641 3.132238 -0.924406
5.299693 3.280259 -0.878789
5.205459 3.401137 -0.838110
5.480029 3.028613 -0.844033
5.408527 3.164688 -0.850245
5.372149 3.320548 -0.830232
5.298565 3.455947 -0.832710
5.578727 3.084251 -0.846716
5.528685 3.234660 -0.895769
5.478817 3.383416 -0.849395
5.400470 3.516835 -0.843243
5.682340 3.142720 -0.856678
5.605676 3.277713 -0.854216
5.551069 3.423530 -0.799034
5.477024 3.559949 -0.801397
5.754586 3.182814 -0.805830
5.731806 3.351231 -0.905249
5.676368 3.498485 -0.849521
5.597144 3.633332 -0.843324
5.877305 3.252357 -0.847178
5.822680 3.402804 -0.886893
5.784770 3.562220 -0.864504
5.704967 3.698021 -0.858274
5.977621 3.308767 -0.844778
5.927536 3.462985 -0.892632
5.893810 3.626276 -0.878011
5.795388 3.750572 -0.838288
6.083063 3.368123 -0.849441
6.004801 3.506061 -0.846884
5.966321 3.666404 -0.823456
5.890497 3.806302 -0.825517
6.198624 3.433327 -0.869317
6.148231 3.589926 -0.916537
6.113746 3.755316 -0.900549
6.013656 3.881239 -0.861148
6.280773 3.479021 -0.829811
6.225826 3.633119 -0.868470
6.205532 3.807884 -0.876666
6.128391 3.950242 -0.878541
6.417102 3.556214 -0.879644
6.332359 3.694094 -0.868797
6.297397 3.860462 -0.851658
6.215260 4.000073 -0.845306
6.544629 3.628217 -0.911148
6.449211 3.761345 -0.884009
6.404019 3.922551 -0.849900
6.331022 4.069573 -0.859756
6.627501 3.674209 -0.867875
6.576742 3.835071 -0.913792
6.540817 4.004060 -0.895140
6.418143 4.119475 -0.824166
6.735814 3.734946 -0.863940
6.674841 3.890672 -0.893416
6.653677 4.069987 -0.898215
6.549723 4.199513 -0.859682
6.839350 3.792863 -0.850556
6.803820 3.965124 -0.919791
6.746740 4.123085 -0.867856
6.642243 4.252949 -0.829523
6.958907 3.860029 -0.859668
6.861156 3.995697 -0.833045
6.839826 4.176160 -0.836352
6.780421 4.337180 -0.869413
7.100329 3.939816 -0.898681
7.032963 4.096169 -0.919533
6.969335 4.252564 -0.858735
6.863263 4.383950 -0.820771
7.194513 3.992165 -0.865007
7.116464 4.142645 -0.869998
7.089163 4.322654 -0.863592
7.008153 4.472433 -0.864822
7.315839 4.060193 -0.869112
7.269411 4.231400 -0.920720
7.225540 4.403235 -0.890006
7.117475 4.536868 -0.852391
7.448721 4.134851 -0.886971
7.347763 4.274651 -0.860860
7.341321 4.470545 -0.883582
7.232437 4.605001 -0.846158
7.571304 4.203491 -0.887535
7.524357 4.377598 -0.938294
7.479290 4.551922 -0.906110
7.369307 4.687683 -0.868859
7.683216 4.265907 -0.871129
7.608523 4.424285 -0.883376
7.596156 4.619746 -0.896220
7.490785 4.759954 -0.866746
7.784093 4.321899 -0.838082
7.709187 4.480956 -0.850191
7.691201 4.673627 -0.854585
7.579874 4.810561 -0.817751
7.925076 4.401006 -0.856285
7.866436 4.571868 -0.890744
7.831073 4.755923 -0.871529
7.746361 4.912578 -0.872202
8.049558 4.470525 -0.850037
8.013445 4.656472 -0.913952
7.971773 4.838630 -0.886359
7.858258 4.978183 -0.849891
8.180353 4.543627 -0.849408
8.097936 4.703174 -0.853662
8.096099 4.910861 -0.876999
7.987360 5.055109 -0.848081
8.335294 4.630588 -0.876203
8.269459 4.802430 -0.902332
8.226657 4.986949 -0.873144
8.111314 5.128524 -0.837079
8.419846 4.676921 -0.813363
8.348231 4.845587 -0.831968
8.351917 5.059603 -0.860140
8.270305 5.224961 -0.867653
8.600116 4.778338 -0.864935
8.533383 4.952869 -0.890506
8.512954 5.154727 -0.888371
8.395435 5.298929 -0.852689
8.757547 4.866521 -0.885007
8.672114 5.032054 -0.888844
8.639351 5.227910 -0.871377
8.550349 5.392390 -0.871446
8.866996 4.927029 -0.845940
8.805403 5.107883 -0.878028
8.802140 5.323894 -0.894865
8.682454 5.470727 -0.859577
9.050506 5.030067 -0.889733
8.945263 5.187590 -0.872280
8.959877 5.416572 -0.908781
8.844952 5.568885 -0.880670
9.210443 5.119470 -0.902708
9.091840 5.271250 -0.871407
9.094042 5.494345 -0.892520
8.972193 5.643813 -0.857640
9.346138 5.194874 -0.885599
9.263890 5.370115 -0.895901
9.253282 5.587740 -0.901728
9.130212 5.738768 -0.867043
9.507556 5.284980 -0.893855
9.436988 5.469497 -0.917648
9.419559 5.685419 -0.915233
9.319780 5.854164 -0.907922
9.657023 5.368154 -0.886056
9.566920 5.542903 -0.889230
9.574201 5.775698 -0.912622
9.479682 5.950034 -0.911991
9.858528 5.481095 -0.929669
9.773483 5.662122 -0.939418
9.767427 5.889954 -0.947636
9.665348 6.062527 -0.940192
9.983603 5.550133 -0.890231
9.898128 5.732196 -0.899810
9.866348 5.945251 -0.880363
9.770269 6.122388 -0.879519
10.161077 5.649130 -0.901658
10.074620 5.833201 -0.911047
10.093401 6.080322 -0.942642
10.014705 6.272719 -0.961231
10.280196 5.714630 -0.851637
10.186858 5.895722 -0.854346
10.199192 6.139752 -0.878024
10.120326 6.332850 -0.896341
10.538627 5.859802 -0.935353
10.450001 6.048252 -0.944348
10.415613 6.267900 -0.920938
10.316018 6.451219 -0.919687
10.672100 5.933366 -0.893387
10.576354 6.119027 -0.895826
10.574330 6.360045 -0.903117
10.447848 6.528148 -0.876415
10.839374 6.026193 -0.881049
10.802711 6.249330 -0.940155
10.753418 6.464722 -0.901633
10.678020 6.668459 -0.925210
11.020809 6.127034 -0.878582
10.929847 6.320407 -0.887010
10.933281 6.569754 -0.897250
10.830590 6.758531 -0.895629
11.107179 6.670969 -0.883818
11.036672 6.882942 -0.912724
11.322270 6.797538 -0.903992
11.243845 7.007874 -0.926337
11.524896 6.916245 -0.908536
11.418391 7.111676 -0.906490
11.728453 7.035381 -0.909698
11.627412 7.237460 -0.913431
11.912205 7.142164 -0.889896
11.837418 7.363699 -0.916837
12.152107 7.283412 -0.913392
12.041498 7.485974 -0.910907
12.365320 7.408056 -0.909889
12.280991 7.630718 -0.930092
12.607542 7.550385 -0.925364
0.867073 0.336926 8.491873
12.486898 7.753817 -0.916926
0.878286 0.339349 8.490011
0.883412 0.347079 8.484653
0.870415 0.338675 8.497537
0.858945 0.327295 8.510020
0.900031 0.357372 8.478063
0.879746 0.344352 8.496095
0.890052 0.346137 8.492764
0.902486 0.358648 8.482506
0.861872 0.328814 8.515368
0.845654 0.322501 8.525732
0.892282 0.347291 8.496957
0.904875 0.359884 8.486997
0.863757 0.329786 8.518980
0.884046 0.346576 8.504178
0.887006 0.343870 8.506095
0.833483 0.314514 8.540504
0.856467 0.328930 8.527565