# This PCD file was generated using the MATLAB® pcwrite function
# from Computer Vision System Toolbox®.
# .PCD v.7 - Point Cloud Data file format
VERSION .7
FIELDS x y z
SIZE 4 4 4
TYPE F F F
COUNT 1 1 1
WIDTH 746
HEIGHT 1
VIEWPOINT 0 0 0 1 0 0 0
POINTS 746
DATA ascii
1.095891 -0.236939 -0.139740
1.117063 -0.225805 -0.121586
1.178793 -0.194432 -0.064079
1.110976 -0.228869 -0.129013
1.185659 -0.190681 -0.057839
1.091594 -0.238810 -0.149690
1.166111 -0.201235 -0.078005
1.079158 -0.245116 -0.164124
1.159920 -0.204539 -0.085160
1.119743 -0.224024 -0.125264
1.166795 -0.200783 -0.078911
1.113878 -0.226946 -0.132923
1.160710 -0.204018 -0.086186
1.095113 -0.236485 -0.154346
1.193024 -0.186603 -0.052235
1.083109 -0.242512 -0.169256
1.096927 -0.235295 -0.156618
1.193329 -0.186403 -0.052610
1.116901 -0.224963 -0.136710
1.162337 -0.202952 -0.088188
1.123975 -0.221248 -0.130565
1.144222 -0.212570 -0.110098
1.118457 -0.223949 -0.138556
1.125440 -0.220295 -0.132273
1.163599 -0.202133 -0.089645
1.120041 -0.222921 -0.140369
1.188099 -0.189084 -0.060841
1.126932 -0.219329 -0.133950
1.170423 -0.198419 -0.083215
1.121653 -0.221879 -0.142149
1.182623 -0.191927 -0.068749
1.128450 -0.218350 -0.135595
1.194607 -0.185575 -0.054047
1.176620 -0.194116 -0.076494
1.153473 -0.205631 -0.107024
1.171966 -0.197428 -0.084829
1.177287 -0.193689 -0.077179
1.177625 -0.193473 -0.077516
1.172756 -0.196924 -0.085611
1.177965 -0.193256 -0.077850
1.161376 -0.201401 -0.101490
1.173559 -0.196413 -0.086377
1.200999 -0.181814 -0.047209
1.140301 -0.211599 -0.133978
1.152774 -0.207088 -0.118879
1.157471 -0.203086 -0.110876
1.185467 -0.190115 -0.071514
1.158059 -0.202714 -0.111402
1.175200 -0.195375 -0.087860
1.158652 -0.202340 -0.111922
1.191284 -0.187055 -0.063937
1.159248 -0.201964 -0.112437
1.170875 -0.197495 -0.096720
1.133687 -0.214224 -0.153637
1.186664 -0.189362 -0.072536
1.139766 -0.211165 -0.146201
1.192009 -0.186599 -0.064539
1.176395 -0.193471 -0.089228
1.134928 -0.210981 -0.155380
1.097379 -0.224488 -0.212948
1.187274 -0.188980 -0.073028
1.141476 -0.210095 -0.147580
1.172829 -0.196272 -0.098296
1.132362 -0.214305 -0.164928
1.136777 -0.209826 -0.156829
1.140848 -0.205891 -0.148341
1.149045 -0.208245 -0.140625
1.143207 -0.209014 -0.148924
1.154650 -0.205323 -0.132800
1.134353 -0.213064 -0.166443
1.123944 -0.215130 -0.183576
1.137625 -0.206839 -0.158094
1.164864 -0.200097 -0.116391
1.140158 -0.210182 -0.158709
1.174831 -0.195027 -0.099790
1.155318 -0.202938 -0.133828
1.088014 -0.230345 -0.253518
1.139518 -0.205664 -0.159466
1.170735 -0.197012 -0.108725
1.123360 -0.217722 -0.194341
1.189471 -0.187614 -0.074652
1.161457 -0.199851 -0.126291
1.086687 -0.230289 -0.264455
1.122570 -0.211990 -0.195263
1.167411 -0.198520 -0.118181
1.143979 -0.207816 -0.161395
1.150410 -0.206846 -0.153433
1.144947 -0.207219 -0.162042
1.144395 -0.205104 -0.162240
1.115849 -0.214073 -0.214306
1.168705 -0.197722 -0.119037
1.145921 -0.206619 -0.162679
1.130781 -0.207957 -0.188958
1.156513 -0.203624 -0.145823
1.159954 -0.200076 -0.136957
1.128801 -0.211257 -0.198677
1.136414 -0.205516 -0.180918
1.170013 -0.196919 -0.119866
1.130739 -0.213173 -0.199220
1.125727 -0.212290 -0.208288
1.133141 -0.206508 -0.190438
1.191422 -0.186413 -0.075916
1.178412 -0.191509 -0.102478
1.131305 -0.209722 -0.200214
1.138655 -0.204142 -0.182294
1.171334 -0.196109 -0.120669
1.149865 -0.204198 -0.165127
1.140946 -0.205514 -0.183132
1.148300 -0.200259 -0.165152
1.159948 -0.201519 -0.147910
1.146776 -0.205406 -0.174658
1.146203 -0.203144 -0.174836
1.157683 -0.196536 -0.147844
1.172668 -0.195294 -0.121444
1.151866 -0.202975 -0.166290
1.147275 -0.202490 -0.175446
1.133807 -0.205093 -0.202237
1.161690 -0.200456 -0.148900
1.152874 -0.202361 -0.166857
1.148353 -0.201833 -0.176044
1.159429 -0.195471 -0.148825
1.158751 -0.201738 -0.158445
1.138343 -0.208527 -0.203640
1.129829 -0.208945 -0.221967
1.156319 -0.196369 -0.158360
1.182188 -0.190511 -0.104357
1.154903 -0.201126 -0.167958
1.138962 -0.205053 -0.204517
1.129818 -0.205531 -0.222516
1.179053 -0.191915 -0.113777
1.155924 -0.200506 -0.168493
1.151613 -0.199852 -0.177774
1.158224 -0.195212 -0.159358
1.183279 -0.189849 -0.104922
1.153268 -0.201456 -0.178182
1.141559 -0.203477 -0.205847
1.147828 -0.198556 -0.187332
1.194457 -0.184565 -0.077583
1.190495 -0.185491 -0.086749
1.145281 -0.199116 -0.197106
1.184380 -0.189183 -0.105465
1.155469 -0.200124 -0.179268
1.144178 -0.201894 -0.207123
1.150171 -0.197139 -0.188474
1.181528 -0.190416 -0.114999
1.163525 -0.196563 -0.161265
1.163042 -0.194576 -0.161378
1.162083 -0.192878 -0.161239
1.198830 -0.182413 -0.068773
1.188335 -0.186144 -0.096638
1.157137 -0.196514 -0.180432
1.166565 -0.191150 -0.152390
1.182781 -0.189662 -0.115571
1.162138 -0.196751 -0.171485
1.144775 -0.200723 -0.218273
1.146842 -0.197199 -0.208748
1.186606 -0.187842 -0.106483
1.159922 -0.197440 -0.181305
1.146177 -0.199881 -0.218881
1.154911 -0.194284 -0.190614
1.171540 -0.194500 -0.153700
1.167436 -0.194208 -0.163008
1.144355 -0.200172 -0.228871
1.149510 -0.195597 -0.209890
1.187731 -0.187166 -0.106958
1.177798 -0.189908 -0.135163
1.148996 -0.198189 -0.220055
1.157306 -0.192847 -0.191611
1.185313 -0.188141 -0.116640
1.181630 -0.188248 -0.126031
1.156588 -0.195238 -0.201714
1.167980 -0.189335 -0.163762
1.203222 -0.179765 -0.059985
1.163901 -0.192455 -0.183248
1.172060 -0.187853 -0.154677
1.197961 -0.182459 -0.079102
1.183051 -0.187398 -0.126582
1.176825 -0.187908 -0.145648
1.166958 -0.188990 -0.174021
1.203650 -0.179510 -0.060146
1.166186 -0.191091 -0.184095
1.173916 -0.186745 -0.155365
1.209473 -0.177456 -0.041121
1.173405 -0.190639 -0.165321
1.167334 -0.190407 -0.184501
1.157622 -0.190748 -0.212988
1.201662 -0.180717 -0.069902
1.182503 -0.187098 -0.136933
1.168485 -0.189722 -0.184895
1.175784 -0.185633 -0.156015
1.189173 -0.185838 -0.118049
1.185920 -0.185689 -0.127596
1.159006 -0.192218 -0.223707
1.160359 -0.189121 -0.213910
1.192306 -0.184437 -0.108627
1.184090 -0.186155 -0.137459
1.170797 -0.188349 -0.185648
1.177662 -0.184517 -0.156627
1.209761 -0.177284 -0.041216
1.187367 -0.184830 -0.128060
1.171958 -0.187661 -0.186007
1.165694 -0.186900 -0.205133
1.184114 -0.187467 -0.147699
1.185686 -0.185209 -0.137952
1.182884 -0.184307 -0.147656
1.177040 -0.183944 -0.166865
1.191784 -0.184291 -0.118857
1.188822 -0.183969 -0.128494
1.164817 -0.188775 -0.225473
1.168315 -0.185349 -0.205901
1.194633 -0.183059 -0.109322
1.185028 -0.184983 -0.148128
1.184636 -0.183272 -0.148151
1.179084 -0.182736 -0.167442
1.201576 -0.180313 -0.080260
1.190284 -0.183106 -0.128898
1.176630 -0.184900 -0.187326
1.180109 -0.182131 -0.167715
1.195805 -0.182368 -0.109633
1.178324 -0.186490 -0.187607
1.186396 -0.182234 -0.148609
1.181137 -0.181526 -0.167977
1.202310 -0.179880 -0.080448
1.191752 -0.182240 -0.129273
1.170684 -0.185316 -0.227002
1.175738 -0.181907 -0.197516
1.196982 -0.181675 -0.109922
1.190521 -0.182357 -0.139239
1.170158 -0.184856 -0.237137
1.183200 -0.180313 -0.168471
1.195748 -0.181955 -0.119869
1.193227 -0.181373 -0.129619
1.196758 -0.179220 -0.110007
1.196207 -0.178251 -0.109927
1.205168 -0.178646 -0.070873
1.197608 -0.180014 -0.110136
1.188087 -0.180473 -0.159242
1.185270 -0.179098 -0.168923
1.203788 -0.179013 -0.080778
1.194708 -0.180505 -0.129934
1.183715 -0.180738 -0.188947
1.190003 -0.178179 -0.149480
1.199351 -0.180286 -0.110426
1.193778 -0.180446 -0.139932
1.190017 -0.179343 -0.159623
1.194441 -0.177433 -0.129969
1.204531 -0.178578 -0.080921
1.202585 -0.178306 -0.090756
1.179576 -0.180105 -0.228850
1.183294 -0.177479 -0.199085
1.200542 -0.179590 -0.110642
1.193892 -0.179779 -0.150109
1.193509 -0.178066 -0.150087
1.189434 -0.176664 -0.169701
1.199759 -0.179609 -0.120639
1.190442 -0.179993 -0.179932
1.182561 -0.178365 -0.229345
1.185831 -0.176000 -0.199507
1.195214 -0.180508 -0.160381
1.195685 -0.178734 -0.150397
1.188274 -0.177317 -0.199869
1.191526 -0.175445 -0.170027
1.199875 -0.179105 -0.130762
1.192685 -0.178687 -0.180270
1.190878 -0.176561 -0.190137
1.192574 -0.174836 -0.170174
1.202934 -0.178198 -0.111003
1.192585 -0.178148 -0.190346
1.197101 -0.175976 -0.150610
1.193624 -0.174226 -0.170310
1.201375 -0.178234 -0.130957
1.194935 -0.177380 -0.180563
1.193279 -0.175167 -0.190437
1.194675 -0.173616 -0.170436
1.204135 -0.177501 -0.111147
1.199284 -0.176644 -0.150866
1.198904 -0.174931 -0.150816
1.195727 -0.173007 -0.170552
1.211243 -0.176417 -0.041516
1.206179 -0.176216 -0.091260
1.195686 -0.173773 -0.190688
1.193482 -0.171558 -0.200463
1.201068 -0.177112 -0.161083
1.201090 -0.175599 -0.151045
1.195936 -0.172875 -0.200748
1.197835 -0.171788 -0.170751
1.210615 -0.176348 -0.051499
1.206235 -0.175591 -0.101304
1.198097 -0.172380 -0.190891
1.198890 -0.171178 -0.170834
1.208655 -0.176184 -0.081436
1.206763 -0.175286 -0.101343
1.199305 -0.171684 -0.190975
1.199946 -0.170569 -0.170907
1.206521 -0.175691 -0.121380
1.201713 -0.173462 -0.181168
1.200513 -0.170988 -0.191046
1.197812 -0.168146 -0.210801
1.204991 -0.174850 -0.161353
1.205333 -0.173743 -0.141317
1.201722 -0.170292 -0.191105
1.202783 -0.169849 -0.161060
1.205974 -0.174285 -0.161397
1.204527 -0.172434 -0.171297
1.202932 -0.169597 -0.191152
1.200533 -0.166581 -0.210920
1.206957 -0.173720 -0.161430
1.206997 -0.172787 -0.141382
1.204142 -0.168902 -0.191187
1.204750 -0.168720 -0.161126
1.211847 -0.176069 -0.041552
1.209803 -0.174129 -0.091474
1.205354 -0.168208 -0.191209
1.203257 -0.165019 -0.210984
1.208925 -0.172592 -0.161466
1.208662 -0.171833 -0.141413
1.206215 -0.166964 -0.201198
1.206298 -0.166921 -0.171121
1.209735 -0.171699 -0.171463
1.208765 -0.170004 -0.171377
1.207777 -0.166821 -0.191218
1.206327 -0.164173 -0.201025
1.210402 -0.169602 -0.211426
1.209491 -0.168410 -0.191342
1.208791 -0.165492 -0.201182
1.207346 -0.162680 -0.210978
1.211946 -0.172152 -0.131473
1.210795 -0.168255 -0.181337
1.210202 -0.165436 -0.191178
1.209480 -0.165104 -0.171085
1.213129 -0.168046 -0.211368
1.211980 -0.169348 -0.151358
1.211414 -0.164745 -0.191140
1.210657 -0.165343 -0.161088
1.213462 -0.171288 -0.131426
1.213068 -0.166959 -0.181266
1.212513 -0.167119 -0.151207
1.211438 -0.160348 -0.210849
1.215652 -0.167039 -0.201271
1.214205 -0.166313 -0.181213
1.213840 -0.163366 -0.191027
1.212627 -0.164222 -0.160996
1.214977 -0.170426 -0.131347
1.215342 -0.165667 -0.181148
1.215052 -0.162677 -0.190952
1.214276 -0.157825 -0.220647
1.215378 -0.170628 -0.121323
1.215330 -0.168032 -0.141203
1.216264 -0.161990 -0.190865
1.214596 -0.163104 -0.160865
1.217788 -0.167544 -0.161143
1.217615 -0.164378 -0.180986
1.218802 -0.157551 -0.230568
1.216892 -0.157252 -0.210486
1.221310 -0.163400 -0.210864
1.218750 -0.163734 -0.180887
1.218687 -0.160618 -0.190655
1.218254 -0.156481 -0.210361
1.219756 -0.166430 -0.160962
1.219886 -0.163092 -0.180777
1.221829 -0.155839 -0.230275
1.219616 -0.155712 -0.210223
1.220739 -0.165875 -0.160857
1.219251 -0.165223 -0.150837
1.218874 -0.163515 -0.150688
1.219020 -0.159692 -0.170401
1.219518 -0.167857 -0.130931
1.221489 -0.162778 -0.170593
1.224854 -0.154132 -0.229922
1.222337 -0.154176 -0.209904
1.222704 -0.164767 -0.160618
1.224029 -0.160163 -0.190301
1.224236 -0.156736 -0.199998
1.221136 -0.158500 -0.170133
1.221028 -0.167006 -0.130732
1.224421 -0.160535 -0.180225
1.227874 -0.152432 -0.229508
1.225055 -0.152647 -0.209532
1.220822 -0.167555 -0.120715
1.222876 -0.163181 -0.150358
1.225940 -0.156530 -0.189735
1.223248 -0.157312 -0.169822
1.222536 -0.166159 -0.130502
1.226683 -0.159264 -0.179880
1.230889 -0.150739 -0.229034
1.227769 -0.151123 -0.209105
1.226625 -0.162564 -0.160021
1.227813 -0.158630 -0.179691
1.228350 -0.155179 -0.189331
1.229123 -0.150364 -0.208872
1.224042 -0.165315 -0.130242
1.228942 -0.157998 -0.179491
1.229553 -0.154505 -0.189111
1.231493 -0.148123 -0.218461
1.233628 -0.156903 -0.199080
1.225296 -0.162419 -0.139887
1.230755 -0.153833 -0.188880
1.226368 -0.156479 -0.159252
1.229555 -0.160924 -0.159471
1.224854 -0.163263 -0.129891
1.227010 -0.158950 -0.149367
1.229677 -0.152799 -0.178668
1.236178 -0.155479 -0.198562
1.226947 -0.161498 -0.139552
1.233154 -0.152494 -0.188380
1.228317 -0.155391 -0.158846
1.219607 -0.169976 -0.080597
1.226352 -0.162427 -0.129571
1.239896 -0.145706 -0.227250
1.237190 -0.144944 -0.217275
1.224666 -0.165841 -0.109882
1.230086 -0.159151 -0.148968
1.235547 -0.151162 -0.187833
1.237218 -0.145846 -0.207186
1.226899 -0.164159 -0.119511
1.234116 -0.155710 -0.168286
1.242882 -0.144046 -0.226537
1.240026 -0.143366 -0.216597
1.234414 -0.158220 -0.158359
1.238444 -0.152104 -0.187521
1.237932 -0.149838 -0.187238
1.238360 -0.146132 -0.196798
1.230025 -0.161982 -0.128905
1.237918 -0.152998 -0.177484
1.232384 -0.155962 -0.148082
1.236394 -0.149064 -0.177062
1.221470 -0.168941 -0.080132
1.226498 -0.163548 -0.109225
1.240309 -0.148521 -0.186596
1.234129 -0.152163 -0.157396
1.231509 -0.161160 -0.128496
1.240145 -0.151765 -0.176870
1.241495 -0.147866 -0.186257
1.245671 -0.140240 -0.215072
1.228234 -0.163864 -0.108936
1.243194 -0.149475 -0.186213
1.242678 -0.147212 -0.185906
1.236053 -0.151100 -0.156836
1.232988 -0.160344 -0.128058
1.242363 -0.150541 -0.176213
1.243859 -0.146561 -0.185544
1.246567 -0.140671 -0.204612
1.222948 -0.168125 -0.079694
1.226777 -0.164001 -0.098904
1.236821 -0.153512 -0.146767
1.239954 -0.148024 -0.165828
1.234460 -0.159533 -0.127590
1.244572 -0.149324 -0.175511
1.254723 -0.137504 -0.223089
1.249214 -0.139214 -0.203757
1.232892 -0.160848 -0.117767
1.236740 -0.156077 -0.136855
1.249586 -0.142641 -0.193938
1.242009 -0.146894 -0.165143
1.235926 -0.158728 -0.127093
1.246772 -0.148116 -0.174766
1.248556 -0.143979 -0.183977
1.240829 -0.148474 -0.155269
1.244002 -0.152932 -0.155416
1.250248 -0.145595 -0.183898
1.242683 -0.149522 -0.155057
1.234945 -0.154498 -0.126458
1.234864 -0.159767 -0.117067
1.248961 -0.146916 -0.173977
1.250888 -0.142702 -0.183124
1.245073 -0.145215 -0.164039
1.245894 -0.151897 -0.154713
1.252577 -0.144321 -0.183033
1.252050 -0.142068 -0.182680
1.246089 -0.144660 -0.163650
1.238837 -0.157135 -0.126012
1.248541 -0.147765 -0.163705
1.263468 -0.132716 -0.219890
1.257083 -0.134906 -0.200878
1.247777 -0.150870 -0.153974
1.252224 -0.145135 -0.172712
1.257001 -0.138587 -0.191145
1.248114 -0.143556 -0.162843
1.248714 -0.150359 -0.153590
1.253306 -0.144546 -0.172269
1.255516 -0.140179 -0.181279
1.243843 -0.147765 -0.143730
1.252531 -0.147816 -0.162553
1.243128 -0.152586 -0.134414
1.259446 -0.137257 -0.190116
1.260971 -0.132790 -0.199264
1.241717 -0.155568 -0.124817
1.255460 -0.143375 -0.171351
1.257810 -0.138933 -0.180288
1.245564 -0.146831 -0.142987
1.251509 -0.148841 -0.152382
1.259489 -0.140559 -0.180163
1.261876 -0.135939 -0.189039
1.263544 -0.131395 -0.198124
1.230755 -0.163401 -0.087130
1.245486 -0.151307 -0.133369
1.260090 -0.137698 -0.179252
1.261899 -0.133236 -0.188314
1.228013 -0.165361 -0.077703
1.236969 -0.157819 -0.105338
1.248962 -0.146892 -0.141928
1.242132 -0.150590 -0.123434
1.241323 -0.156257 -0.114313
1.259728 -0.141065 -0.169387
1.274902 -0.126516 -0.214823
1.264305 -0.131936 -0.187165
1.241958 -0.155914 -0.114003
1.260786 -0.140494 -0.168869
1.266690 -0.133340 -0.186742
1.268640 -0.128643 -0.195692
1.242591 -0.155574 -0.113686
1.261841 -0.139926 -0.168342
1.264606 -0.135263 -0.177045
1.266695 -0.130649 -0.185969
1.257020 -0.145867 -0.149720
1.266273 -0.136898 -0.176886
1.282460 -0.121647 -0.221748
1.271161 -0.127287 -0.194400
1.247369 -0.152518 -0.122087
1.263939 -0.138799 -0.167255
1.280506 -0.123502 -0.211953
1.269068 -0.129375 -0.184726
1.244475 -0.154562 -0.112699
1.250899 -0.148392 -0.130660
1.267950 -0.133469 -0.175273
1.273664 -0.125945 -0.193059
1.263391 -0.141960 -0.157245
1.266021 -0.137684 -0.166127
1.283278 -0.122019 -0.210435
1.274909 -0.125280 -0.192370
1.230809 -0.163859 -0.076254
1.252421 -0.147579 -0.129817
1.288279 -0.118532 -0.218561
1.276148 -0.124618 -0.191669
1.250134 -0.151039 -0.120556
1.268088 -0.136580 -0.164958
1.286027 -0.120551 -0.208863
1.277383 -0.123959 -0.190955
1.262412 -0.142983 -0.146735
1.284299 -0.125292 -0.199771
1.257305 -0.142419 -0.137458
1.263848 -0.135084 -0.154970
1.247567 -0.152912 -0.110931
1.270137 -0.135489 -0.163748
1.273437 -0.130543 -0.172101
1.279836 -0.122654 -0.189492
1.244177 -0.155223 -0.101781
1.275087 -0.132191 -0.171899
1.258934 -0.141554 -0.136466
1.265748 -0.134075 -0.153813
1.232513 -0.162952 -0.075238
1.252170 -0.148378 -0.118852
1.291457 -0.117667 -0.205557
1.282269 -0.121364 -0.187980
1.245256 -0.154652 -0.101104
1.273178 -0.133876 -0.161858
1.296831 -0.113989 -0.213354
1.283476 -0.120725 -0.187207
1.249994 -0.151626 -0.109407
1.290718 -0.121888 -0.195781
1.310528 -0.104239 -0.238277
1.284679 -0.120090 -0.186421
1.267670 -0.140197 -0.143434
1.279383 -0.129918 -0.169148
1.299630 -0.112512 -0.211507
1.285876 -0.119459 -0.185624
1.255526 -0.148182 -0.117171
1.276177 -0.132293 -0.159879
1.296789 -0.114853 -0.202038
1.287067 -0.118832 -0.184815
1.247383 -0.153530 -0.099686
1.281500 -0.128803 -0.167709
1.302403 -0.111053 -0.209605
1.288252 -0.118209 -0.183994
1.252376 -0.150372 -0.107789
1.278153 -0.131255 -0.158511
1.281968 -0.126041 -0.166473
1.272262 -0.130639 -0.149472
1.248431 -0.152980 -0.098946
1.283597 -0.127703 -0.166229
1.283011 -0.125495 -0.165723
1.268817 -0.133458 -0.140440
1.253549 -0.149757 -0.106945
1.298225 -0.117942 -0.190582
1.302017 -0.112112 -0.198312
1.291771 -0.116366 -0.181462
1.268117 -0.140501 -0.131499
1.285672 -0.126618 -0.164708
1.285080 -0.124413 -0.164191
1.292932 -0.115760 -0.180595
1.254710 -0.149151 -0.106078
1.277385 -0.132360 -0.147385
1.304590 -0.110770 -0.196373
1.294087 -0.115158 -0.179716
1.269657 -0.139699 -0.130328
1.283003 -0.128721 -0.154922
1.287128 -0.123348 -0.162619
1.272162 -0.131714 -0.137919
1.255858 -0.148554 -0.105188
1.298315 -0.118608 -0.178699
1.307135 -0.109448 -0.194383
1.301055 -0.110505 -0.186057
1.271179 -0.138908 -0.129127
1.284907 -0.127733 -0.153420
1.289152 -0.122298 -0.161008
1.297512 -0.113380 -0.177014
1.237073 -0.160564 -0.071958
1.300586 -0.117432 -0.176874
1.309651 -0.108146 -0.192344
1.298640 -0.112797 -0.176091
1.252513 -0.150857 -0.095784
1.286788 -0.126760 -0.151881
1.291153 -0.121264 -0.159356
1.299762 -0.112218 -0.175157
1.258115 -0.147387 -0.103342
1.282683 -0.129615 -0.143129
1.332130 -0.092975 -0.221994
1.320589 -0.097272 -0.205912
1.274170 -0.137364 -0.126636
1.293745 -0.122436 -0.158222
1.318428 -0.102727 -0.197074
1.301985 -0.111073 -0.173256
1.280134 -0.133709 -0.133864
1.310206 -0.111735 -0.180957
1.335076 -0.091461 -0.219430
1.323289 -0.095885 -0.203562
1.275638 -0.136611 -0.125347
1.295703 -0.121431 -0.156503
1.295081 -0.119247 -0.155938
1.304180 -0.109948 -0.171311
1.260317 -0.146257 -0.101409
1.307235 -0.114013 -0.171138
1.337984 -0.089973 -0.216809
1.305267 -0.109393 -0.170323
1.233811 -0.162831 -0.062383
1.276269 -0.134410 -0.123950
1.323518 -0.100123 -0.192487
1.327274 -0.093849 -0.199939
1.261397 -0.145707 -0.100410
1.309394 -0.112912 -0.169140
1.319407 -0.103145 -0.183702
1.307419 -0.108296 -0.168315
1.278517 -0.135143 -0.122684
1.321384 -0.105263 -0.183300
1.347695 -0.084102 -0.220321
1.329887 -0.092521 -0.197459
1.262462 -0.145166 -0.099390
1.317044 -0.108247 -0.174631
1.343685 -0.087076 -0.211397
1.309542 -0.107220 -0.166266
1.279927 -0.134428 -0.121310
1.318157 -0.107684 -0.173538
1.328471 -0.097611 -0.187704
1.332462 -0.091217 -0.194929
1.286329 -0.130557 -0.128034
1.319261 -0.107127 -0.172434
1.346475 -0.085667 -0.208609
1.328211 -0.094472 -0.186277
1.281317 -0.133727 -0.119910
1.320357 -0.106574 -0.171320
1.330894 -0.096390 -0.185240
1.335001 -0.089939 -0.192348
1.241269 -0.158424 -0.068076
1.298441 -0.120824 -0.141008
1.326382 -0.099623 -0.176732
1.336256 -0.089308 -0.191040
1.306190 -0.118616 -0.147456
1.345758 -0.090575 -0.198006
1.350583 -0.083604 -0.204326
1.337501 -0.088685 -0.189719
1.289295 -0.129067 -0.124941
1.323597 -0.104950 -0.167913
1.351931 -0.082931 -0.202871
1.338737 -0.088067 -0.188386
1.284034 -0.132367 -0.117028
1.342421 -0.093068 -0.188103
1.306236 -0.113613 -0.144789
1.316728 -0.103612 -0.158772
1.290744 -0.128345 -0.123352
1.355594 -0.084837 -0.200860
1.330858 -0.097389 -0.171863
1.341178 -0.086852 -0.185685
1.285360 -0.131707 -0.115548
1.350884 -0.088020 -0.192382
1.337943 -0.092872 -0.177572
1.342384 -0.086254 -0.184316
1.292169 -0.127639 -0.121735
1.321712 -0.106727 -0.156296
1.333042 -0.096308 -0.169364
1.343580 -0.085662 -0.182936
1.286665 -0.131062 -0.114043
1.353385 -0.086783 -0.189495
1.358509 -0.079669 -0.195407
1.344766 -0.085078 -0.181545
1.262263 -0.145934 -0.086040
1.305073 -0.117527 -0.133609
1.384395 -0.062825 -0.220928
1.352021 -0.080326 -0.186895
1.281632 -0.134255 -0.105766
1.355843 -0.085574 -0.186561
1.385878 -0.062098 -0.219128
1.365506 -0.071330 -0.198796
1.282212 -0.133971 -0.105056
1.357056 -0.084980 -0.185076
1.387347 -0.061379 -0.217313
1.354446 -0.079138 -0.183926
1.282787 -0.133690 -0.104340
1.339203 -0.096382 -0.163751
1.388804 -0.060669 -0.215484
1.393069 -0.053053 -0.221780
1.371167 -0.072433 -0.194133
1.356827 -0.077979 -0.180911
1.391676 -0.059274 -0.211784
1.370682 -0.068809 -0.192240
1.393091 -0.058590 -0.209914
1.384727 -0.059550 -0.203291
1.394493 -0.057915 -0.208030
1.405401 -0.045853 -0.220354
1.395880 -0.057248 -0.206132
1.380925 -0.062629 -0.193420
1.397254 -0.056591 -0.204221
1.401819 -0.048831 -0.210117
1.371979 -0.073138 -0.177906
1.390050 -0.056997 -0.195948
1.420078 -0.042338 -0.218446
1.404619 -0.047497 -0.206119
1.365896 -0.073631 -0.168402
1.395804 -0.058418 -0.190559
1.380438 -0.064147 -0.178549
1.388377 -0.059092 -0.182595
1.405193 -0.052837 -0.192485
1.410041 -0.044943 -0.197964
1.406466 -0.052243 -0.190485
1.370147 -0.071635 -0.161893
1.414707 -0.047207 -0.194077
1.391920 -0.057439 -0.177025
1.380852 -0.068974 -0.164322
1.379158 -0.066091 -0.164101
1.388976 -0.063996 -0.168036
1.401214 -0.051768 -0.178706
1.439866 -0.031913 -0.203910
1.374204 -0.069762 -0.155225
1.405443 -0.053948 -0.174995
1.389362 -0.060009 -0.164141
1.413783 -0.048879 -0.178237
1.404676 -0.050187 -0.172752