# This PCD file was generated using the MATLAB® pcwrite function
# from Computer Vision System Toolbox®.
# .PCD v.7 - Point Cloud Data file format
VERSION .7
FIELDS x y z
SIZE 4 4 4
TYPE F F F
COUNT 1 1 1
WIDTH 803
HEIGHT 1
VIEWPOINT 0 0 0 1 0 0 0
POINTS 803
DATA ascii
44.002808 -39.137699 8.198032
43.328621 -38.673229 8.461428
43.177967 -39.248661 8.661674
42.780678 -39.281082 8.619286
42.654526 -38.718334 8.221840
42.495468 -39.292675 8.441378
42.061817 -38.796223 8.436329
42.458843 -39.256649 7.944639
42.051872 -38.748894 7.902020
42.041817 -39.293438 7.935768
41.570862 -38.803722 7.984636
43.996613 -38.866821 4.768330
41.410240 -38.788448 7.641935
41.495403 -39.311855 7.548857
46.420616 -37.614826 0.127499
41.368549 -38.692966 6.545311
42.694611 -38.978279 4.700191
42.210335 -38.446033 4.736042
40.879555 -39.297924 6.676992
40.803535 -38.713280 6.161591
41.798237 -38.483326 4.703480
40.551826 -39.317867 6.558336
41.359825 -38.527298 4.716755
41.357201 -39.102165 4.751205
40.961571 -38.562462 4.677101
40.959370 -39.134674 4.712223
40.532166 -38.605564 4.691860
40.530312 -39.174286 4.727715
40.088875 -38.652699 4.736706
40.108578 -39.212948 4.739746
39.710766 -38.684662 4.685562
39.735886 -39.241539 4.680592
39.312840 -38.721954 4.672367
39.338013 -39.276051 4.667828
38.916325 -38.759453 4.663551
38.916119 -39.316433 4.702114
38.541275 -38.792068 4.624832
38.521500 -39.351326 4.698307
38.127728 -38.835026 4.658981
38.153084 -39.380772 4.655724
37.716339 -38.878143 4.697781
37.756290 -39.417175 4.668995
37.326241 -38.916374 4.706421
37.332535 -39.460480 4.738884
36.975365 -38.944733 4.649403
36.996262 -39.483795 4.656105
36.606464 -38.978321 4.631065
36.701683 -39.497326 4.497501
36.329533 -38.987125 4.440189
36.314640 -39.533371 4.518120
35.854172 -39.051048 4.641434
35.898010 -39.577316 4.605034
35.697784 -40.131500 4.687359
35.493420 -39.083935 4.625916
35.515091 -39.613640 4.634262
35.342720 -40.159306 4.665676
35.366550 -40.684147 4.669685
35.129433 -39.118244 4.623070
35.151306 -39.645710 4.631813
34.967117 -40.192089 4.692532
34.991112 -40.714272 4.696877
34.745552 -39.158894 4.668892
34.771816 -39.682335 4.669098
34.622795 -40.218334 4.660255
34.651253 -40.738018 4.655857
34.367920 -39.198437 4.709843
34.394264 -39.719090 4.710445
34.262619 -40.248573 4.667645
34.274601 -40.769264 4.699772
34.045212 -39.222176 4.637173
34.084068 -39.738583 4.610832
33.920040 -40.275188 4.642403
33.932503 -40.794178 4.674911
33.702488 -39.252254 4.613007
33.709244 -39.775654 4.659637
33.530487 -40.313290 4.730091
33.559254 -40.825703 4.726536
33.325321 -39.293468 4.674343
33.367889 -39.804214 4.639355
33.206024 -40.336472 4.675442
33.223274 -40.850151 4.699593
32.988747 -39.322662 4.648151
33.011963 -39.837254 4.659145
32.851212 -40.367329 4.697460
32.884140 -40.875580 4.685162
32.649105 -39.353245 4.634460
32.672596 -39.866150 4.645779
32.516602 -40.393681 4.676968
32.545876 -40.901184 4.674088
32.295654 -39.388817 4.661026
32.315685 -39.900547 4.681942
32.160789 -40.425758 4.715328
32.190170 -40.930882 4.712715
31.972496 -39.414928 4.617161
31.982122 -39.928703 4.666176
31.824600 -40.453354 4.710873
31.843384 -40.959137 4.736385
31.621552 -39.450798 4.650661
31.645824 -39.958088 4.662975
31.503357 -40.477451 4.672432
31.536625 -40.978985 4.660889
31.285955 -39.482029 4.650459
31.310509 -39.987633 4.663078
31.158569 -40.508118 4.702530
31.174765 -41.011414 4.738010
30.954720 -39.512230 4.644203
30.976208 -40.017334 4.666473
30.811970 -40.539810 4.745468
30.841988 -41.037781 4.743740
30.608028 -39.548496 4.688061
30.629833 -40.051353 4.710712
30.506084 -40.560806 4.678928
30.523317 -41.061249 4.715034
30.288544 -39.575470 4.660156
30.310766 -40.077183 4.683083
31.416077 -40.238052 0.989109
31.514498 -40.773079 0.795418
29.963299 -39.604965 4.654129
31.129398 -39.164833 1.106724
31.225214 -39.694519 0.917595
31.213774 -40.222229 0.500767
31.237007 -40.780941 0.533794
29.998083 -39.495926 3.525249
30.998600 -39.680611 0.496693
30.835831 -40.256699 0.544979
30.871582 -40.810162 0.540321
29.705715 -39.510105 3.389435
30.644722 -39.709229 0.466412
28.136505 -40.992165 8.174034
30.500500 -40.278969 0.459572
28.175108 -41.429840 8.138132
29.297756 -39.570797 3.636650
29.460421 -40.032867 3.202171
30.276955 -39.743130 0.487061
27.904922 -40.999077 7.988201
30.127760 -40.312881 0.501293
27.912308 -41.446381 8.057333
29.014071 -39.581928 3.478134
29.331902 -39.987545 2.498055
29.924397 -39.772125 0.463497
27.585522 -41.033298 8.100920
29.767677 -40.343437 0.508343
27.626720 -41.468998 8.055490
28.790215 -39.567074 3.101936
29.003036 -40.013588 2.463829
29.558842 -39.806351 0.491085
29.419283 -40.370705 0.480415
27.320377 -41.497559 8.133192
28.472116 -39.591530 3.052971
29.212952 -39.833714 0.454975
29.055759 -40.403328 0.513416
27.060205 -41.513927 8.050222
28.262232 -39.567459 2.593594
28.823734 -39.314659 0.450302
28.862221 -39.863281 0.441277
28.716150 -40.428402 0.463089
26.746508 -41.545536 8.172218
27.336842 -39.872353 4.938511
28.483154 -39.341026 0.401138
28.512079 -39.893032 0.430817
28.357143 -40.460491 0.493149
26.510830 -41.555157 7.997467
28.396801 -41.004211 0.479988
27.097015 -39.867115 4.651535
27.477642 -40.208302 3.227066
28.018097 -40.485981 0.449097
26.209467 -41.584114 8.086338
28.050915 -41.031242 0.465115
26.701097 -39.937191 5.014484
27.080410 -40.268074 3.539116
27.815952 -39.952114 0.409893
27.679035 -40.511696 0.408085
25.944134 -41.602638 8.032415
27.716810 -41.054970 0.404823
26.469175 -39.926998 4.683689
26.849377 -40.256645 3.146755
25.906616 -41.088432 6.819839
27.331341 -40.540955 0.409023
25.787107 -41.586777 7.494011
26.206949 -39.930622 4.470970
26.466719 -40.312542 3.426960
27.128510 -40.009033 0.372540
25.667559 -41.093372 6.592810
25.663013 -41.557980 6.760937
25.937595 -39.936852 4.279728
25.452494 -40.670876 6.781210
26.208933 -40.311584 3.136169
25.381277 -41.116753 6.582394
25.410484 -41.569660 6.594557
25.917679 -39.800259 2.813107
26.339279 -39.560833 0.677448
25.152355 -40.702568 6.850441
26.438763 -40.068645 0.367165
25.135395 -41.123219 6.369123
26.298405 -40.627319 0.401585
25.268757 -41.541924 5.852512
25.992256 -39.594971 0.709164
24.874332 -40.723885 6.814930
26.098511 -40.096821 0.349613
24.749725 -41.190613 6.892700
24.966160 -41.569359 5.904976
25.649908 -39.627083 0.724499
24.578531 -40.754822 6.879854
25.760330 -40.124252 0.325325
24.529903 -41.185436 6.537191
25.605970 -40.688984 0.451500
25.643375 -41.226257 0.458855
25.303406 -39.662575 0.772362
24.292757 -40.781136 6.898481
25.405504 -40.161255 0.402180
24.271351 -41.196743 6.379740
25.271189 -40.715263 0.422215
25.313951 -41.250126 0.400150
24.980457 -39.683220 0.685982
25.063747 -40.191830 0.413551
23.991737 -41.217861 6.342533
24.930183 -40.744915 0.435280
24.320698 -41.547623 4.492737
24.969864 -41.280090 0.433006
24.656528 -39.704151 0.602390
24.715178 -40.227184 0.477215
24.589924 -40.774727 0.451420
24.030977 -41.567398 4.415985
24.634315 -41.306976 0.419651
24.327410 -39.728542 0.551113
24.355417 -40.270897 0.632786
24.254618 -40.802372 0.441006
23.590160 -41.655548 5.398933
24.289202 -41.338520 0.478443
24.003174 -39.748978 0.463284
24.022926 -40.298187 0.614143
23.919596 -40.830212 0.433567
23.960070 -41.363232 0.431564
23.679096 -39.768669 0.368370
23.679300 -40.333824 0.687355
23.580004 -40.861294 0.468689
23.620708 -41.393181 0.466797
23.344568 -39.796963 0.355263
23.383970 -40.333626 0.368065
23.250509 -40.886463 0.427608
23.288101 -41.420177 0.455502
23.012348 -39.823399 0.325329
23.047878 -40.363453 0.377804
22.912310 -40.917870 0.468739
22.953568 -41.448593 0.466988
22.680965 -39.849037 0.288410
22.714321 -40.391685 0.370708
22.582876 -40.943466 0.433487
22.620569 -41.476582 0.471512
22.334106 -39.892197 0.422817
22.376465 -40.424503 0.416149
22.249670 -40.972240 0.440849
22.287987 -41.504745 0.478973
21.683422 -40.319023 4.328537
22.010092 -39.910114 0.312500
22.049553 -40.446991 0.345470
21.908247 -41.009209 0.560528
21.959042 -41.530731 0.449574
21.375601 -40.358566 4.462132
21.667891 -39.951443 0.433182
21.699751 -40.495697 0.575684
21.463430 -41.155224 2.185627
21.570601 -41.044762 0.663387
21.629871 -41.556946 0.423042
21.086193 -40.373203 4.350269
21.309082 -40.022667 0.854870
21.278753 -40.644569 1.972382
21.388439 -40.498837 0.282192
21.142954 -41.187611 2.262608
21.204805 -41.671539 1.923843
21.292994 -41.590302 0.518948
20.788496 -40.400032 4.360111
20.944935 -40.696442 2.259426
20.825100 -41.218658 2.322517
20.868069 -41.718758 2.282734
20.486580 -40.436844 4.471985
20.594131 -40.207104 2.145779
20.632847 -40.718582 2.201191
20.499693 -41.263824 2.584564
20.539143 -41.763973 2.614826
20.198351 -40.443451 4.278244
20.305698 -40.771923 2.514099
20.183268 -41.300476 2.729927
20.227489 -41.791695 2.640610
19.898033 -40.480511 4.395374
19.980007 -40.836613 2.969440
19.870062 -41.335732 2.858154
19.910877 -41.830524 2.868755
19.603476 -40.500298 4.336029
19.675690 -40.849060 2.800041
19.563524 -41.354687 2.749752
19.607349 -41.843807 2.630489
19.307322 -40.526066 4.338974
19.354153 -40.956413 3.789318
19.254646 -41.378021 2.703873
19.295401 -41.880020 2.814228
19.010956 -40.565254 4.483879
19.052931 -40.997936 3.984173
18.944950 -41.413578 2.840282
18.987301 -41.898804 2.671150
18.715271 -40.575325 4.322758
18.755875 -41.050552 4.321224
18.745792 -40.889023 2.307720
18.633533 -41.415611 2.470528
18.616659 -41.279572 0.405075
18.675165 -41.906075 2.301090
18.662006 -41.808109 0.413677
18.420532 -40.609093 4.413101
18.460499 -41.078297 4.351875
18.433401 -40.921440 2.378284
18.287405 -41.309242 0.427296
18.332983 -41.836956 0.425930
18.123154 -40.626293 4.326832
18.168365 -41.115597 4.504700
18.075714 -40.790733 0.378506
18.004517 -41.454681 2.248093
17.958038 -41.337807 0.432446
18.130785 -42.127712 5.632923
18.003210 -41.863983 0.401119
17.827168 -40.652054 4.332748
17.869263 -41.128765 4.351143
17.830013 -41.739708 6.305166
17.853033 -42.161419 5.819515
17.674313 -41.893242 0.419125
17.537811 -40.692532 4.500462
17.577002 -41.160828 4.439331
17.556627 -41.771076 6.424053
17.572655 -42.188194 5.868771
17.233471 -40.700527 4.312557
17.303671 -41.220375 4.888580
17.275455 -41.790684 6.355915
17.301647 -42.223248 6.090054
17.003328 -40.827744 5.449802
17.043247 -41.286205 5.429646
16.977348 -41.794685 6.031223
17.040915 -42.263340 6.423290
16.736677 -40.879044 5.753746
16.819807 -41.382736 6.390661
16.702452 -41.824734 6.127541
16.749969 -42.278469 6.230434
16.462358 -40.915150 5.891014
16.530336 -41.395973 6.249245
16.427561 -41.853634 6.206310
16.465488 -42.300030 6.169731
16.215599 -40.977310 6.328400
16.268204 -41.435928 6.468245
16.173750 -41.896122 6.516182
16.193428 -42.329063 6.270819
15.957724 -41.021744 6.569269
16.024429 -41.487289 6.848299
15.901434 -41.923813 6.579613
15.944526 -42.368279 6.602991
15.665257 -41.033558 6.435587
15.738884 -41.503933 6.753878
15.630044 -41.951595 6.645391
15.677669 -42.397194 6.708506
15.422098 -41.085514 6.770035
15.490785 -41.546364 7.018990
15.395516 -41.997517 7.030970
15.389129 -42.417210 6.607771
15.128668 -41.097778 6.641325
15.184685 -41.551533 6.761044
15.123962 -42.022995 7.061453
15.160846 -42.459270 7.025494
14.874851 -41.137814 6.841492
14.899137 -41.571133 6.703974
14.806076 -42.028912 6.737885
14.876719 -42.480816 6.959261
14.629717 -41.181007 7.083193
14.637993 -41.603996 6.837307
14.454674 -42.024776 6.219704
14.555586 -42.492260 6.638287
14.285734 -41.166302 6.626648
14.353046 -41.624710 6.795090
14.281782 -42.089706 6.969576
14.275155 -42.516994 6.636890
14.042389 -41.209679 6.872984
14.167530 -41.689648 7.406288
14.000477 -42.112801 6.950602
13.982067 -42.538872 6.559011
13.791685 -41.247284 7.052326
13.849232 -41.695244 7.141891
13.729992 -42.139744 7.003120
13.775148 -42.581383 7.016275
13.511368 -41.269829 7.047052
13.512446 -41.696308 6.802027
13.418682 -42.154659 6.821898
13.423414 -42.590637 6.598507
13.141058 -41.253632 6.553926
13.231668 -41.720592 6.809347
13.174454 -42.189518 7.026802
13.211496 -42.630257 6.990612
12.894998 -41.293232 6.760101
12.993527 -41.759628 7.044676
12.880322 -42.210537 6.959011
12.917479 -42.652946 6.922726
12.659971 -41.335754 7.007280
12.735682 -41.790989 7.164330
12.600451 -42.235748 6.972305
12.637625 -42.678715 6.935993
12.420641 -41.375050 7.217140
12.451004 -41.813751 7.149321
12.246004 -42.244156 6.636292
12.367842 -42.706352 7.000679
12.013969 -41.354580 6.649488
12.093531 -41.816139 6.805294
11.962700 -42.270077 6.655262
12.096594 -42.733776 7.057943
11.721088 -41.376598 6.631052
11.738429 -41.821754 6.504076
11.663597 -42.293011 6.608635
11.832541 -42.762280 7.146811
11.475727 -41.414177 6.819111
9.765712 -40.873207 -0.391171
11.414240 -41.837574 6.362120
11.291250 -42.302429 6.263611
11.292561 -42.753956 6.070911
9.796865 -42.554668 -0.230957
11.173477 -41.433674 6.766947
9.403044 -40.899879 -0.418941
11.151180 -41.869564 6.485210
9.450953 -41.453735 -0.457546
10.989343 -42.326710 6.232969
9.373216 -42.032600 -0.283169
11.128167 -42.797100 6.603411
9.448554 -42.587318 -0.209469
10.934016 -41.471981 6.968931
9.049119 -40.929741 -0.404675
10.815956 -41.884418 6.320200
9.104505 -41.486282 -0.414337
10.631591 -42.341858 5.992313
9.021065 -42.064354 -0.267887
9.092527 -42.619358 -0.213856
8.692207 -40.959175 -0.396809
10.451873 -41.894188 6.062080
8.758127 -41.519051 -0.368019
10.310259 -42.364414 5.909939
8.663344 -42.095535 -0.268688
8.720375 -42.650017 -0.272919
8.326808 -40.986820 -0.414505
10.145765 -41.917984 6.039062
8.398714 -41.549267 -0.366745
8.294267 -42.125381 -0.304684
9.959813 -42.847301 5.552044
8.349131 -42.681362 -0.318752
7.954923 -41.013443 -0.447964
8.033170 -41.578701 -0.381348
7.937526 -42.157616 -0.289120
9.668000 -42.876545 5.601494
7.998179 -42.715210 -0.284081
9.747795 -41.561829 6.913647
7.595719 -41.043816 -0.429996
7.669405 -41.609009 -0.382915
7.546395 -42.185413 -0.385262
9.775688 -42.942131 7.015797
9.297662 -42.898830 5.384968
7.224482 -41.071808 -0.446903
7.299072 -41.638584 -0.400185
9.493419 -42.523319 7.218481
7.178967 -42.217171 -0.391460
9.620627 -42.981026 7.478456
6.843215 -41.098186 -0.488846
6.927624 -41.668514 -0.413929
9.268910 -42.558044 7.443552
9.374649 -43.011497 7.626530
6.481760 -41.129509 -0.460579
6.558138 -41.699310 -0.414604
8.236237 -42.495815 5.159840
6.432123 -42.280598 -0.421890
8.977515 -43.030560 7.300707
8.579589 -43.000942 6.063461
6.107369 -41.158558 -0.466831
6.169012 -41.727432 -0.468678
7.933267 -42.525448 5.205433
6.058592 -42.313030 -0.426979
7.970475 -43.008499 5.157326
6.125221 -42.880066 -0.413620
5.802815 -41.201828 -0.261684
5.826183 -41.763374 -0.377018
5.684063 -42.345810 -0.428467
8.412644 -43.087490 7.391668
5.315961 -41.210247 -0.581573
5.434651 -41.792244 -0.423763
7.802218 -42.633862 6.652979
5.295288 -42.377583 -0.464058
7.907011 -43.102688 6.804186
4.951197 -41.242901 -0.539097
5.027862 -41.819656 -0.504211
4.904933 -42.409775 -0.495781
7.634481 -43.133095 6.900431
4.554987 -41.270401 -0.577446
4.639421 -41.850368 -0.524261
6.889011 -42.661411 5.865360
4.516516 -42.442707 -0.514259
7.296863 -43.160137 6.820910
4.178378 -41.301899 -0.555843
4.256693 -41.882385 -0.521782
4.148146 -42.477909 -0.472855
4.225105 -43.054466 -0.442219
3.793839 -41.332550 -0.549213
3.865730 -41.913876 -0.534187
3.739332 -42.510067 -0.530338
3.846246 -43.090641 -0.425587
3.415763 -41.364716 -0.520287
3.466084 -41.944885 -0.561268
3.361986 -42.545353 -0.500134
3.436886 -43.125916 -0.479527
3.018132 -41.394367 -0.533886
3.068649 -41.976753 -0.575062
2.980245 -42.580673 -0.475517
3.074818 -43.163563 -0.408981
2.599783 -41.421646 -0.589500
2.708437 -42.013218 -0.492706
2.562803 -42.613853 -0.530052
5.343939 -43.293884 5.923786
2.646965 -43.199142 -0.491734
2.187202 -41.450523 -0.622433
2.289404 -42.043770 -0.544735
2.167053 -42.649132 -0.525177
2.275839 -43.237183 -0.432178
1.756735 -41.477711 -0.687653
1.856222 -42.073624 -0.619831
1.729721 -42.682236 -0.607731
1.948929 -43.276787 -0.268433
1.344458 -41.508080 -0.702812
1.432817 -42.105206 -0.662968
1.310358 -42.717144 -0.640060
1.705910 -43.318619 0.080387
0.943228 -41.540451 -0.686535
1.032476 -42.139572 -0.647198
0.922817 -42.754433 -0.595448
1.023272 -43.349682 -0.531738
0.498318 -41.568104 -0.756500
0.609848 -42.172462 -0.672592
0.504770 -42.790455 -0.610245
0.585039 -43.387779 -0.592335
0.094334 -41.601334 -0.731743
0.337189 -42.218498 -0.378403
0.076420 -42.826492 -0.638668
0.179239 -43.427067 -0.576168
-0.319420 -41.633961 -0.720795
-0.227385 -42.240726 -0.683159
-0.327131 -42.864273 -0.608803
-0.245335 -43.466469 -0.591713
-0.765877 -41.663631 -0.768005
-0.672867 -42.273640 -0.731007
-0.727034 -42.902634 -0.565914
-0.671555 -43.506340 -0.602776
-1.191671 -41.696213 -0.765999
-1.061195 -42.311436 -0.658463
-1.201124 -42.938309 -0.661053
2.383244 -43.585693 6.145672
-1.058134 -43.547146 -0.529327
-1.642157 -41.726929 -0.803699
-1.547262 -42.342724 -0.767933
-1.486755 -42.982044 -0.388428
2.142797 -43.620430 6.360985
-2.080576 -41.759544 -0.810120
-1.795856 -42.390747 -0.422607
-1.973333 -43.018299 -0.492104
1.573349 -43.652828 5.961559
-2.535049 -41.791317 -0.838116
-2.371077 -42.417446 -0.680874
0.981789 -43.170528 5.662666
-2.516283 -43.053471 -0.686531
1.611706 -43.689377 6.691721
-2.952461 -41.827099 -0.791424
-2.752434 -42.457294 -0.574257
0.979010 -43.214836 6.315840
-2.971022 -43.092426 -0.708824
1.118858 -43.723274 6.450420
-3.301186 -41.869209 -0.619007
-3.247368 -42.490818 -0.663662
0.498554 -43.244171 6.116680
-3.348103 -43.134197 -0.587345
0.933258 -43.758316 6.762264
-3.698889 -41.907280 -0.529743
-3.624830 -42.531658 -0.539986
-3.613560 -43.179111 -0.272385
0.761820 -43.793056 7.092236
-0.059460 -43.794056 5.684250
-4.117125 -41.944035 -0.470829
-3.996677 -42.572990 -0.404060
-4.146887 -43.217304 -0.410744
0.134575 -43.828888 6.649368
-4.453026 -41.987495 -0.270893
-4.331600 -42.616325 -0.204708
-4.403440 -43.262440 -0.081497
0.053402 -43.863403 7.129881
-4.511635 -43.885757 -0.393414
-4.829235 -42.027931 -0.135990
-4.753992 -42.655518 -0.147057
-4.898617 -43.302574 -0.141472
-0.831108 -43.902657 6.299828
-4.877172 -43.929619 -0.239643
-5.231491 -42.066700 -0.039680
-5.129190 -42.697239 -0.008781
-5.225410 -43.346378 0.074677
-0.621685 -43.934914 7.242126
-5.103067 -43.972492 0.137493
-5.563534 -42.110546 0.169994
-5.460564 -42.740997 0.200474
-5.577324 -43.389797 0.251633
-5.502661 -44.016830 0.238110
-6.047159 -42.144455 0.148571
-5.943222 -42.778698 0.178291
-6.059803 -43.431557 0.231319
-5.962572 -44.062183 0.250828
-6.482986 -42.182079 0.207489
-6.400351 -42.818039 0.203259
-6.522173 -43.474167 0.249790
-6.424059 -44.108047 0.268723
-6.998377 -42.215397 0.155468
-6.864494 -42.857674 0.225060
-5.131197 -43.535454 2.990688
-4.991472 -44.126266 3.077995
-5.500051 -42.365440 3.016769
-5.419781 -42.961353 3.015453
-5.533081 -43.576202 3.060894
-5.409094 -44.169502 3.122623
-5.966877 -42.398273 3.000313
-5.839886 -42.999454 3.063805
-5.947083 -43.617252 3.119137
-5.827707 -44.213165 3.171898
-6.365730 -42.435390 3.086681
-6.260944 -43.037983 3.116833
-6.373579 -43.658653 3.165741
-6.270611 -44.257702 3.193371
-6.788559 -42.471657 3.145103
-4.907650 -43.125050 5.604824
-6.677013 -43.077095 3.182625
-4.971512 -43.705509 5.707256
-4.877579 -44.264637 5.728851
-5.358904 -42.597874 5.691616
-5.255726 -43.162834 5.724014
-5.324568 -43.744831 5.819588
-5.229935 -44.305546 5.840675
-5.755812 -42.632229 5.751347
-5.657829 -43.199596 5.775070
-5.731979 -43.784443 5.864040
-5.600254 -44.347141 5.932316
-6.110659 -42.668861 5.870895
-6.011982 -43.237812 5.894047
-6.079124 -43.824352 5.992176
-5.976885 -44.389202 6.020081
-6.465252 -42.705750 5.994171
-6.359713 -43.276405 6.024609
-6.456850 -43.864609 6.084690
-6.335251 -44.431107 6.135563
-6.894600 -42.739891 6.027599
-6.756962 -43.314342 6.096317
-6.803499 -43.905029 6.220356
-6.705961 -44.473625 6.239275
-7.243065 -42.777637 6.166767
-7.135904 -43.352966 6.195797
-7.206661 -43.946056 6.289989
-7.108335 -44.517353 6.308308
-7.622967 -42.814453 6.271128
-7.489508 -43.392281 6.330276
-7.565722 -43.987122 6.418043
-7.466703 -44.560143 6.435816
-8.002989 -42.851593 6.379702
-7.894257 -43.431183 6.407343
-7.963285 -44.028816 6.504185
-7.837692 -44.603596 6.551908
-8.409174 -42.888206 6.462172
-8.299622 -43.470482 6.489063
-8.341721 -44.070671 6.617596
-8.241211 -44.648396 6.634192
-8.815914 -42.925209 6.549322
-8.679247 -43.510418 6.605593
-8.746561 -44.113163 6.705162
-8.625528 -44.692928 6.743711
-9.196558 -42.963367 6.671028
-9.085426 -43.550457 6.696455
-9.151899 -44.156044 6.797422
-9.023252 -44.738247 6.842636
-9.630869 -43.000381 6.737730
-9.498774 -43.590839 6.784601
-9.530777 -44.198906 6.923983
-9.401159 -44.783211 6.968370
-9.984737 -43.039917 6.897808
-9.844967 -43.631954 6.951183
-9.963854 -44.242958 6.996067
-9.833164 -44.830475 7.039551
-10.392694 -43.078381 7.003359
-10.306538 -43.672878 6.997324
-10.342957 -44.286499 7.131611
-10.238668 -44.877159 7.145094
-10.828583 -43.116611 7.084755
-10.686678 -43.714497 7.136059
-10.777174 -44.331379 7.213654
-10.672073 -44.925293 7.226460
-11.237345 -43.155865 7.200069
-11.150080 -43.756367 7.192902
-11.212130 -44.376709 7.300940
-11.078365 -44.972759 7.341738
-11.674437 -43.194954 7.291727
-11.530430 -43.798683 7.340939
-11.619608 -44.421886 7.421890
-11.491871 -45.020882 7.454685
-12.112164 -43.234489 7.388672
-11.967100 -43.841419 7.436796
-12.055614 -44.468063 7.519476
-11.891462 -45.068790 7.586634
-12.514700 -43.275028 7.525852
-12.375780 -43.884495 7.565947
-12.492189 -44.514679 7.622360
-12.326757 -45.118584 7.688316
-12.989298 -43.314873 7.598480
-12.842136 -43.928207 7.644424
-12.929268 -44.561733 7.730562
-12.791395 -45.170082 7.767622
-13.428587 -43.355713 7.711380
-13.280386 -43.972252 7.756224
-13.315821 -44.607891 7.892056
-13.198824 -45.219463 7.907639
-13.890276 -43.396732 7.809240
-13.806921 -44.017387 7.791651
-14.039587 -44.663483 7.745752
-13.921228 -45.283707 7.760212
-14.596590 -43.435799 7.690615
-14.482843 -44.064476 7.699055
-14.738649 -44.719418 7.636703
-14.589441 -45.346355 7.677004
-15.307371 -43.475979 7.582006
-15.155329 -44.112534 7.622639
-15.456923 -44.776890 7.524252
-16.765043 -45.482105 6.256140
-17.524035 -43.506378 6.162388
-17.398520 -44.179218 6.172714
-17.697424 -44.881519 6.089947
-17.542406 -45.553143 6.125679
-18.277483 -43.550587 6.067459
-18.188562 -44.232552 6.043713
-18.496416 -44.945107 5.959072
-18.369982 -45.627678 5.967186
-19.134329 -43.595497 5.899082
-19.006342 -44.287449 5.906628
-19.368998 -45.012188 5.781567
-19.225779 -45.704720 5.801338
-21.117666 -43.638092 4.807644
-19.875208 -44.344337 5.742867
-20.064157 -45.781979 5.667244
-21.529787 -43.688160 5.054596
-20.765127 -44.402885 5.579132
-21.378988 -45.159191 5.262558
-21.432871 -45.888123 5.114372
-21.886080 -43.738506 5.350143
-21.614054 -44.462090 5.466194
-21.584536 -45.206581 5.676956
-22.214983 -45.964966 5.065845
-21.824675 -43.788761 5.978344
-21.755247 -44.509674 5.931408
-21.942835 -45.259407 5.968613
-21.841692 -45.980141 5.946514
-22.134378 -43.838715 6.308401
-22.001780 -44.558960 6.310549
-22.054220 -45.303188 6.453957
-22.000402 -46.023563 6.394909
-23.064955 -46.082157 5.566780
-22.473181 -43.888748 6.617168
-22.276525 -44.608723 6.667252
-22.255674 -45.350136 6.866173
-23.529669 -43.941734 6.389444
-22.636019 -44.660278 6.960234
-22.549093 -45.400589 7.207678
-23.717966 -46.189484 6.231434
-23.208246 -43.989326 7.197790
-22.784426 -44.707253 7.411612
-23.314913 -45.470123 7.202858
-23.402689 -44.038734 7.617243
-23.381285 -44.764488 7.534430
-23.864988 -45.531731 7.366951
-23.723459 -44.088840 7.945131
-23.930231 -44.821201 7.700157
-35.646156 -46.066261 -0.415184
-29.392176 -46.629494 3.903309
-30.571287 -44.194893 3.724087
-36.494690 -46.151909 -0.298195
-29.424040 -46.670025 4.508564
-36.526581 -47.095890 -0.445366
-30.596045 -44.249397 4.341301
-29.416101 -46.707821 5.134380
18.715673 -43.782139 38.116219
18.724737 -43.784863 38.120823
18.651890 -43.785954 38.087242
18.714041 -43.785904 38.119671
18.730803 -43.784863 38.130718
18.676176 -43.785015 38.105564
18.658762 -43.790176 38.096264
18.684416 -43.788502 38.111923
18.674042 -43.785519 38.109932
18.692369 -43.788086 38.118397
18.709101 -43.783657 38.129230
18.727449 -43.785652 38.137577
18.671984 -43.786018 38.114334
18.654272 -43.791252 38.105659
18.689177 -43.785175 38.124786
18.680449 -43.789467 38.120415
18.679136 -43.785961 38.122814
18.697739 -43.788319 38.130653
18.687729 -43.789238 38.128681