# This PCD file was generated using the MATLAB® pcwrite function
# from Computer Vision System Toolbox®.
# .PCD v.7 - Point Cloud Data file format
VERSION .7
FIELDS x y z
SIZE 4 4 4
TYPE F F F
COUNT 1 1 1
WIDTH 749
HEIGHT 1
VIEWPOINT 0 0 0 1 0 0 0
POINTS 749
DATA ascii
-30.413116 -17.156672 -0.323698
-29.871292 -16.841848 -0.325134
-28.946270 -17.015707 -0.260572
-29.358795 -16.543627 -0.343037
-28.406322 -16.694658 -0.237148
-28.814568 -16.228130 -0.320818
-27.961479 -16.428837 -0.295244
-28.366421 -15.966175 -0.380074
-27.471916 -16.137417 -0.300789
-27.892967 -15.690473 -0.406343
-26.977825 -15.843641 -0.291950
-27.421207 -15.415989 -0.425194
-26.537666 -15.581223 -0.328424
-26.977371 -15.157211 -0.463259
-26.047607 -15.290265 -0.304367
-26.457111 -14.856527 -0.413952
-25.617207 -15.033933 -0.333527
-26.049053 -14.618026 -0.471529
-25.226219 -14.800514 -0.397144
-25.603748 -14.359241 -0.481949
-24.792316 -14.542588 -0.406601
-25.141193 -14.091236 -0.464821
-24.360153 -14.285879 -0.409393
-24.705929 -13.838520 -0.468388
-23.954449 -14.044602 -0.433687
-24.272465 -13.587058 -0.465321
-23.525757 -13.790316 -0.423513
-23.871777 -13.353842 -0.491117
-23.147461 -13.565189 -0.464027
-23.435726 -13.101480 -0.468050
-22.746300 -13.327123 -0.470140
-23.038231 -12.870501 -0.481630
-22.346775 -13.090193 -0.470263
-22.660328 -12.650473 -0.511152
-21.972530 -12.867956 -0.493767
-22.253853 -12.415051 -0.498528
-21.599602 -12.646655 -0.511822
-21.855148 -12.184126 -0.487249
-21.181763 -12.399818 -0.464834
-21.458263 -11.954437 -0.470081
-20.840729 -12.197147 -0.509172
-21.086449 -11.738651 -0.477095
-20.472244 -11.978939 -0.510891
-20.744843 -11.539515 -0.516584
-20.082829 -11.748945 -0.476789
-20.353008 -11.313283 -0.482716
-19.806652 -11.583831 -0.590565
-20.025158 -11.122022 -0.527567
-19.398216 -11.343333 -0.515182
-19.659126 -10.910244 -0.513802
-19.057724 -11.141808 -0.527193
-19.300301 -10.702594 -0.502596
-18.675415 -10.916607 -0.471674
-18.915810 -10.481293 -0.447088
-19.047634 -9.981274 -0.513090
-19.246536 -9.526827 -0.430414
-18.380611 -10.741447 -0.536966
-18.641544 -10.319768 -0.543940
-18.696140 -9.782239 -0.497614
-18.948841 -9.357804 -0.493757
-18.044075 -10.542664 -0.534790
-18.281807 -10.112264 -0.510164
-18.383919 -9.603477 -0.533049
-18.624344 -9.176069 -0.513435
-17.729786 -10.356698 -0.559963
-17.960907 -9.925913 -0.527313
-18.067211 -9.422628 -0.556324
-18.311699 -9.000260 -0.544807
-17.390732 -10.156796 -0.540625
-17.609787 -9.723495 -0.491804
-17.709435 -9.221151 -0.510773
-17.951988 -8.802176 -0.499428
-17.083824 -9.975325 -0.565222
-17.317280 -9.552781 -0.540550
-17.395245 -9.042040 -0.525232
-17.636410 -8.625484 -0.514015
-16.752716 -9.780254 -0.544947
-16.979465 -9.357919 -0.512110
-17.061588 -8.853309 -0.502815
-17.280270 -8.429767 -0.459059
-16.443058 -9.597515 -0.552961
-16.673576 -9.180373 -0.528257
-16.770142 -8.686109 -0.541683
-16.987953 -8.264647 -0.497835
-16.110012 -9.401664 -0.515547
-16.363731 -9.000885 -0.532122
-16.439247 -8.499251 -0.510616
-16.681053 -8.092838 -0.508078
-15.807824 -9.223456 -0.523394
-16.059975 -8.824830 -0.540195
-16.134808 -8.325930 -0.516697
-16.350128 -7.909967 -0.472733
-15.521064 -9.054123 -0.552330
-15.767011 -8.654705 -0.560995
-15.846143 -8.160714 -0.543936
-16.060596 -7.746833 -0.499886
-15.235058 -8.885345 -0.577600
-15.460562 -8.477566 -0.552822
-15.519641 -7.976799 -0.500143
-15.766940 -7.581976 -0.514965
-14.931222 -8.706618 -0.565420
-15.155402 -8.301299 -0.540627
-15.271157 -7.831991 -0.587446
-15.503203 -7.431269 -0.577087
-14.628715 -8.528786 -0.549240
-14.870218 -8.135818 -0.558407
-14.923818 -7.638206 -0.493088
-15.196762 -7.260888 -0.559477
-14.345680 -8.362086 -0.563253
-14.567500 -7.961211 -0.538420
-14.643902 -7.478146 -0.513773
-14.872887 -7.082743 -0.503691
-14.050147 -8.188468 -0.547920
-14.270718 -7.789937 -0.523069
-14.360195 -7.316394 -0.522369
-14.606617 -6.931457 -0.546789
-13.755923 -8.015729 -0.528757
-14.002059 -7.633684 -0.555668
-14.054899 -7.144215 -0.484171
-14.304172 -6.763756 -0.517546
-13.484713 -7.856082 -0.549164
-13.729563 -7.475548 -0.576309
-13.795633 -6.994880 -0.528919
-14.021255 -6.605267 -0.519163
-13.222768 -7.701766 -0.583660
-13.457794 -7.317939 -0.593601
-13.549848 -6.852267 -0.596788
-13.757121 -6.455541 -0.552181
-12.961318 -7.547840 -0.614996
-13.182511 -7.158637 -0.598803
-13.248020 -6.682439 -0.547750
-13.458470 -6.290384 -0.511881
-12.687984 -7.387353 -0.616776
-12.903938 -6.997773 -0.591801
-12.956409 -6.517853 -0.512461
-13.178663 -6.134027 -0.503027
-12.407456 -7.222959 -0.597486
-12.638873 -6.844131 -0.607859
-12.712243 -6.376482 -0.570917
-12.933925 -5.993613 -0.561543
-12.132177 -7.061638 -0.583559
-12.366372 -6.686760 -0.602955
-12.435258 -6.219389 -0.555403
-12.639097 -5.831006 -0.510569
-11.873795 -6.909903 -0.601910
-12.090873 -6.527998 -0.585789
-12.159432 -6.063074 -0.536482
-12.395314 -5.691341 -0.563051
-11.619922 -6.760799 -0.626143
-11.832312 -6.378194 -0.601072
-11.916610 -5.922771 -0.585989
-12.119287 -5.537590 -0.541010
-11.347563 -6.601482 -0.602379
-11.574416 -6.228875 -0.613287
-11.642656 -5.767743 -0.560631
-11.860389 -5.391612 -0.551638
-11.091379 -6.451317 -0.611414
-11.317213 -6.080054 -0.622450
-11.400679 -5.628119 -0.604340
-11.602197 -5.246141 -0.559229
-10.835915 -6.301667 -0.617418
-11.045781 -5.924056 -0.592279
-11.128709 -5.474441 -0.572613
-11.329373 -5.094551 -0.527462
-10.581197 -6.152545 -0.620403
-10.804993 -5.783968 -0.631681
-10.887680 -5.335551 -0.610579
-11.088041 -4.956779 -0.565346
-10.327251 -6.003966 -0.620386
-10.535625 -5.629364 -0.595203
-10.617805 -5.183283 -0.572563
-10.846947 -4.819232 -0.600525
-10.087952 -5.863633 -0.654118
-10.309986 -5.497259 -0.665623
-10.377824 -5.045185 -0.604841
-10.595206 -4.677310 -0.605440
-9.821784 -5.708495 -0.611416
-10.028667 -5.336906 -0.586187
-10.110150 -4.894387 -0.560616
-10.337033 -4.532889 -0.589016
-9.583604 -5.568993 -0.639496
-9.790025 -5.198426 -0.614239
-9.871317 -4.757134 -0.587263
-10.097344 -4.396427 -0.615858
-9.335984 -5.424364 -0.637056
-9.538408 -5.053505 -0.602501
-9.622743 -4.615549 -0.583368
-9.847704 -4.255995 -0.612169
-9.098675 -5.285541 -0.659710
-9.300706 -4.915747 -0.625092
-9.394669 -4.483475 -0.632580
-9.592124 -4.113353 -0.586998
-8.836823 -5.133282 -0.604940
-9.063369 -4.778286 -0.645037
-9.144027 -4.341279 -0.613848
-9.367199 -3.983423 -0.643024
-8.609955 -5.000422 -0.650190
-8.817081 -4.636472 -0.634218
-8.881758 -4.194078 -0.554689
-9.106734 -3.839273 -0.593472
-8.377130 -4.864367 -0.674181
-8.577710 -4.498255 -0.639402
-8.673339 -4.071181 -0.652506
-8.869694 -3.704780 -0.606756
-8.130087 -4.720604 -0.648432
-8.341883 -4.361926 -0.651344
-8.422011 -3.929262 -0.616011
-8.630023 -3.569421 -0.607990
-7.895386 -4.583722 -0.657709
-8.106509 -4.225945 -0.660686
-8.186531 -3.794552 -0.624002
-8.408976 -3.441495 -0.663372
-7.647367 -4.439657 -0.616926
-7.863125 -4.086158 -0.638958
-7.951537 -3.660208 -0.629402
-8.158386 -3.302272 -0.621498
-7.427430 -4.311047 -0.668493
-7.637209 -3.955069 -0.671591
-7.719841 -3.527443 -0.641756
-7.937616 -3.174669 -0.671988
-7.194219 -4.175276 -0.670027
-7.395267 -3.816289 -0.644550
-7.485811 -3.393822 -0.642046
-7.691566 -3.037670 -0.634253
-6.961546 -4.039901 -0.668999
-7.172592 -3.686986 -0.681782
-7.262919 -3.265078 -0.678095
-7.468367 -2.909394 -0.670338
-6.729433 -3.904931 -0.665424
-6.949899 -3.557751 -0.716667
-7.027146 -3.131022 -0.663788
-7.231943 -2.776412 -0.656092
-6.497901 -3.770379 -0.659317
-6.697581 -3.414472 -0.633785
-6.797114 -2.999545 -0.666155
-7.011681 -2.649418 -0.696991
-6.264645 -3.635001 -0.641039
-6.475780 -3.285914 -0.663706
-6.572406 -2.870401 -0.685343
-6.778811 -2.518079 -0.687382
-6.063708 -3.517128 -0.755545
-6.272609 -3.166194 -0.768616
-6.343181 -2.739548 -0.682821
-6.544148 -2.386358 -0.665598
-5.824445 -3.378706 -0.703413
-6.030070 -3.028063 -0.706879
-6.112177 -2.608161 -0.668146
-6.324397 -2.259894 -0.699398
-5.594859 -3.245597 -0.687456
-5.791100 -2.891827 -0.652142
-5.879637 -2.476377 -0.641275
-6.084073 -2.126783 -0.643547
-5.374092 -3.117302 -0.707943
-5.580753 -2.768940 -0.721231
-5.660757 -2.350089 -0.670301
-5.862674 -2.000096 -0.662889
-5.153440 -2.989150 -0.726124
-5.349480 -2.636554 -0.690729
-5.429474 -2.219189 -0.638536
-5.641400 -1.873557 -0.679928
-4.925372 -2.857153 -0.702927
-5.122989 -2.506508 -0.677271
-5.216979 -2.095501 -0.692242
-5.420269 -1.747176 -0.694670
-4.703485 -2.728532 -0.706648
-4.910277 -2.382730 -0.729902
-4.990642 -1.966786 -0.675270
-5.191358 -1.618677 -0.667976
-4.485396 -2.601997 -0.727655
-4.682667 -2.252442 -0.701960
-4.768611 -1.839808 -0.675518
-4.968949 -1.492285 -0.668266
-4.264014 -2.473819 -0.726765
-4.469720 -2.128678 -0.750158
-4.550462 -1.714319 -0.693106
-4.750560 -1.367141 -0.685877
-4.033438 -2.340956 -0.664539
-4.234789 -1.995580 -0.668339
-4.328991 -1.587815 -0.688766
-4.530474 -1.241666 -0.691412
-3.820814 -2.217527 -0.708208
-4.022050 -1.872084 -0.712034
-4.104664 -1.460564 -0.662426
-4.302179 -1.114403 -0.645433
-3.596294 -2.088039 -0.670794
-3.796856 -1.743496 -0.674658
-3.877944 -1.332837 -0.613997
-4.084561 -0.989928 -0.656223
-3.383576 -1.964703 -0.710058
-3.579708 -1.618362 -0.684305
-3.665470 -1.209679 -0.652113
-3.865524 -0.865282 -0.654915
-3.164069 -1.837982 -0.697704
-3.366778 -1.494976 -0.721405
-3.447103 -1.084850 -0.648512
-3.652631 -0.741954 -0.690908
-2.946226 -1.712202 -0.692986
-3.147101 -1.369036 -0.706833
-3.235643 -0.962008 -0.692200
-3.433883 -0.617623 -0.685152
-2.733270 -1.588948 -0.725700
-2.935167 -1.246118 -0.749493
-3.017525 -0.837469 -0.684177
-3.215456 -0.493549 -0.677158
-2.515767 -1.463511 -0.716551
-2.715981 -1.120607 -0.730463
-2.798575 -0.712938 -0.663994
-2.996126 -0.369604 -0.657011
-2.299605 -1.338828 -0.715113
-2.498354 -0.995816 -0.719120
-2.586703 -0.590075 -0.701191
-2.783125 -0.246505 -0.684275
-2.086412 -1.215654 -0.741314
-2.282079 -0.871624 -0.715496
-2.369350 -0.466196 -0.686531
-2.570984 -0.123399 -0.719332
-1.866249 -1.089270 -0.685711
-2.060554 -0.745997 -0.649946
-2.152385 -0.342613 -0.669651
-2.352394 -0.000097 -0.692566
-1.656306 -0.967746 -0.747406
-1.851912 -0.624326 -0.721577
-1.939307 -0.219686 -0.690414
-2.136238 0.122878 -0.683485
-1.442107 -0.844301 -0.757158
-1.638515 -0.501251 -0.741287
-1.726048 -0.096726 -0.709030
-1.919491 0.245548 -0.662256
-1.226651 -0.720387 -0.744789
-1.422197 -0.377576 -0.718950
-1.509750 0.026257 -0.685602
-1.709490 0.368858 -0.718575
-1.013120 -0.597378 -0.760185
-1.208775 -0.254630 -0.734337
-1.296482 0.149078 -0.699902
-1.495886 0.491873 -0.732897
-0.793847 -0.472234 -0.653582
-0.990923 -0.131227 -0.667692
-1.080812 0.271556 -0.672119
-1.277053 0.613229 -0.665249
-0.584090 -0.350809 -0.744562
-0.779225 -0.008659 -0.708719
-0.869570 0.394721 -0.722055
-1.066055 0.736899 -0.715164
-0.370175 -0.227886 -0.743498
-0.567352 0.114190 -0.757612
-0.654291 0.516831 -0.689953
-0.850464 0.858544 -0.683084
-0.156802 -0.105164 -0.760273
-0.352617 0.236847 -0.734409
-0.440899 0.639437 -0.695648
-0.638681 0.982522 -0.728725
0.056961 0.017620 -0.764902
-0.139899 0.360039 -0.779026
-0.228504 0.763051 -0.739172
-0.423547 1.103761 -0.692331
0.271580 0.140004 -0.677385
0.075539 0.481444 -0.691530
-0.014694 0.885754 -0.740576
-0.211043 1.228010 -0.733685
0.484645 0.263063 -0.767710
0.288171 0.605703 -0.781837
0.199605 1.007015 -0.699856
0.003568 1.348806 -0.692991
0.698532 0.385703 -0.765890
0.502258 0.728206 -0.770018
0.413009 1.130994 -0.736935
0.216728 1.473288 -0.730042
0.912428 0.508277 -0.761919
0.716341 0.851139 -0.776039
0.626832 1.253078 -0.721897
0.430623 1.595826 -0.724995
1.126318 0.630775 -0.755796
0.929845 0.972409 -0.729937
0.841167 1.377860 -0.764641
0.644677 1.720677 -0.757725
1.339025 0.752161 -0.707552
1.142720 1.093247 -0.681707
1.055284 1.500381 -0.755281
0.858827 1.843217 -0.748365
1.555471 0.876709 -0.777058
1.358500 1.218701 -0.751200
1.269352 1.622803 -0.743774
1.072734 1.964973 -0.726879
1.769542 0.999097 -0.764471
1.573578 1.342421 -0.768566
1.483356 1.745116 -0.730112
1.286967 2.087991 -0.723190
1.985608 1.122919 -0.789648
1.788142 1.465271 -0.763798
1.700604 1.872516 -0.794064
1.501962 2.212521 -0.737270
2.202190 1.246964 -0.812630
2.004337 1.589738 -0.786777
1.915034 1.994929 -0.776054
1.718157 2.338811 -0.769079
2.416600 1.369329 -0.793541
2.218637 1.712041 -0.767698
2.128784 2.116470 -0.745935
1.932011 2.460250 -0.738962
2.633117 1.493102 -0.802174
2.434837 1.836115 -0.776339
2.342896 2.238558 -0.723629
2.146156 2.582357 -0.716654
2.847494 1.615304 -0.778757
2.649854 1.958935 -0.762882
2.559732 2.363781 -0.738935
2.362747 2.708083 -0.731932
3.061715 1.737347 -0.753189
2.864041 2.080959 -0.737316
2.777802 2.490050 -0.761948
2.576885 2.830042 -0.705288
3.280613 1.862444 -0.775129
3.080760 2.205111 -0.739391
2.992104 2.612029 -0.733107
2.794839 2.956974 -0.726068
3.494853 1.984352 -0.745209
3.299693 2.330959 -0.759096
3.213760 2.741437 -0.781399
3.015970 3.087367 -0.774303
3.708889 2.106072 -0.713142
3.513921 2.452788 -0.726999
3.428256 2.863382 -0.748171
3.234297 3.213791 -0.780638
3.932265 2.233780 -0.758116
3.736935 2.581575 -0.771921
3.646899 2.989271 -0.752331
3.452994 3.340354 -0.784721
4.156606 2.361962 -0.800737
3.959713 2.709899 -0.804613
3.870572 3.119607 -0.793732
3.672047 3.467045 -0.786549
4.375167 2.486318 -0.791636
4.185840 2.840562 -0.854702
4.085232 3.241426 -0.753889
3.891436 3.593853 -0.786112
4.593907 2.610701 -0.780298
4.400885 2.962564 -0.813686
4.304887 3.367671 -0.751272
4.111145 3.720770 -0.783405
4.817293 2.737932 -0.796249
4.621345 3.088587 -0.809874
4.530418 3.498841 -0.785702
4.325860 3.842474 -0.739136
5.038132 2.863454 -0.790213
4.836098 3.210275 -0.764486
4.756832 3.630436 -0.817719
4.557044 3.980365 -0.810394
5.265822 2.993169 -0.821131
5.067852 3.344347 -0.824839
4.965597 3.746952 -0.729773
4.764647 4.095004 -0.712671
5.494365 3.123293 -0.849625
5.291012 3.471934 -0.823917
5.192825 3.878860 -0.757149
4.992822 4.229309 -0.749783
5.714780 3.248255 -0.826807
5.512836 3.598432 -0.810888
5.414112 4.005660 -0.743048
5.220349 4.362594 -0.774662
5.939002 3.375491 -0.821236
5.740275 3.728807 -0.824823
5.649736 4.143842 -0.804567
5.441900 4.490108 -0.758152
6.161633 3.501655 -0.803577
5.962746 3.855522 -0.807127
5.864668 4.265222 -0.746820
5.663645 4.617658 -0.739334
6.390495 3.631561 -0.812757
6.185403 3.982266 -0.787119
6.094489 4.398296 -0.764519
5.892941 4.751717 -0.756977
6.622055 3.763014 -0.829193
6.424383 4.120232 -0.842339
6.333007 4.537887 -0.818443
6.130652 4.892775 -0.810820
6.847865 3.890846 -0.814110
6.647944 4.247335 -0.817518
6.556358 4.665473 -0.792440
6.353755 5.020862 -0.784784
7.080660 4.022843 -0.825603
6.880301 4.380368 -0.828960
6.788363 4.799552 -0.802635
6.574914 5.147196 -0.746786
7.314152 4.155157 -0.834578
7.104397 4.507619 -0.799377
7.010023 4.925611 -0.762257
6.806715 5.282362 -0.754515
7.548321 4.287774 -0.841019
7.340150 4.642674 -0.815460
7.245300 5.061800 -0.777096
7.041393 5.419655 -0.769291
7.773327 4.414743 -0.806595
7.571934 4.774889 -0.809799
7.469604 5.189617 -0.741533
7.274581 5.555449 -0.771914
8.005970 4.546243 -0.798485
7.796833 4.902361 -0.772972
7.713359 5.331694 -0.779898
7.517819 5.699155 -0.810093
8.254686 4.687332 -0.845026
8.044548 5.044970 -0.819527
7.948310 5.467041 -0.777447
7.742817 5.827845 -0.769468
8.469976 4.808184 -0.765211
8.259737 5.165764 -0.739746
8.181273 5.600766 -0.762932
7.975322 5.962433 -0.754902
8.714879 4.946760 -0.787449
8.506454 5.307387 -0.771473
8.419943 5.738470 -0.764788
8.213392 6.101240 -0.756693
8.955133 5.082432 -0.788033
8.754303 5.449565 -0.800377
8.664727 5.880381 -0.782829
8.470659 6.254855 -0.821751
9.190286 5.214946 -0.767115
8.991978 5.584883 -0.788782
8.902105 6.016772 -0.769896
8.697000 6.383980 -0.771055
9.440607 5.356430 -0.790571
9.238837 5.726078 -0.802721
9.139981 6.153361 -0.754332
8.942780 6.528047 -0.783480
9.679861 5.491190 -0.773727
9.477725 5.861913 -0.785780
9.390051 6.298422 -0.773466
9.180889 6.665964 -0.765095
9.931993 5.633525 -0.791538
9.732249 6.007778 -0.812807
9.629147 6.435530 -0.752491
9.434102 6.815211 -0.790543
10.172443 5.768790 -0.769270
9.972403 6.144157 -0.790407
9.896311 6.592152 -0.812288
9.685454 6.962742 -0.803745
10.403581 5.898427 -0.716551
10.209802 6.278642 -0.756079
10.136885 6.729922 -0.785685
9.937782 7.110735 -0.814009
10.697676 6.065339 -0.836678
10.476672 6.431982 -0.802164
10.387480 6.874511 -0.784006
10.175350 7.247425 -0.775326
10.940236 6.201534 -0.805943
10.745042 6.586074 -0.845020
10.642141 7.021721 -0.788595
10.429198 7.396099 -0.779833
11.193514 6.343977 -0.799978
10.974253 6.714907 -0.774744
10.887650 7.162429 -0.762796
10.683949 7.545190 -0.781353
11.454588 6.490919 -0.809341
11.244703 6.869989 -0.811487
11.154140 7.317380 -0.788803
10.956326 7.707015 -0.825336
11.709476 6.634088 -0.797443
11.505994 7.019044 -0.817678
11.428878 7.477717 -0.829697
11.209723 7.854580 -0.811592
11.972385 6.781879 -0.800694
11.764666 7.166272 -0.811718
11.669535 7.614583 -0.776930
11.453335 7.994811 -0.767830
12.247438 6.936708 -0.827864
12.020482 7.311542 -0.793701
11.942950 7.773569 -0.802374
11.739888 8.166065 -0.829094
12.501019 7.078766 -0.797823
12.295605 7.468877 -0.817566
12.202898 7.923203 -0.788645
11.984788 8.306835 -0.779354
12.782167 7.236930 -0.827412
12.556828 7.617259 -0.802305
12.478648 8.083307 -0.807470
12.244661 8.458255 -0.762455
13.029288 7.374969 -0.773445
12.818782 7.765958 -0.783953
12.744159 8.236297 -0.796268
12.535353 8.631538 -0.813374
13.308609 7.531811 -0.787542
13.101115 7.927314 -0.806761
13.018291 8.394875 -0.799526
12.797170 8.783855 -0.789936
13.556566 7.670134 -0.727665
13.344766 8.064235 -0.737904
13.297456 8.556599 -0.808193
13.075237 8.947523 -0.798494
13.870863 7.847224 -0.805367
13.661660 8.246885 -0.824217
13.561650 8.708135 -0.778385
13.354471 9.111745 -0.803568
14.136910 7.995909 -0.774122
13.922989 8.394581 -0.784060
13.859258 8.881693 -0.815046
13.634839 9.276501 -0.805136
14.433455 8.162318 -0.800535
14.218406 8.563396 -0.810314
14.125161 9.033987 -0.778551
13.916315 9.441775 -0.803177
14.740168 8.334524 -0.840443
14.523851 8.738253 -0.850060
14.408545 9.197671 -0.773325
14.182208 9.595880 -0.763224
15.008954 8.484440 -0.798943
14.774643 8.878951 -0.774015
14.710169 9.373161 -0.798824
14.482450 9.773794 -0.788589
15.296121 8.644966 -0.788443
15.095838 9.063207 -0.831976
15.013328 9.549401 -0.820375
14.784226 9.952456 -0.810013
15.597890 8.813873 -0.799887
15.383337 9.226368 -0.817543
15.300263 9.714753 -0.804024
15.070058 10.119748 -0.793554
15.905607 8.986104 -0.815897
15.708049 9.412364 -0.867191
15.588141 9.880524 -0.784040
15.374534 10.299701 -0.807182
16.200777 9.150887 -0.802641
15.979564 9.565305 -0.811457
15.895165 10.058596 -0.793961
15.662476 10.467953 -0.783253
16.487509 9.310632 -0.768892
16.270096 9.729838 -0.785915
16.203579 10.237329 -0.799829
15.969503 10.649109 -0.788994
16.818108 9.495739 -0.806467
16.599285 9.917994 -0.823254
16.513344 10.416702 -0.801622
16.277882 10.830902 -0.790659
17.131126 9.670478 -0.806469
16.911167 10.095292 -0.823032
16.819672 10.593613 -0.791071
16.582893 11.010114 -0.779978
17.445438 9.845821 -0.802361
17.219490 10.270220 -0.810469
17.131966 10.774163 -0.784681
16.912773 11.206022 -0.806217
17.761005 10.021749 -0.794111
17.553513 10.460713 -0.834730
17.464996 10.967877 -0.806715
17.225163 11.389701 -0.795345
18.082836 10.201159 -0.789825
17.834507 10.618550 -0.765078
17.799721 11.162415 -0.824165
17.558220 11.587139 -0.812645
18.436611 10.398914 -0.829691
18.206509 10.831858 -0.837227
18.101105 11.335232 -0.780718
17.892929 11.785372 -0.825333
18.735535 10.564760 -0.776386
18.509602 11.002853 -0.791763
18.438660 11.531096 -0.789278
18.209282 11.970890 -0.801445
19.097824 10.767113 -0.814892
18.844391 11.193008 -0.790176
18.777786 11.727703 -0.793169
18.546917 12.170498 -0.805029
19.419819 10.946005 -0.784966
19.191048 11.390184 -0.799835
19.092518 11.908447 -0.752945
18.886074 12.370822 -0.803907
19.785641 11.150058 -0.813652
19.549896 11.594554 -0.820395
19.476288 12.133090 -0.810310
19.226707 12.571835 -0.798061
20.131752 11.342558 -0.805937
19.873158 11.777086 -0.781250
19.841236 12.345390 -0.830948
19.589699 12.787518 -0.818529
20.495686 11.545174 -0.816711
20.240570 11.986223 -0.799778
20.186596 12.544932 -0.815489
19.933384 12.989956 -0.802919
20.872398 11.754977 -0.837753
20.609821 12.196239 -0.813068
20.554977 12.758862 -0.825863
20.299809 13.207266 -0.813126
21.223072 11.949600 -0.815201
20.980858 12.407104 -0.821083
20.881279 12.945806 -0.770090
20.662586 13.421812 -0.810438
21.569363 12.141539 -0.780205
21.331318 12.605301 -0.793463
21.296974 13.189194 -0.830708
21.037888 13.644358 -0.817633
21.973812 12.366772 -0.815731
21.728088 12.831262 -0.821161
21.625710 13.377212 -0.765169
21.409435 13.864075 -0.811867
22.368946 12.586447 -0.830374
22.126957 13.058231 -0.843035
22.045597 13.622614 -0.814127
21.782593 14.084534 -0.800711
22.777645 12.813723 -0.854088
22.476097 13.254986 -0.792347
22.422260 13.840405 -0.797722
22.179855 14.320591 -0.813622
23.153175 13.021752 -0.827662
22.884277 13.487087 -0.810322
22.823494 14.073402 -0.805136
22.556282 14.542560 -0.791361
23.559723 13.247407 -0.832355
23.265171 13.702524 -0.785784
23.226620 14.307288 -0.806593
22.980171 14.795436 -0.821638
23.944187 13.460192 -0.802143
23.688927 13.943486 -0.806374
23.602184 14.523566 -0.766069
23.359879 15.018902 -0.787907
24.378361 13.701289 -0.823793
24.096889 14.174706 -0.799076
24.056114 14.788751 -0.812902
23.781952 15.269843 -0.798550
24.790321 13.929448 -0.810461
24.506603 14.406724 -0.785738
24.464729 15.025178 -0.796093
24.188316 15.510127 -0.781551
25.191666 14.151325 -0.776951
24.911911 14.635863 -0.759274
24.856865 15.251007 -0.752144
24.602310 15.755057 -0.765467
25.311237 15.515468 -0.771954
25.054153 16.024330 -0.784801
25.730988 15.757974 -0.743393
25.483955 16.278843 -0.769566
26.214340 16.039833 -0.776756
25.897144 16.522200 -0.727291
26.416874 16.834394 -0.793634
0.721082 0.155631 27.292013
0.726324 0.153513 27.296017
0.678367 0.127833 27.340235
0.692702 0.136899 27.329414
0.709197 0.142691 27.318731
0.720483 0.154562 27.306564
0.701861 0.142478 27.326895
0.711837 0.144077 27.322603
0.696399 0.138841 27.334787
0.685754 0.127935 27.348375
0.670506 0.122169 27.360399
0.686854 0.128510 27.350061
0.698796 0.140095 27.338428
0.715688 0.146090 27.328506
0.706840 0.145083 27.334459
0.709961 0.142467 27.336241
0.694228 0.136919 27.347855
0.681425 0.128655 27.360975