# This PCD file was generated using the MATLAB® pcwrite function
# from Computer Vision System Toolbox®.
# .PCD v.7 - Point Cloud Data file format
VERSION .7
FIELDS x y z
SIZE 4 4 4
TYPE F F F
COUNT 1 1 1
WIDTH 770
HEIGHT 1
VIEWPOINT 0 0 0 1 0 0 0
POINTS 770
DATA ascii
-7.383076 -4.619616 -0.741927
-7.461168 -4.458398 -0.727736
-7.236385 -4.532013 -0.734689
-7.345273 -4.390536 -0.754615
-7.090414 -4.444861 -0.725136
-7.210760 -4.312035 -0.759089
-6.969793 -4.372906 -0.741168
-7.089227 -4.241000 -0.775455
-6.831223 -4.290222 -0.734314
-6.961870 -4.166658 -0.782999
-6.693337 -4.207963 -0.725310
-6.834983 -4.092617 -0.788638
-6.610087 -4.158445 -0.778580
-6.708584 -4.018886 -0.792382
-6.473148 -4.076789 -0.765866
-6.582693 -3.945475 -0.794244
-6.354607 -4.006168 -0.772873
-6.451372 -3.868990 -0.786954
-6.224844 -3.928841 -0.763466
-6.332507 -3.799658 -0.792356
-6.124625 -3.869230 -0.789071
-6.196562 -3.720595 -0.773841
-6.001672 -3.796013 -0.783489
-6.113521 -3.671783 -0.820336
-5.856673 -3.709597 -0.746032
-5.932840 -3.567240 -0.738117
-5.780007 -3.664149 -0.797134
-5.884456 -3.538255 -0.827021
-5.669778 -3.598601 -0.801587
-5.756563 -3.463910 -0.808840
-5.538010 -3.520152 -0.773745
-5.640559 -3.396379 -0.804111
-5.428874 -3.455284 -0.774846
-5.530612 -3.332329 -0.805452
-5.336317 -3.400372 -0.797780
-5.421119 -3.268564 -0.805243
-5.222615 -3.332791 -0.788115
-5.312095 -3.205093 -0.803492
-5.120028 -3.271889 -0.792612
-5.235517 -3.160122 -0.847613
-5.012623 -3.208109 -0.787742
-5.100779 -3.082061 -0.803361
-4.905732 -3.144648 -0.781362
-5.008812 -3.028373 -0.821118
-4.814600 -3.090656 -0.797658
-4.896422 -2.963089 -0.805452
-4.713614 -3.030761 -0.796552
-4.820300 -2.918450 -0.844960
-4.603152 -2.965186 -0.777744
-4.698771 -2.848024 -0.810148
-4.542313 -2.929428 -0.839475
-4.602998 -2.792259 -0.814615
-4.432633 -2.864342 -0.818034
-4.502659 -2.733925 -0.809559
-4.538616 -2.583809 -0.825314
-4.631408 -2.465384 -0.854805
-4.333211 -2.805429 -0.811660
-4.441506 -2.697850 -0.869618
-4.224860 -2.741154 -0.787224
-4.303407 -2.618140 -0.795389
-4.357822 -2.480113 -0.843583
-4.434800 -2.355277 -0.848348
-4.145116 -2.694089 -0.811691
-4.246944 -2.584752 -0.861939
-4.234531 -2.410776 -0.792015
-4.339556 -2.301834 -0.847395
-4.074535 -2.652551 -0.852114
-4.134046 -2.519390 -0.826587
-4.154584 -2.364584 -0.814911
-4.230428 -2.241511 -0.819801
-3.976614 -2.594577 -0.840786
-4.063329 -2.477947 -0.866117
-4.065405 -2.313501 -0.819825
-4.136160 -2.188668 -0.816253
-3.870322 -2.531569 -0.811055
-3.929061 -2.400545 -0.785274
-3.967387 -2.257757 -0.806485
-4.042303 -2.136081 -0.811491
-3.795542 -2.487541 -0.839966
-3.894442 -2.379560 -0.891356
-3.878912 -2.207115 -0.809068
-3.948867 -2.083755 -0.805520
-3.703382 -2.433057 -0.833498
-3.775098 -2.310660 -0.833364
-3.804030 -2.163695 -0.836501
-3.873860 -2.040585 -0.832952
-3.611659 -2.378842 -0.825832
-3.704578 -2.269389 -0.869093
-3.711609 -2.111020 -0.828304
-3.781039 -1.988647 -0.824768
-3.516191 -2.322376 -0.808259
-3.599751 -2.208752 -0.834306
-3.615342 -2.056358 -0.810184
-3.688671 -1.936987 -0.815399
-3.441945 -2.278714 -0.833234
-3.537744 -2.172314 -0.885702
-3.545072 -2.015428 -0.843493
-3.613977 -1.894040 -0.839968
-3.355461 -2.227681 -0.830961
-3.429845 -2.109994 -0.839667
-3.449611 -1.961264 -0.823113
-3.543463 -1.853142 -0.872519
-3.273317 -2.179275 -0.836452
-3.375788 -2.078060 -0.907125
-3.362970 -1.911776 -0.819219
-3.431073 -1.791860 -0.815719
-3.171762 -2.119151 -0.796522
-3.245070 -2.002937 -0.805328
-3.288791 -1.868847 -0.840961
-3.360872 -1.751171 -0.846363
-3.098127 -2.075900 -0.817683
-3.175145 -1.962093 -0.835462
-3.202681 -1.819695 -0.835051
-3.266293 -1.698694 -0.822622
-3.024465 -2.032645 -0.838020
-3.101195 -1.918993 -0.855883
-3.120850 -1.772811 -0.837064
-3.196169 -1.658075 -0.851537
-2.950783 -1.989390 -0.857534
-3.031018 -1.878026 -0.884483
-3.039273 -1.726088 -0.838100
-3.106393 -1.608023 -0.834626
-2.866117 -1.939497 -0.849106
-2.938328 -1.824422 -0.858096
-2.957957 -1.679531 -0.838168
-3.043975 -1.571117 -0.879966
-2.756733 -1.874630 -0.776096
-2.868267 -1.783547 -0.884978
-2.891691 -1.640796 -0.873646
-2.958562 -1.523232 -0.870170
-2.705041 -1.844728 -0.847359
-2.776526 -1.730522 -0.856437
-2.814278 -1.596298 -0.881063
-2.880954 -1.479104 -0.877592
-2.642180 -1.808079 -0.890794
-2.717175 -1.695678 -0.909061
-2.744126 -1.555563 -0.905925
-2.792617 -1.429942 -0.856646
-2.541715 -1.748616 -0.832603
-2.612403 -1.635399 -0.841765
-2.652928 -1.504017 -0.874848
-2.736862 -1.396163 -0.917371
-2.482136 -1.713986 -0.883671
-2.569798 -1.609944 -0.938964
-2.582958 -1.463412 -0.898022
-2.649052 -1.347333 -0.894563
-2.399326 -1.665250 -0.869443
-2.466324 -1.550446 -0.869433
-2.489441 -1.410779 -0.855592
-2.572083 -1.303627 -0.898469
-2.323318 -1.620655 -0.872782
-2.412799 -1.518886 -0.937767
-2.423031 -1.372032 -0.886354
-2.488598 -1.256939 -0.882914
-2.250596 -1.578070 -0.884571
-2.320390 -1.465625 -0.893889
-2.356386 -1.333160 -0.916447
-2.408856 -1.212043 -0.875691
-2.165791 -1.528125 -0.858171
-2.238183 -1.418085 -0.876875
-2.276960 -1.287813 -0.908418
-2.329449 -1.167353 -0.867550
-2.096419 -1.487599 -0.877622
-2.162521 -1.374212 -0.877635
-2.185607 -1.236490 -0.861905
-2.250384 -1.122874 -0.858491
-2.009619 -1.436431 -0.839891
-2.084102 -1.328823 -0.868135
-2.119141 -1.197756 -0.889614
-2.186996 -1.085533 -0.895609
-1.951805 -1.402994 -0.895452
-2.020491 -1.291680 -0.904914
-2.040763 -1.153055 -0.878848
-2.108284 -1.041282 -0.884884
-1.843867 -1.338870 -0.780128
-1.928333 -1.238702 -0.846418
-1.962750 -1.108577 -0.867184
-2.027012 -0.995954 -0.863782
-1.796784 -1.312038 -0.872156
-1.861991 -1.200070 -0.872190
-1.893456 -1.068470 -0.883142
-1.960513 -0.957235 -0.889242
-1.722440 -1.268505 -0.868690
-1.803482 -1.165776 -0.925854
-1.818690 -1.025666 -0.879312
-1.882701 -0.913543 -0.875916
-1.643267 -1.222004 -0.845302
-1.710491 -1.112424 -0.854893
-1.752082 -0.986906 -0.903325
-1.805277 -0.870088 -0.861707
-1.557243 -1.171271 -0.792265
-1.651676 -1.077975 -0.907186
-1.685291 -0.948051 -0.926666
-1.738787 -0.831407 -0.884941
-1.500874 -1.138826 -0.853331
-1.575027 -1.033695 -0.891774
-1.608347 -0.904251 -0.910900
-1.664432 -0.789360 -0.878692
-1.434483 -1.100219 -0.875436
-1.505945 -0.993599 -0.904358
-1.541494 -0.865382 -0.932793
-1.595320 -0.749576 -0.890882
-1.365678 -1.060134 -0.887225
-1.432209 -0.950960 -0.896931
-1.465081 -0.821913 -0.915392
-1.528604 -0.710797 -0.912003
-1.288167 -1.014654 -0.859628
-1.363229 -0.910946 -0.908031
-1.389089 -0.778699 -0.897136
-1.452348 -0.668076 -0.893758
-1.215425 -0.972129 -0.850514
-1.292068 -0.869749 -0.908720
-1.322335 -0.739919 -0.916825
-1.385607 -0.629304 -0.913444
-1.151072 -0.934838 -0.879446
-1.229429 -0.833218 -0.947495
-1.255430 -0.701063 -0.935840
-1.309922 -0.586936 -0.893591
-1.082521 -0.894943 -0.888286
-1.140056 -0.782131 -0.859168
-1.169880 -0.653508 -0.866523
-1.243178 -0.548184 -0.911847
-0.998944 -0.845632 -0.818407
-1.087240 -0.750956 -0.945249
-1.113261 -0.619470 -0.932806
-1.170140 -0.506978 -0.900163
-0.941829 -0.812926 -0.884292
-1.007000 -0.704899 -0.894144
-1.030964 -0.573589 -0.871495
-1.091478 -0.463705 -0.858370
-0.866530 -0.768794 -0.851808
-0.945677 -0.669101 -0.939986
-0.971731 -0.538290 -0.926764
-1.036417 -0.429390 -0.933187
-0.801790 -0.731331 -0.877312
-0.866508 -0.623686 -0.887206
-0.897700 -0.496290 -0.903001
-0.954729 -0.385175 -0.870218
-0.733615 -0.691707 -0.882533
-0.811403 -0.591225 -0.971025
-0.830888 -0.457551 -0.917745
-0.893419 -0.348442 -0.914384
-0.668490 -0.654041 -0.906727
-0.733033 -0.546296 -0.916660
-0.757516 -0.415953 -0.892436
-0.819782 -0.307336 -0.889087
-0.591628 -0.608866 -0.851450
-0.661613 -0.505118 -0.900815
-0.696930 -0.379911 -0.945207
-0.753059 -0.268670 -0.902419
-0.529306 -0.573025 -0.893977
-0.599117 -0.468691 -0.943417
-0.623941 -0.338557 -0.918431
-0.686233 -0.229955 -0.915077
-0.461295 -0.533538 -0.896389
-0.527937 -0.427673 -0.926135
-0.551452 -0.297502 -0.890870
-0.614937 -0.189842 -0.897413
-0.395760 -0.495677 -0.917891
-0.464798 -0.390895 -0.967468
-0.484722 -0.258863 -0.902131
-0.546763 -0.150760 -0.898787
-0.323167 -0.453196 -0.879302
-0.393881 -0.350050 -0.948755
-0.417906 -0.220185 -0.912718
-0.481267 -0.112453 -0.919280
-0.261855 -0.418162 -0.939107
-0.325592 -0.310595 -0.949133
-0.351007 -0.181469 -0.922630
-0.413074 -0.073381 -0.919284
-0.189847 -0.376040 -0.899057
-0.259487 -0.272272 -0.968671
-0.284032 -0.142719 -0.931869
-0.350745 -0.035747 -0.968234
-0.123985 -0.338030 -0.917863
-0.191193 -0.232835 -0.967671
-0.216985 -0.103937 -0.940432
-0.279078 0.004136 -0.937080
-0.056231 -0.298754 -0.916121
-0.124794 -0.194363 -0.985872
-0.149872 -0.065128 -0.948318
-0.208953 0.043508 -0.915124
0.009914 -0.260601 -0.933598
-0.053192 -0.153314 -0.943669
-0.082697 -0.026293 -0.955526
-0.144816 0.081765 -0.952174
0.079012 -0.220386 -0.910560
0.013181 -0.114878 -0.960498
-0.015466 0.012564 -0.962059
-0.075024 0.120924 -0.928815
0.144047 -0.183077 -0.946630
0.081119 -0.075687 -0.956718
0.051817 0.051441 -0.967913
-0.007199 0.159722 -0.924681
0.212796 -0.143084 -0.922200
0.150166 -0.036006 -0.932294
0.119145 0.090334 -0.973089
0.059108 0.198417 -0.939807
0.280676 -0.103694 -0.907043
0.217744 0.002956 -0.927127
0.186515 0.129240 -0.977587
0.126870 0.237158 -0.934309
0.346754 -0.065723 -0.931143
0.282482 0.040686 -0.981201
0.255866 0.168357 -0.941453
0.196185 0.275609 -0.898173
0.412857 -0.027838 -0.964575
0.350283 0.079756 -0.974687
0.321356 0.207081 -0.984545
0.261081 0.314635 -0.941233
0.480843 0.011674 -0.937385
0.417353 0.118534 -0.987477
0.390160 0.245862 -0.947027
0.327823 0.353540 -0.953671
0.548241 0.050745 -0.919498
0.485965 0.157775 -0.939611
0.456300 0.284941 -0.988784
0.395394 0.392131 -0.945453
0.615024 0.089084 -0.940924
0.552621 0.196431 -0.971041
0.523798 0.323870 -0.989883
0.462576 0.430878 -0.946548
0.682115 0.127498 -0.971677
0.619896 0.235297 -0.981798
0.591740 0.362123 -0.950313
0.529768 0.469621 -0.946966
0.749256 0.166481 -0.941758
0.687334 0.273968 -0.951879
0.658818 0.401712 -0.990044
0.596863 0.508689 -0.956701
0.816090 0.205186 -0.921165
0.754769 0.313044 -0.981278
0.726330 0.440619 -0.989103
0.664162 0.547082 -0.945772
0.883937 0.243914 -0.959885
0.822354 0.352057 -0.989998
0.793837 0.479513 -0.987484
0.731403 0.586214 -0.954150
0.952381 0.282976 -0.997913
0.890533 0.391541 -1.018024
0.861334 0.518391 -0.985184
0.798907 0.625879 -0.971836
1.018450 0.321393 -0.955302
0.958250 0.430541 -1.015377
0.928815 0.557249 -0.982205
0.865901 0.663674 -0.948891
1.087467 0.360764 -0.991949
1.025948 0.469519 -1.012047
0.996276 0.596086 -0.978547
0.932847 0.701822 -0.935265
1.152890 0.398789 -0.948010
1.093170 0.508144 -0.998052
1.063711 0.634897 -0.974209
1.001369 0.742826 -0.970852
1.220668 0.437701 -0.953329
1.161269 0.547402 -1.003342
1.131114 0.673681 -0.969193
1.068759 0.781602 -0.965836
1.287217 0.476079 -0.938015
1.228279 0.585884 -0.987995
1.198482 0.712433 -0.963497
1.138120 0.823068 -1.000000
1.352081 0.513660 -0.902103
1.291026 0.621485 -0.912185
1.268395 0.753563 -0.996968
1.203427 0.859058 -0.953772
1.423038 0.554005 -0.945230
1.364740 0.664500 -0.995139
1.333089 0.789833 -0.950075
1.273955 0.901567 -0.996469
1.492901 0.593894 -0.967703
1.431467 0.702789 -0.977767
1.403507 0.831233 -0.982125
1.340819 0.939607 -0.978760
1.559265 0.632125 -0.949680
1.499798 0.742129 -0.979616
1.474470 0.872935 -1.013423
1.408279 0.978371 -0.970320
1.631716 0.673297 -0.990589
1.566261 0.780246 -0.960904
1.542181 0.911834 -1.004262
1.475677 1.017090 -0.961202
1.698107 0.711523 -0.971189
1.645169 0.826344 -1.060588
1.609825 0.950683 -0.994421
1.546819 1.059518 -0.991046
1.770275 0.752603 -1.000683
1.709837 0.863269 -1.020611
1.677397 0.989481 -0.983900
1.614377 1.098308 -0.980527
1.832772 0.788844 -0.950221
1.781210 0.904456 -1.039405
1.754272 1.035463 -1.051816
1.686269 1.141146 -1.008871
1.906734 0.830843 -0.988146
1.845273 0.941011 -0.998133
1.817292 1.070700 -1.000324
1.755143 1.181064 -1.006814
1.967118 0.865940 -0.926544
1.922347 0.985733 -1.054974
1.890203 1.113458 -1.027162
1.821574 1.218783 -0.984331
2.047647 0.911327 -1.002407
1.980366 1.018515 -0.972935
1.958029 1.152360 -1.013810
1.895724 1.263278 -1.020261
2.116835 0.950915 -0.998590
2.061306 1.065576 -1.047894
2.031642 1.195500 -1.039106
1.962112 1.300951 -0.996385
2.189367 0.992232 -1.013713
2.135593 1.108453 -1.072762
2.099563 1.234435 -1.024327
2.037100 1.345906 -1.030737
2.258794 1.031936 -1.008436
2.203757 1.147522 -1.057576
2.167374 1.273297 -1.008865
2.109622 1.388649 -1.044647
2.333646 1.074472 -1.031824
2.271808 1.186516 -1.041704
2.235070 1.312082 -0.992723
2.172729 1.423623 -0.999104
2.401491 1.113338 -1.015291
2.346945 1.229849 -1.064245
2.316792 1.360758 -1.054005
2.252253 1.471932 -1.050581
2.469214 1.152122 -0.998074
2.413175 1.267705 -1.037176
2.384833 1.399720 -1.036348
2.320281 1.510886 -1.032929
2.544880 1.195092 -1.019122
2.504462 1.320848 -1.136031
2.460406 1.443919 -1.056907
2.388178 1.549754 -1.014593
2.618910 1.237203 -1.029613
2.558958 1.351526 -1.049119
2.544388 1.493857 -1.115432
2.473211 1.601976 -1.082874
2.682416 1.273717 -0.990823
2.631146 1.392981 -1.049062
2.604650 1.527396 -1.056745
2.539497 1.639505 -1.053306
2.772346 1.324294 -1.067514
2.701314 1.433195 -1.038562
2.681264 1.572158 -1.074825
2.615817 1.684742 -1.071378
2.835850 1.360784 -1.027273
2.784931 1.481537 -1.085238
2.758310 1.617156 -1.092041
2.684013 1.723737 -1.050049
2.908444 1.402117 -1.024949
2.855522 1.521971 -1.073144
2.826651 1.656223 -1.069929
2.754261 1.764292 -1.037644
2.981168 1.443513 -1.021847
2.930873 1.565265 -1.079521
2.904246 1.701513 -1.085488
2.831344 1.809932 -1.053266
3.064136 1.490410 -1.056281
3.001571 1.605738 -1.065910
2.972542 1.740532 -1.061905
2.906481 1.854051 -1.058445
3.124378 1.525078 -1.003753
3.082374 1.652276 -1.089776
3.050661 1.786099 -1.075790
2.984305 1.900093 -1.072318
3.213432 1.575259 -1.055492
3.150692 1.691291 -1.065062
3.129175 1.831880 -1.088780
3.052518 1.939042 -1.047265
3.281480 1.614109 -1.030126
3.245603 1.746246 -1.134661
3.208078 1.877872 -1.100867
3.141135 1.992815 -1.097377
3.369070 1.663516 -1.070380
3.295017 1.773908 -1.041994
3.287362 1.924069 -1.112044
3.212187 2.033762 -1.080187
3.419891 1.693012 -0.986786
3.377087 1.821124 -1.062365
3.355869 1.963152 -1.084595
3.291334 2.080513 -1.090525
3.517045 1.747605 -1.053497
3.456778 1.866894 -1.072348
3.435606 2.009585 -1.094051
3.368060 2.125470 -1.090549
3.582053 1.784757 -1.015697
3.530902 1.909320 -1.062639
3.527421 2.063851 -1.140058
3.447860 2.172570 -1.099071
3.680853 1.840265 -1.080179
3.617239 1.959013 -1.089544
3.596146 2.103024 -1.110183
3.528011 2.219859 -1.106661
3.761800 1.886073 -1.087417
3.704206 2.009054 -1.115391
3.664648 2.142057 -1.079618
3.596499 2.258884 -1.076102
3.839841 1.930294 -1.084422
3.775911 2.049987 -1.093711
3.745488 2.189072 -1.085463
3.683188 2.310677 -1.100479
3.898176 1.963759 -1.024993
3.857265 2.096646 -1.099057
3.839504 2.244545 -1.127322
3.761059 2.356229 -1.096065
4.003258 2.022718 -1.094240
3.938942 2.143477 -1.103452
3.908142 2.283620 -1.094301
3.829474 2.395177 -1.063150
4.078531 2.065407 -1.079333
4.024321 2.192485 -1.116080
3.989940 2.331144 -1.097283
3.907486 2.440786 -1.057059
4.171460 2.117739 -1.109388
4.103232 2.237635 -1.109360
4.072040 2.378828 -1.099300
4.002418 2.498028 -1.095744
4.254320 2.164564 -1.110899
4.189355 2.287042 -1.119986
4.140472 2.417750 -1.063938
4.074257 2.539292 -1.069487
4.315486 2.199500 -1.056919
4.239958 2.315398 -1.038706
4.237115 2.474656 -1.100412
4.152946 2.585249 -1.060596
4.398504 2.246390 -1.056695
4.362875 2.386542 -1.138085
4.334586 2.532021 -1.135611
4.249565 2.643414 -1.095921
4.500803 2.303848 -1.100546
4.420396 2.418976 -1.073455
4.403300 2.571065 -1.097594
4.347001 2.702031 -1.129959
4.588571 2.353337 -1.107135
4.545632 2.491412 -1.169883
4.501845 2.629015 -1.130507
4.400912 2.731025 -1.055313
4.668857 2.398711 -1.094782
4.618464 2.532862 -1.139381
4.570525 2.668014 -1.090802
4.499132 2.790061 -1.087206
4.733235 2.435335 -1.045926
4.683263 2.569564 -1.090321
4.670107 2.726527 -1.121395
4.598136 2.849530 -1.117778
4.841972 2.496324 -1.093867
4.787657 2.629606 -1.129198
4.770459 2.785464 -1.150655
4.697911 2.909423 -1.147017
4.947607 2.555611 -1.131497
4.884812 2.685349 -1.149025
4.855435 2.834667 -1.143403
4.766738 2.948466 -1.104609
5.020481 2.596872 -1.097515
4.974312 2.736559 -1.150042
4.924223 2.873674 -1.100130
4.851366 2.998100 -1.096494
5.131618 2.659183 -1.141335
5.064154 2.787949 -1.149947
5.026020 2.933391 -1.125821
4.952586 3.058773 -1.122167
5.213380 2.705316 -1.122799
5.145790 2.834492 -1.131361
5.128542 2.993505 -1.150138
5.058692 3.122614 -1.155124
5.286393 2.746615 -1.086027
5.262167 2.901442 -1.180972
5.231776 3.054008 -1.173064
5.140274 3.170068 -1.134906
5.386015 2.802566 -1.100080
5.318031 2.932803 -1.108533
5.318253 3.103994 -1.160290
5.243367 3.231761 -1.156591
5.477130 2.853821 -1.095709
5.435678 3.000443 -1.155436
5.404896 3.154059 -1.146462
5.312282 3.270772 -1.108655
5.582339 2.912840 -1.115726
5.527209 3.052722 -1.149598
5.491695 3.204198 -1.131580
5.398527 3.321239 -1.093950
5.688217 2.972224 -1.134322
5.628212 3.110535 -1.159534
5.578641 3.254406 -1.115638
5.507355 3.386551 -1.120361
5.771110 3.018913 -1.109402
5.701786 3.152242 -1.117633
5.665725 3.304678 -1.098631
5.594207 3.437333 -1.103302
5.873176 3.076176 -1.116986
5.822340 3.221470 -1.158632
5.771678 3.366635 -1.113927
5.713487 3.509362 -1.143552
5.985456 3.139073 -1.139853
5.896039 3.263218 -1.114684
5.878255 3.428929 -1.127765
5.786995 3.551315 -1.099143
6.078805 3.191504 -1.128072
6.037364 3.344550 -1.185753
5.985442 3.491553 -1.140133
5.888675 3.611690 -1.103399
6.162419 3.238542 -1.098663
6.091751 3.374960 -1.106654
6.073731 3.542446 -1.118237
6.000432 3.678584 -1.122659
6.296433 3.313429 -1.149995
6.239870 3.460198 -1.182439
6.181848 3.605565 -1.127832
6.103168 3.739524 -1.124046
6.385697 3.363566 -1.126228
6.308974 3.499190 -1.125972
6.270545 3.656657 -1.103551
6.216202 3.807107 -1.140218
6.500862 3.428016 -1.141721
6.433730 3.570701 -1.157592
6.399777 3.732712 -1.142512
6.299985 3.855629 -1.106538
6.606242 3.487044 -1.139557
6.533606 3.627642 -1.147291
6.509559 3.796722 -1.147578
6.413994 3.923730 -1.119782
6.743765 3.563847 -1.183770
6.680750 3.712163 -1.207371
6.619868 3.861013 -1.151112
6.518432 3.985568 -1.115523
6.823573 3.608700 -1.138869
6.760614 3.757368 -1.162298
6.730687 3.925576 -1.153104
6.654280 4.067651 -1.157122
6.946434 3.677368 -1.155943
6.899003 3.836709 -1.202776
6.842002 3.990402 -1.153545
6.759846 4.130091 -1.149668
7.053618 3.737346 -1.147829
6.995276 3.891448 -1.178711
6.953800 4.055481 -1.152427
6.876353 4.199533 -1.156308
7.172212 3.803630 -1.153762
7.146257 3.978063 -1.230912
7.087738 4.134087 -1.180623
6.982747 4.262405 -1.145832
7.302556 3.876409 -1.173401
7.221269 4.020359 -1.173030
7.200686 4.199780 -1.176131
7.094882 4.328922 -1.141551
7.444982 3.955870 -1.206399
7.373968 4.107906 -1.221290
7.336210 4.279242 -1.200487
7.229310 4.409689 -1.166105
7.554198 4.016922 -1.191741
7.477199 4.166600 -1.198919
7.450242 4.345509 -1.192579
7.348053 4.480319 -1.165960
7.680989 4.087696 -1.198169
7.631832 4.255197 -1.242899
7.559025 4.408531 -1.175567
7.456156 4.544081 -1.149111
7.808402 4.158802 -1.202750
7.735921 4.314337 -1.217248
7.679495 4.478654 -1.171925
7.581440 4.618784 -1.153061
7.907050 4.213949 -1.168430
7.857573 4.383673 -1.212431
7.817739 4.559570 -1.188674
7.701630 4.690171 -1.147777
8.041302 4.288814 -1.176932
7.956253 4.439620 -1.176461
7.939325 4.630281 -1.181356
7.856777 4.783792 -1.184635
8.122364 4.334177 -1.117821
8.090445 4.516192 -1.182951
8.096610 4.722682 -1.215830
7.954999 4.841055 -1.146457
8.299744 4.432921 -1.173479
8.225296 4.593116 -1.187431
8.213475 4.790424 -1.197414
8.129380 4.946749 -1.200527
8.454154 4.518916 -1.197593
8.372843 4.677382 -1.204232
8.324656 4.854677 -1.170197
8.234193 5.008109 -1.166107
8.584912 4.591781 -1.190869
8.484737 4.740904 -1.176101
8.478287 4.944685 -1.190968
8.392783 5.103580 -1.193922
8.740976 4.678661 -1.210415
8.658154 4.840121 -1.216892
8.608459 5.020390 -1.181257
8.516265 5.176692 -1.177120
8.854139 4.741731 -1.178631
8.770905 4.904081 -1.185028
8.788258 5.126155 -1.225225
8.676550 5.273069 -1.200202
9.030540 4.839855 -1.214512
8.921240 4.989823 -1.193130
8.870171 5.172502 -1.156013
8.801042 5.346703 -1.179389
9.163568 4.913904 -1.199533
9.059732 5.068659 -1.185182
9.076678 5.294323 -1.222368
8.956746 5.440024 -1.190858
9.316250 4.998836 -1.202980
9.255858 5.180882 -1.236302
9.209206 5.371257 -1.204081
9.113270 5.533780 -1.199846
9.489032 5.094896 -1.224262
9.408623 5.267915 -1.237044
9.361172 5.459911 -1.203903
9.276865 5.631917 -1.213034
9.617174 5.166173 -1.196114
9.549163 5.347826 -1.222075
9.526610 5.556657 -1.214608
9.428659 5.722530 -1.210321
9.758698 5.244851 -1.179301
9.677151 5.420431 -1.191776
9.679980 5.646047 -1.209525
9.613012 5.833578 -1.238033
9.960211 5.356787 -1.219179
9.870857 5.531072 -1.224958
9.879497 5.763251 -1.247539
9.779176 5.933076 -1.243186
10.089679 5.428731 -1.184549
10.006371 5.607966 -1.196710
10.008198 5.837632 -1.211427
9.907225 6.008531 -1.207064
10.333513 5.564102 -1.256882
10.255188 5.750412 -1.275275
10.229510 5.967840 -1.262554
10.126890 6.141495 -1.258140
10.457390 5.632895 -1.210983
10.378675 5.820267 -1.229154
10.352558 6.038716 -1.215392
10.255938 6.217454 -1.217271
10.602918 6.186266 -1.284850
10.504414 6.368269 -1.286598
10.706667 6.245424 -1.214333
10.634542 6.444776 -1.240656
10.905225 6.361626 -1.227750
10.811803 6.550757 -1.235416
11.111607 6.482460 -1.243864
11.037148 6.686740 -1.269420
11.319032 6.603843 -1.256495
11.216111 6.793608 -1.257854
11.520533 6.721589 -1.259736
11.388856 6.896516 -1.237463
11.757788 6.860736 -1.288667
11.651873 7.055701 -1.289799
11.940175 6.966855 -1.267545
0.848124 0.312551 7.805898
11.833152 7.163760 -1.268582
12.179607 7.107142 -1.288805
12.070908 7.306946 -1.289722
0.858859 0.315149 7.803537
0.878257 0.331176 7.786819
0.889650 0.333497 7.785213
0.866300 0.323577 7.801645
0.861883 0.316813 7.808787
0.853014 0.315245 7.814233
0.855591 0.312999 7.815864
0.868358 0.324708 7.805322
0.834579 0.300383 7.833266
0.818672 0.293795 7.843781
0.835375 0.300819 7.834757
0.848515 0.312255 7.824503
0.895296 0.336596 7.795593
0.856698 0.317266 7.821072
0.918670 0.350507 7.782681
0.901744 0.345110 7.792776
0.910246 0.350294 7.790042