# This PCD file was generated using the MATLAB® pcwrite function
# from Computer Vision System Toolbox®.
# .PCD v.7 - Point Cloud Data file format
VERSION .7
FIELDS x y z
SIZE 4 4 4
TYPE F F F
COUNT 1 1 1
WIDTH 886
HEIGHT 1
VIEWPOINT 0 0 0 1 0 0 0
POINTS 886
DATA ascii
9.806223 32.450935 -0.574884
9.129070 32.059502 -0.711964
9.751940 31.965250 -0.662643
9.060379 31.452070 -0.676764
9.658477 31.251095 -0.524712
8.973349 30.726627 -0.515472
9.566290 30.549049 -0.383514
8.903551 30.119627 -0.455694
9.491111 29.950733 -0.330143
8.872137 29.768393 -0.641573
9.444832 29.523596 -0.437756
8.806407 29.194073 -0.595932
9.401935 29.117777 -0.561535
8.660246 28.099829 0.002850
9.310938 28.437494 -0.393721
8.587447 27.489010 0.119118
9.229609 27.816933 -0.274158
8.551426 27.118971 -0.011599
9.104425 26.951355 0.123722
8.544393 26.936262 -0.344095
9.053003 26.508961 0.078785
8.503597 26.537798 -0.438417
9.056803 26.378744 -0.308886
8.462608 26.139853 -0.528091
9.018971 26.014715 -0.435247
8.400848 25.612503 -0.462507
8.983238 25.663572 -0.572601
8.347305 25.139864 -0.450720
8.935629 25.247961 -0.630318
8.310017 24.771355 -0.555290
8.899452 24.896919 -0.759470
8.269483 24.384144 -0.632639
8.831928 24.376011 -0.677086
8.230799 24.010042 -0.721050
8.765610 23.864777 -0.595667
8.184914 23.593208 -0.750584
8.721033 23.473755 -0.655893
8.155881 23.281433 -0.908850
8.699025 23.205215 -0.868765
8.085922 22.721666 -0.739395
8.640501 22.742495 -0.826124
8.008274 22.119074 -0.498732
8.564001 22.187328 -0.650295
7.954441 21.663845 -0.442396
8.469820 21.543123 -0.338823
7.900642 21.211391 -0.380417
8.416094 21.115049 -0.308834
7.862372 20.853745 -0.442842
8.380064 20.780962 -0.403564
7.831654 20.542145 -0.566732
8.314142 20.294090 -0.274179
7.700392 19.641441 0.176201
8.196961 19.548462 0.247744
7.658484 19.270054 0.163034
8.178416 19.310207 0.036268
8.786291 19.640533 -0.819538
9.269466 19.446270 -0.594398
7.654214 19.118504 -0.178835
8.193015 19.238663 -0.431149
8.724571 19.203541 -0.740995
9.225286 19.097544 -0.648190
7.669028 19.075735 -0.696133
8.189648 19.074568 -0.765779
8.682284 18.854637 -0.791231
9.164806 18.685871 -0.597738
7.641158 18.786259 -0.836164
8.142988 18.694202 -0.763376
8.629047 18.459219 -0.761847
9.108385 18.292341 -0.567652
7.590873 18.370060 -0.770304
8.093106 18.299759 -0.731274
8.580601 18.086550 -0.761774
9.067986 17.962725 -0.634575
7.556225 18.044411 -0.844194
8.052724 17.953777 -0.771152
8.532112 17.715405 -0.757509
9.022124 17.613129 -0.664007
7.519597 17.708782 -0.897619
8.018523 17.639065 -0.858620
8.493050 17.386007 -0.817610
8.986741 17.304548 -0.758095
7.476523 17.338547 -0.887310
7.973728 17.274260 -0.856964
8.463253 17.096613 -0.943161
8.957731 17.020435 -0.892117
7.433424 16.969933 -0.872868
7.939234 16.960218 -0.937668
8.419186 16.747972 -0.962156
8.910167 16.667439 -0.902502
7.397412 16.641951 -0.923843
7.898404 16.617067 -0.963127
8.371559 16.386017 -0.951309
8.865143 16.325233 -0.926424
7.357749 16.295286 -0.936495
7.856470 16.270082 -0.976208
8.322756 16.020916 -0.927738
8.823914 15.998101 -0.972891
7.318898 15.954480 -0.954210
7.809411 15.900729 -0.941730
8.278536 15.676162 -0.935247
8.777424 15.653010 -0.980894
7.281707 15.623984 -0.985945
7.767391 15.556443 -0.947187
8.238821 15.350881 -0.974356
8.720658 15.272703 -0.914711
7.246138 15.303370 -1.031965
7.726318 15.217922 -0.957819
8.189940 14.990281 -0.939224
8.674124 14.930647 -0.915033
7.195119 14.902458 -0.914606
7.675282 14.835785 -0.875980
8.136578 14.613908 -0.864525
8.612393 14.537102 -0.805002
7.145945 14.513669 -0.810459
7.630239 14.482696 -0.843376
8.092236 14.274781 -0.857103
8.560850 14.181279 -0.761866
7.108614 14.188574 -0.827490
7.579359 14.105506 -0.753128
8.044535 13.924224 -0.819153
8.529296 13.895284 -0.858345
7.079497 13.906920 -0.931292
7.553736 13.841270 -0.892769
8.007872 13.617331 -0.867573
8.237206 12.734614 0.939407
8.471498 13.521376 -0.763006
7.046051 13.603749 -0.987268
7.519192 13.538338 -0.948742
7.972174 13.314858 -0.922020
8.224127 12.521343 0.729395
7.005959 13.267977 -0.967604
7.475943 13.198856 -0.920046
7.719185 12.207887 0.844534
8.159237 12.137264 0.902281
6.961831 12.913582 -0.898808
7.280805 12.216792 0.579905
7.434586 12.869004 -0.905985
7.667568 11.858566 0.949108
8.143242 11.914298 0.715033
6.783103 11.895864 0.721386
6.921762 12.581178 -0.871948
7.212677 11.783571 0.877672
7.671715 11.713058 0.581234
8.161896 11.800640 0.264071
6.742872 11.571146 0.776114
7.201596 11.590936 0.620474
7.667731 11.535642 0.278032
8.118522 11.488030 0.281284
6.704254 11.255932 0.815847
7.212069 11.485101 0.143148
7.636827 11.261317 0.206390
8.084662 11.206215 0.227962
6.723582 11.219773 0.164474
7.209797 11.324064 -0.214291
7.625600 11.055579 -0.038677
8.066040 10.971326 0.057039
6.724881 11.093625 -0.284092
7.175247 11.031721 -0.246220
7.585895 10.750851 -0.031504
8.038837 10.709735 -0.047062
6.698121 10.833273 -0.397100
7.141485 10.743297 -0.284647
7.550266 10.461038 -0.058575
8.003233 10.423158 -0.083664
6.628525 10.374883 0.025318
7.089892 10.386349 -0.133358
7.518615 10.185193 -0.120279
7.951304 10.089775 0.013315
6.621679 10.208237 -0.334822
7.068341 10.147117 -0.296984
7.482756 9.895967 -0.141895
7.919036 9.814770 -0.045538
6.584197 9.901179 -0.308359
7.029070 9.840390 -0.270555
7.430769 9.555749 -0.010105
7.900291 9.578007 -0.214724
6.545269 9.589022 -0.259943
6.980341 9.499847 -0.137253
7.414739 9.331573 -0.214594
7.852889 9.261195 -0.146214
6.502815 9.262899 -0.161005
6.942865 9.202925 -0.123327
7.370702 9.019153 -0.152264
7.815665 8.973730 -0.159595
6.465414 8.960641 -0.125149
6.914621 8.940390 -0.210915
7.334531 8.732395 -0.162737
7.769449 8.663211 -0.094330
6.440525 8.713152 -0.257746
6.878659 8.650593 -0.210522
7.297318 8.443348 -0.160955
7.736558 8.389061 -0.140089
6.402988 8.412257 -0.216377
6.844288 8.367302 -0.226442
7.261965 8.160703 -0.175507
7.694756 8.092570 -0.107014
6.366825 8.118425 -0.191195
6.798419 8.045539 -0.105705
7.220833 7.862206 -0.129950
7.657304 7.808215 -0.109291
6.332650 7.833902 -0.191965
6.766418 7.772477 -0.144747
7.181606 7.570494 -0.100653
7.619787 7.524535 -0.108879
6.297754 7.547434 -0.180424
6.734280 7.499435 -0.181297
7.147955 7.295321 -0.126270
7.577935 7.231402 -0.067331
6.264115 7.266943 -0.185455
6.695711 7.206188 -0.138224
7.111428 7.012955 -0.120422
7.540337 6.949482 -0.061478
6.229762 6.984558 -0.178200
6.667274 6.946166 -0.217941
7.074848 6.731340 -0.111916
7.511083 6.687274 -0.130236
6.190316 6.683890 -0.090757
6.621708 6.633398 -0.082300
7.038218 6.450499 -0.100769
7.469145 6.397064 -0.080538
6.163387 6.431282 -0.194599
6.596077 6.382865 -0.195860
7.006004 6.181556 -0.135534
7.435483 6.125939 -0.105640
6.126407 6.142071 -0.140575
6.557411 6.093638 -0.141960
6.968355 5.899780 -0.109505
7.397617 5.846493 -0.089407
6.091268 5.860751 -0.113037
6.521001 5.812253 -0.114525
6.932433 5.623121 -0.100323
7.360723 5.569925 -0.080297
6.059071 5.590673 -0.131718
6.485303 5.533919 -0.094217
6.898184 5.351094 -0.108116
7.321773 5.290162 -0.049120
6.026763 5.320799 -0.147955
6.452455 5.264233 -0.110453
6.861283 5.073808 -0.084082
7.288763 5.022640 -0.073973
5.994348 5.051151 -0.161758
6.422343 5.002194 -0.163454
6.827731 4.804623 -0.096682
7.253662 4.751628 -0.076843
5.959577 4.774597 -0.133837
6.386439 4.725556 -0.135620
6.794076 4.535696 -0.106850
7.223341 4.489510 -0.126287
5.929206 4.512616 -0.182066
6.356733 4.465039 -0.193726
6.761147 4.268674 -0.124430
7.189953 4.222166 -0.143961
5.894314 4.237304 -0.149170
6.317292 4.181557 -0.111692
6.730543 4.006402 -0.169159
7.155495 3.953429 -0.149406
5.861538 3.969116 -0.153215
6.287333 3.921129 -0.165051
6.693329 3.732134 -0.132700
7.120943 3.685015 -0.152435
5.830761 3.707045 -0.194378
6.255858 3.657321 -0.196384
6.662460 3.469843 -0.172718
7.086299 3.416944 -0.153055
5.796226 3.435120 -0.163982
6.222931 3.390667 -0.205614
6.628285 3.202101 -0.170889
7.051567 3.149238 -0.151268
5.765181 3.173007 -0.200455
6.186693 3.117930 -0.162968
6.590929 2.929957 -0.127071
7.020400 2.886634 -0.186638
5.730034 2.901096 -0.155293
6.152975 2.850962 -0.157480
6.559683 2.667795 -0.160046
6.985459 2.619377 -0.180107
5.698744 2.639111 -0.187075
6.124140 2.593096 -0.228977
6.525261 2.401274 -0.151041
6.950440 2.352548 -0.171188
5.667294 2.376876 -0.216560
6.087742 2.322299 -0.179075
6.493737 2.138957 -0.179371
6.915344 2.086167 -0.159883
5.633380 2.109760 -0.194014
6.053150 2.055391 -0.156546
6.462056 1.876420 -0.205399
6.883659 1.823595 -0.185915
5.601670 1.847517 -0.218851
6.024401 1.797404 -0.231112
6.423720 1.606788 -0.139620
6.848378 1.557829 -0.169899
5.568046 1.582054 -0.201540
5.989607 1.530958 -0.203896
6.391828 1.344649 -0.160973
6.816429 1.295223 -0.191288
5.536075 1.319797 -0.221743
5.957609 1.268478 -0.224117
6.360489 1.082944 -0.189980
6.780974 1.030154 -0.170584
5.504376 1.057977 -0.249619
5.923233 1.003578 -0.202158
6.328292 0.820420 -0.206732
6.748773 0.767595 -0.187340
5.470060 0.792862 -0.215326
5.890985 0.741165 -0.217749
6.295951 0.557777 -0.221180
6.716427 0.504916 -0.201784
5.437697 0.530564 -0.228600
5.859130 0.479037 -0.241013
6.260792 0.293698 -0.193434
6.680711 0.240873 -0.174078
5.404033 0.267200 -0.209608
5.826590 0.216339 -0.251999
6.228213 0.031223 -0.203255
6.642550 -0.023248 -0.114141
5.372554 0.005720 -0.248238
5.793396 -0.046650 -0.250687
6.187726 -0.233243 -0.091038
6.605978 -0.285930 -0.071804
5.338682 -0.257243 -0.224621
5.754544 -0.311001 -0.137220
6.155008 -0.494778 -0.096228
6.573256 -0.547500 -0.076992
5.306872 -0.519320 -0.258654
5.721739 -0.572722 -0.141264
6.122159 -0.756332 -0.099121
6.540402 -0.809090 -0.079887
5.270740 -0.781679 -0.170460
5.691216 -0.834641 -0.192951
6.089183 -1.017886 -0.099716
6.507421 -1.070679 -0.080482
5.237007 -1.043219 -0.149920
5.654328 -1.095796 -0.112492
6.056080 -1.279418 -0.098017
5.919714 -1.180765 7.369062
6.475800 -1.332653 -0.098722
5.203838 -1.304769 -0.147070
5.622556 -1.357858 -0.139605
6.020482 -1.539823 -0.054102
5.896893 -1.378514 7.342165
6.440353 -1.593486 -0.064814
5.170548 -1.566269 -0.141922
5.587900 -1.618602 -0.104500
5.989509 -1.802342 -0.087725
6.407734 -1.855242 -0.068487
5.137138 -1.827698 -0.134480
5.556259 -1.881446 -0.136992
5.956045 -2.063693 -0.079134
6.374266 -2.116628 -0.059896
5.103612 -2.089037 -0.124739
5.522277 -2.142538 -0.117262
5.920226 -2.322818 -0.028366
6.357439 -2.391086 -0.288059
5.069971 -2.350266 -0.112705
5.487370 -2.402233 -0.075296
5.895360 -2.593489 -0.174656
6.339964 -2.669572 -0.513720
5.036219 -2.611364 -0.098375
5.454848 -2.665140 -0.090885
5.882930 -2.883687 -0.557549
6.305620 -2.934743 -0.497997
5.001591 -2.870175 -0.051838
5.405612 -2.897755 0.314402
5.800529 -3.077060 0.366409
6.268507 -3.196521 -0.440165
4.975712 -3.157052 -0.361790
5.370535 -3.152039 0.372919
5.813834 -3.414144 -0.519073
6.236605 -3.464579 -0.459566
4.947124 -3.442350 -0.589323
5.369598 -3.488481 -0.481962
5.779129 -3.679077 -0.496340
6.204509 -3.733124 -0.476587
4.911664 -3.704554 -0.535551
5.337417 -3.759796 -0.527718
5.744321 -3.943788 -0.471283
6.172220 -4.002135 -0.491215
4.877643 -3.973409 -0.549089
5.302886 -4.025635 -0.511415
5.711339 -4.212796 -0.483589
6.137263 -4.266981 -0.463793
4.843234 -4.241554 -0.550304
5.269246 -4.294874 -0.522547
5.678170 -4.482228 -0.493500
6.104643 -4.536516 -0.473656
4.808100 -4.506254 -0.519360
5.235419 -4.564526 -0.531275
5.642982 -4.746835 -0.461386
6.071836 -4.806454 -0.481117
4.772872 -4.770659 -0.486092
5.200150 -4.829240 -0.497969
5.611279 -5.022281 -0.506088
6.038848 -5.076774 -0.486164
4.739036 -5.047355 -0.539600
5.167215 -5.104986 -0.541489
5.577561 -5.292857 -0.508757
6.005678 -5.347454 -0.488787
4.704140 -5.317826 -0.541128
5.132552 -5.374247 -0.533081
5.543665 -5.563773 -0.508999
5.970081 -5.612147 -0.449551
4.668502 -5.582338 -0.500732
5.097734 -5.643665 -0.522268
5.511242 -5.841605 -0.546227
5.941010 -5.896474 -0.526129
4.634210 -5.864702 -0.566477
5.063302 -5.916568 -0.528757
5.475347 -6.106535 -0.502176
5.907266 -6.168447 -0.521397
4.598638 -6.134606 -0.550816
5.028418 -6.188167 -0.522936
5.442488 -6.385618 -0.534405
5.871242 -6.433343 -0.474957
4.563132 -6.408257 -0.552397
4.994344 -6.467409 -0.553968
5.407856 -6.658013 -0.524817
5.839269 -6.713188 -0.504587
4.527341 -6.680408 -0.541676
4.959076 -6.739852 -0.543186
5.373059 -6.930637 -0.512772
5.807036 -6.993944 -0.531631
4.491719 -6.960764 -0.567690
4.924530 -7.020573 -0.569111
5.338098 -7.203470 -0.498264
5.772577 -7.267216 -0.517010
4.454979 -7.217014 -0.473734
4.888257 -7.287471 -0.524008
5.304346 -7.485126 -0.520319
5.736032 -7.531968 -0.460924
4.419529 -7.517580 -0.582611
4.854078 -7.578063 -0.583860
5.270341 -7.767621 -0.539757
5.705053 -7.823338 -0.519268
4.382988 -7.791233 -0.561855
4.817873 -7.849738 -0.553295
5.234810 -8.041618 -0.517677
5.671901 -8.106816 -0.535982
4.346292 -8.065015 -0.538618
4.781887 -8.126081 -0.539722
5.201586 -8.335032 -0.570707
5.638501 -8.391086 -0.550049
4.309444 -8.338903 -0.512894
4.745561 -8.400260 -0.513918
5.164473 -8.599929 -0.504766
5.603119 -8.666068 -0.522779
4.272552 -8.632898 -0.562130
4.710298 -8.694689 -0.563032
5.129577 -8.884868 -0.513754
5.569278 -8.951509 -0.531597
4.235312 -8.907603 -0.531244
4.673581 -8.969685 -0.532063
5.094441 -9.170526 -0.520065
5.535196 -9.237667 -0.537729
4.197855 -9.201034 -0.565310
4.637615 -9.263532 -0.566006
5.059067 -9.456876 -0.523682
5.497687 -9.502409 -0.464350
4.160135 -9.490139 -0.577311
4.601110 -9.553017 -0.577892
5.023458 -9.743893 -0.524593
5.464775 -9.800649 -0.503586
4.122600 -9.743198 -0.461891
4.562989 -9.806223 -0.462433
4.986669 -10.019903 -0.484535
5.429659 -10.085546 -0.492140
4.084429 -10.038681 -0.487816
4.526772 -10.116803 -0.536018
4.951544 -10.319833 -0.518253
5.395064 -10.376922 -0.497074
4.045613 -10.353274 -0.568092
4.489814 -10.417236 -0.568340
4.915244 -10.608705 -0.510981
5.360920 -10.675241 -0.518225
4.006705 -10.654512 -0.597597
4.452259 -10.706501 -0.559677
4.879524 -10.910782 -0.538898
5.325461 -10.965091 -0.508034
3.968129 -10.931635 -0.548243
4.414481 -10.996319 -0.548252
4.842540 -11.197845 -0.516548
5.290108 -11.258739 -0.504530
3.928681 -11.234609 -0.572002
4.376662 -11.299725 -0.571871
4.805716 -11.491906 -0.510338
5.169586 -10.654436 2.035847
5.256090 -11.569765 -0.545294
3.889340 -11.525421 -0.555042
4.338363 -11.587548 -0.545364
4.725446 -10.897837 1.952345
4.770139 -11.817266 -0.585892
5.129960 -10.848788 2.253254
5.220497 -11.868570 -0.545364
3.848848 -11.843988 -0.610489
4.294343 -10.984281 1.926291
4.299979 -11.892826 -0.563091
4.685257 -11.036000 2.322004
4.732882 -12.116818 -0.583092
5.183766 -12.157648 -0.514429
3.843028 -11.214636 1.885935
3.809241 -12.129389 -0.568954
4.258357 -11.100707 2.353125
4.261240 -12.181651 -0.530960
4.695082 -12.409992 -0.558674
5.064526 -11.393235 2.262686
3.814268 -11.278914 2.445110
3.769613 -12.411310 -0.515392
4.222307 -12.481507 -0.524075
4.618651 -11.623721 2.224297
5.029048 -11.633458 2.355106
3.728169 -12.733322 -0.561581
4.187200 -11.746878 2.108875
4.582904 -11.860321 2.328474
4.994326 -11.884092 2.421833
3.733764 -11.981883 2.066963
4.151386 -11.987988 2.205313
4.547276 -12.099723 2.425455
4.957810 -12.107585 2.555511
3.697792 -12.223127 2.165928
4.115562 -12.228241 2.303871
4.511639 -12.338260 2.524540
4.923241 -12.360819 2.617401
3.661059 -12.479059 2.230179
4.079932 -12.451971 2.441355
4.475996 -12.575914 2.625723
4.887690 -12.597870 2.718325
3.629238 -12.635427 2.526194
4.044704 -12.654218 2.626520
4.440632 -12.828858 2.692417
4.853177 -12.854342 2.775665
3.597067 -12.803758 2.786287
4.008060 -12.943652 2.612192
4.404939 -13.065008 2.797913
4.817365 -13.085832 2.890024
3.595363 -12.415084 4.267279
3.554983 -13.158451 2.628447
3.971879 -13.196874 2.682758
4.369479 -13.321245 2.860121
4.782503 -13.337333 2.961071
3.560881 -12.649849 4.342854
3.520953 -13.361045 2.810305
3.936000 -13.432865 2.791943
4.333562 -13.534477 3.015121
4.746861 -13.571309 3.070578
3.509705 -13.171357 3.815500
3.911556 -13.220201 3.841848
4.296896 -13.575871 3.522772
4.712672 -13.843711 3.101238
3.486261 -13.209673 4.311655
3.429818 -14.156698 2.360027
3.864751 -13.884390 3.052485
4.262312 -14.039998 3.159925
4.677387 -14.089787 3.188339
3.454604 -13.391373 4.502016
3.300642 -15.905331 -0.566700
3.848873 -13.452576 4.501173
3.822127 -14.344565 2.711300
4.226547 -14.285523 3.249298
4.642318 -14.344382 3.259893
3.410399 -13.774054 4.292393
3.256509 -16.223207 -0.540239
3.807723 -13.895096 4.176029
3.782089 -14.693622 2.607813
4.190248 -14.695827 3.021168
4.601394 -14.386678 3.742058
3.370383 -14.083149 4.238464
3.210336 -16.569317 -0.563768
3.773772 -14.099618 4.326857
3.738481 -15.133122 2.339842
3.687276 -16.632626 -0.543102
4.153392 -15.045683 2.921993
4.572439 -14.876197 3.366138
3.322241 -14.510932 3.967115
3.165912 -16.884268 -0.521675
3.743664 -14.199319 4.673584
3.643857 -16.961899 -0.527405
4.116520 -15.327084 2.958937
4.539237 -15.235095 3.251762
3.284261 -14.778187 4.009167
3.116138 -17.275621 -0.617081
3.702228 -14.608607 4.440044
3.599405 -17.311134 -0.543394
4.078994 -15.652291 2.919916
4.503541 -15.495398 3.325422
3.257032 -14.886550 4.342802
3.070393 -17.602278 -0.585371
3.662958 -14.945434 4.351725
3.553589 -17.686047 -0.599302
4.048772 -15.357291 3.991810
4.471603 -16.001177 2.966164
3.248601 -14.730557 5.138060
3.021626 -17.968794 -0.619923
3.613094 -15.525754 3.840837
3.566945 -16.632170 1.882212
3.507874 -18.048384 -0.624826
4.002819 -16.297949 2.870220
4.427871 -15.716013 4.000345
4.435743 -16.314678 2.960375
3.186608 -15.337856 4.576429
3.116270 -16.322697 2.860172
2.974883 -18.302328 -0.589678
3.528332 -16.879747 2.012907
3.463458 -18.372469 -0.577015
3.966254 -16.496887 3.066603
3.930728 -18.616701 -0.559021
4.398515 -16.533190 3.121870
3.082028 -16.516233 3.066301
3.510326 -16.670218 2.921461
3.416508 -18.747671 -0.612007
3.929699 -16.703827 3.247250
4.361689 -16.786020 3.225101
3.109401 -15.877493 4.663717
3.043846 -16.763720 3.179398
2.875977 -19.033075 -0.621489
3.474011 -16.883224 3.095461
3.369802 -19.109346 -0.617008
3.887348 -17.194567 2.959595
4.325047 -17.079924 3.262461
3.064638 -16.225752 4.583569
3.002507 -17.051992 3.226528
2.952098 -17.722340 2.125532
3.479998 -16.223511 4.695467
3.433286 -17.188278 3.117641
3.322440 -19.477648 -0.626505
3.850101 -17.417435 3.120419
3.797621 -19.720062 -0.593348
4.288219 -17.390215 3.277473
3.021740 -16.544884 4.558561
2.929148 -17.756958 2.606049
2.775365 -19.770052 -0.636820
3.443023 -16.478769 4.771896
3.398883 -17.361927 3.355215
3.277828 -19.784000 -0.530050
3.835633 -16.719851 4.736910
3.811100 -17.713531 3.164780
4.251166 -17.771107 3.186142
4.253981 -20.112902 -0.503426
2.985898 -16.769415 4.689213
2.905509 -17.805933 3.051296
2.725258 -20.130083 -0.621349
3.393777 -16.969751 4.479673
3.225073 -20.245550 -0.675203
3.707635 -20.430679 -0.545031
4.214699 -16.938124 4.980225
4.213549 -18.105913 3.175018
2.945391 -17.052433 4.729528
2.860587 -18.130108 3.058744
2.671374 -20.534571 -0.669037
3.302207 -18.243975 2.994413
3.178412 -20.580584 -0.613211
3.661661 -20.803923 -0.540064
4.175707 -18.387121 3.251221
4.167831 -20.918938 -0.589331
2.905090 -17.330452 4.781258
2.831957 -18.246883 3.387089
3.265456 -18.454733 3.181316
3.131806 -20.910479 -0.539310
3.700230 -18.354284 3.690842
3.669126 -19.388357 2.145098
4.143312 -17.586557 4.940739
2.780496 -18.648384 3.283844
2.569152 -21.261286 -0.617191
3.079999 -21.329803 -0.594633
3.692875 -17.640844 5.224606
3.663346 -18.569971 3.861395
4.107315 -17.870718 4.988569
4.100897 -18.763018 3.684664
2.842792 -17.656534 5.231947
2.738055 -18.934700 3.358921
2.514739 -21.659952 -0.634665
3.200163 -18.734867 3.757975
3.028896 -21.728970 -0.611925
3.655935 -17.905878 5.298502
4.081614 -17.005863 6.688364
4.072978 -17.949425 5.334806
2.795741 -18.012310 5.175776
2.456524 -22.100344 -0.704857
3.220073 -17.982836 5.317282
2.975962 -22.152826 -0.657305
3.652035 -17.224131 6.713890
3.620462 -18.124702 5.440479
3.577757 -19.342783 3.718111
4.043490 -17.641333 6.218689
3.990531 -22.429022 -0.524315
2.751560 -18.329895 5.181047
3.233996 -17.373240 6.625219
2.923835 -22.555845 -0.664974
3.610502 -17.647009 6.549816
4.010033 -17.793890 6.439014
2.787450 -17.702250 6.502367
2.684682 -18.911552 4.825487
3.194700 -17.668406 6.641647
3.577627 -17.825579 6.729965
3.978159 -17.854956 6.781008
3.898387 -23.268362 -0.570560
2.721582 -18.276909 6.144527
3.158052 -17.917072 6.725840
3.098503 -18.871840 5.430859
3.543010 -18.050148 6.847403
3.943643 -18.109335 6.858295
3.852257 -23.646036 -0.526114
2.706290 -18.260889 6.594770
3.112511 -18.303522 6.628832
3.006837 -19.965340 4.415218
3.503388 -18.394978 6.807877
3.272331 -24.010489 -0.576637
3.900356 -18.836906 6.318331
3.804558 -24.091339 -0.564789
2.681300 -18.359419 6.884027
3.082829 -18.438042 6.870275
2.975121 -20.100681 4.695045
3.478133 -18.392939 7.223204
3.379115 -20.718401 4.219469
3.220165 -24.451380 -0.602316
3.869177 -18.869419 6.697285
3.756134 -24.545128 -0.605867
2.633431 -18.717325 6.833904
3.055902 -18.532890 7.159637
2.900103 -20.895338 4.123674
2.653252 -24.638437 -0.686550
3.447727 -18.521181 7.464037
3.841396 -18.772659 7.231874
3.708026 -24.957909 -0.586424
2.600007 -18.910391 6.999954
2.394302 -21.205137 4.092047
3.011545 -18.890839 7.112152
2.971588 -19.486418 6.360298
2.899997 -20.553501 5.013226
3.411126 -18.790449 7.526077
3.813637 -18.718201 7.700743
2.574607 -19.014391 7.276617
3.049649 -18.034294 8.578053
2.856306 -20.868891 5.062645
2.541481 -25.484516 -0.661554
3.375802 -19.028345 7.629848
3.306137 -20.520369 5.802664
3.774958 -19.138712 7.579252
2.616620 -18.381941 8.449900
2.371191 -21.067656 5.165207
1.935772 -25.832430 -0.662224
2.839568 -20.791929 5.594515
2.483776 -25.925724 -0.660686
3.342544 -19.221062 7.789909
3.744285 -19.229582 7.862680
2.574555 -18.675783 8.474724
2.948374 -18.939722 8.239225
2.788819 -21.206852 5.525141
2.422835 -26.407160 -0.700390
3.307141 -19.457556 7.898247
2.951155 -26.680422 -0.641052
3.703995 -19.679296 7.719189
3.668943 -20.941132 6.232904
2.510569 -19.202744 8.228876
2.925530 -18.991095 8.558790
3.290449 -19.321890 8.440821
3.125342 -22.588570 4.645870
3.680081 -19.544554 8.262794
2.498072 -19.174805 8.640850
2.888096 -19.247454 8.635889
2.707191 -21.744001 5.750246
3.254528 -19.573399 8.528303
2.838567 -27.607576 -0.643333
3.644027 -19.837553 8.306826
3.586700 -21.705795 6.181904
2.465226 -19.364931 8.795591
2.850983 -19.497234 8.723370
2.662822 -22.058144 5.814636
2.243824 -27.760790 -0.662546
3.207194 -20.037571 8.379848
3.600425 -20.357826 8.101015
2.374072 -20.165178 8.267115
1.617727 -28.087034 -0.607491
2.817208 -19.700218 8.865694
2.745245 -20.666588 7.787060
3.197547 -19.793987 9.022514
3.584167 -20.035038 8.834160
2.367447 -20.076765 8.740923
2.195656 -21.861528 6.776058
2.776858 -19.989613 8.914040
3.076208 -21.587618 7.441635
3.019966 -22.604256 6.340145
3.550561 -20.251379 8.965981
2.363158 -19.968111 9.226196
2.274448 -20.882458 8.236954
2.736242 -20.279568 8.965868
3.126488 -20.276781 9.226633
3.514461 -20.535437 9.027250
3.478775 -21.522810 7.979668
2.362610 -19.825222 9.737024
1.770444 -25.881659 3.297419
2.668857 -20.912777 8.658108
2.555936 -22.372784 7.111328
3.085635 -20.607399 9.238766
3.457141 -21.380335 8.507490
2.336032 -19.950914 9.955456
2.215069 -21.178751 8.672417
2.693207 -20.363016 9.598576
3.033766 -21.120335 9.068871
3.353995 -23.366579 6.841858
2.183995 -21.340933 8.873735
2.003711 -23.157408 7.008253
2.624444 -21.005890 9.292391
3.032986 -20.766346 9.787149
3.429801 -20.762941 9.862787
2.193807 -21.093956 9.487297
1.937620 -23.656570 6.900818
2.583039 -21.296432 9.357019
2.386316 -23.753283 6.886137
2.978848 -21.308737 9.596373
3.370364 -21.611164 9.369629
2.128796 -21.595715 9.343302
2.545988 -21.530554 9.481342
2.924108 -21.848722 9.420561
3.340202 -21.731430 9.607721
2.112114 -21.615803 9.680021
2.516487 -21.670963 9.698647
2.866995 -22.414856 9.231916
3.307185 -21.921381 9.777300
2.109264 -21.502037 10.139723
2.454385 -22.206284 9.537754
2.855216 -22.259064 9.737019
3.262517 -22.372152 9.702265
1.944024 -22.971928 9.098785
2.387654 -22.789570 9.343752
2.090413 -26.349035 6.004000
2.765716 -23.312292 9.110674
2.684963 -24.557682 7.956341
3.197275 -23.258938 9.233505
1.795425 -24.263536 8.265049
2.363136 -22.864124 9.632063
2.123661 -25.703754 7.013653
2.693640 -24.075089 8.777016
3.154017 -23.644747 9.242195
1.951566 -22.613035 10.142345
2.327085 -23.075874 9.792801
2.606561 -25.046185 8.275290
3.117448 -23.882908 9.389124
1.886635 -23.095430 10.055841
2.322443 -22.921309 10.280926
2.682818 -23.583004 9.939377
3.059793 -24.548567 9.163189
1.844611 -23.356188 10.173655
2.279149 -23.218115 10.363972
2.629689 -24.049904 9.884781
3.034693 -24.545961 9.527779
1.793659 -23.699585 10.222927
2.228338 -23.598349 10.379192
2.588029 -24.344357 9.985548
3.026665 -24.218512 10.161907
1.708285 -24.363102 10.006035
2.156875 -24.208614 10.206438
2.540228 -24.723124 10.019587
2.391755 -26.831402 8.260149
2.990482 -24.450438 10.316008
2.321322 -27.496614 8.096201
2.946442 -24.828447 10.352568
2.892452 -25.842016 9.524399
2.378804 -26.378204 9.382826
2.844903 -26.259398 9.549934
2.310218 -27.016916 9.241926
2.830220 -26.074125 10.057579
2.219010 -27.951548 8.883989
2.791811 -26.324306 10.217873
2.175746 -28.227739 9.049709
2.699294 -27.519674 9.661257
2.122154 -28.638851 9.116894
2.619588 -28.462376 9.321367
2.572270 -28.833027 9.421919
4.219508 -0.905809 29.917286
2.545022 -28.863628 9.772650
4.217014 -0.940904 29.897766
4.212065 -0.951373 29.895849
4.217520 -0.926917 29.912754
4.212459 -0.944370 29.903370
4.216197 -0.944797 29.903606
4.214927 -0.912121 29.927006
4.214289 -0.971243 29.889353
4.211226 -0.955305 29.901978
4.218439 -0.905107 29.934229
4.210950 -0.956580 29.904043
4.215959 -0.940051 29.914810
4.212818 -0.932292 29.921707
4.217431 -0.915626 29.932297
4.211126 -0.950516 29.913330
4.216036 -0.933793 29.923788
4.217579 -0.909027 29.940773