# This PCD file was generated using the MATLAB® pcwrite function
# from Computer Vision System Toolbox®.
# .PCD v.7 - Point Cloud Data file format
VERSION .7
FIELDS x y z
SIZE 4 4 4
TYPE F F F
COUNT 1 1 1
WIDTH 750
HEIGHT 1
VIEWPOINT 0 0 0 1 0 0 0
POINTS 750
DATA ascii
-25.939697 -12.946439 -0.597265
-25.204741 -13.139512 -0.609207
-25.487146 -12.685891 -0.589207
-24.763584 -12.879340 -0.600105
-25.016346 -12.416917 -0.554102
-24.330809 -12.624213 -0.590723
-24.567671 -12.159767 -0.531576
-23.925922 -12.384286 -0.601603
-24.200130 -11.943753 -0.583096
-23.535448 -12.152451 -0.619881
-23.807276 -11.715679 -0.601822
-23.120596 -11.908509 -0.604601
-23.389759 -11.475978 -0.587021
-22.758545 -11.692558 -0.638536
-22.999819 -11.250566 -0.593573
-22.346937 -11.451479 -0.610901
-22.611330 -11.026467 -0.594212
-21.937248 -11.212019 -0.576893
-22.173599 -10.778784 -0.532383
-21.585552 -11.003033 -0.600847
-21.845245 -10.585420 -0.585026
-21.222630 -10.788773 -0.605192
-21.455185 -10.362371 -0.561003
-20.873320 -10.582007 -0.618660
-21.122612 -10.167938 -0.596388
-20.513100 -10.370166 -0.612339
-20.772537 -9.965483 -0.605045
-20.160378 -10.162673 -0.608057
-20.387251 -9.746526 -0.564346
-19.767395 -9.935242 -0.546492
-20.009966 -9.532073 -0.525295
-19.465191 -9.754436 -0.591433
-19.712240 -9.356487 -0.577993
-19.140259 -9.562537 -0.601938
-19.385479 -9.167383 -0.588852
-18.816477 -9.371674 -0.607803
-19.059862 -8.979313 -0.595070
-18.465208 -9.167463 -0.570702
-18.735441 -8.792304 -0.596664
-18.166851 -8.990304 -0.597979
-18.406509 -8.603653 -0.585955
-17.852465 -8.805534 -0.597795
-18.090359 -8.421557 -0.586109
-17.555986 -8.630134 -0.616690
-17.769789 -8.237867 -0.574017
-17.238392 -8.444655 -0.599964
-17.467325 -8.063170 -0.581053
-16.944014 -8.271137 -0.610521
-17.176971 -7.894576 -0.599794
-16.650633 -8.098516 -0.617054
-16.882034 -7.724267 -0.606636
-16.968031 -7.266735 -0.601341
-17.198149 -6.891817 -0.589170
-16.358284 -7.926814 -0.619587
-16.566528 -7.544878 -0.577328
-16.673101 -7.100116 -0.602539
-16.907230 -6.729774 -0.598761
-16.045923 -7.745723 -0.585758
-16.295301 -7.386423 -0.608324
-16.357742 -6.925160 -0.567356
-16.617281 -6.568604 -0.604481
-15.797696 -7.596421 -0.645330
-16.003584 -7.218929 -0.603230
-16.065275 -6.760612 -0.560438
-16.322952 -6.406161 -0.598217
-15.487839 -7.417421 -0.603418
-15.713019 -7.052414 -0.594200
-15.816060 -6.615006 -0.615227
-16.029789 -6.244706 -0.588034
-15.220380 -7.259459 -0.623175
-15.444283 -6.896281 -0.614220
-15.525486 -6.452145 -0.600897
-15.743096 -6.086341 -0.582193
-14.953662 -7.102206 -0.639448
-15.176287 -6.740856 -0.630749
-15.256706 -6.298976 -0.615904
-15.473144 -5.935061 -0.597448
-14.667841 -6.936122 -0.618883
-14.888907 -6.577082 -0.610476
-14.973484 -6.140158 -0.602400
-15.198832 -5.782507 -0.600908
-14.383319 -6.771094 -0.594488
-14.582920 -6.405447 -0.552843
-14.686440 -5.980237 -0.576777
-14.889886 -5.617012 -0.542143
-14.119514 -6.616381 -0.600042
-14.357399 -6.270236 -0.625898
-14.420557 -5.829594 -0.581133
-14.648053 -5.477973 -0.588812
-13.856579 -6.462445 -0.602198
-14.073526 -6.109369 -0.594587
-14.155562 -5.679737 -0.582096
-14.396564 -5.335548 -0.615593
-13.594550 -6.309303 -0.600967
-13.810217 -5.958054 -0.593609
-13.891487 -5.530681 -0.579683
-14.116249 -5.182594 -0.588137
-13.370705 -6.174502 -0.664974
-13.566748 -5.815833 -0.623531
-13.647414 -5.390163 -0.608231
-13.851757 -5.036122 -0.582752
-13.091704 -6.014071 -0.622925
-13.286439 -5.657870 -0.581583
-13.403815 -5.250160 -0.633797
-13.607313 -4.897557 -0.608477
-12.836853 -5.865360 -0.620512
-13.049025 -5.518989 -0.613850
-13.123636 -5.095886 -0.587069
-13.363368 -4.759521 -0.631233
-12.591831 -5.721568 -0.632299
-12.807462 -5.378613 -0.634548
-12.881579 -4.957276 -0.606373
-13.101395 -4.615274 -0.616253
-12.356279 -5.582470 -0.658558
-12.561973 -5.236877 -0.643568
-12.622056 -4.812148 -0.587744
-12.840496 -4.471908 -0.597996
-12.095162 -5.431914 -0.629236
-12.303971 -5.090178 -0.623238
-12.381398 -4.674829 -0.601032
-12.598731 -4.335865 -0.611607
-11.856639 -5.292092 -0.640751
-12.068782 -4.953528 -0.643776
-12.141351 -4.538098 -0.611422
-12.322032 -4.187877 -0.551748
-11.622944 -5.154772 -0.658243
-11.825539 -4.813813 -0.643778
-11.919173 -4.408553 -0.654413
-12.099546 -4.059449 -0.594690
-11.381492 -5.014241 -0.655119
-11.570457 -4.669545 -0.614115
-11.663191 -4.266447 -0.623556
-11.877192 -3.931305 -0.635082
-11.116426 -4.863450 -0.595360
-11.341424 -4.536463 -0.634928
-11.395901 -4.120602 -0.562681
-11.604066 -3.786138 -0.565662
-10.893032 -4.731727 -0.622097
-11.100605 -4.398855 -0.626108
-11.187785 -3.997303 -0.624277
-11.387025 -3.660500 -0.609493
-10.677840 -4.603894 -0.664289
-10.880680 -4.270096 -0.659475
-10.967347 -3.869634 -0.656500
-11.145392 -3.526936 -0.596794
-10.458859 -4.474604 -0.694981
-10.645214 -4.135337 -0.654106
-10.715339 -3.730774 -0.613712
-10.912745 -3.396760 -0.599318
-10.205900 -4.330700 -0.641279
-10.426011 -4.007413 -0.682306
-10.495914 -3.604118 -0.640633
-10.688702 -3.269737 -0.617300
-9.991760 -4.204098 -0.675785
-10.176640 -3.867849 -0.635004
-10.246053 -3.466962 -0.592001
-10.437717 -3.134502 -0.568869
-9.774101 -4.076199 -0.698711
-9.958521 -3.740977 -0.657942
-10.027739 -3.341370 -0.613682
-10.218825 -3.009860 -0.590658
-9.545954 -3.944067 -0.691555
-9.744375 -3.615896 -0.687609
-9.798635 -3.212339 -0.605289
-10.000248 -2.885601 -0.609983
-9.315016 -3.811079 -0.672499
-9.512426 -3.484251 -0.668736
-9.592076 -3.091344 -0.649656
-9.785708 -2.762844 -0.636080
-9.081517 -3.677375 -0.641466
-9.291964 -3.357336 -0.674932
-9.378336 -2.968121 -0.673241
-9.567756 -2.639341 -0.650537
-8.869420 -3.552964 -0.663479
-9.065087 -3.228336 -0.660042
-9.147365 -2.839494 -0.647961
-9.335934 -2.512148 -0.625412
-8.650934 -3.426153 -0.664469
-8.845799 -3.102507 -0.661182
-8.900229 -2.706107 -0.573353
-9.105067 -2.385720 -0.597616
-8.439500 -3.302512 -0.681709
-8.633700 -2.979603 -0.678556
-8.715149 -2.593047 -0.664284
-8.902559 -2.267600 -0.641953
-8.225176 -3.177946 -0.687214
-8.418643 -2.855896 -0.684204
-8.483274 -2.465390 -0.621887
-8.683171 -2.145094 -0.637238
-8.020636 -3.057555 -0.718596
-8.216757 -2.737122 -0.725113
-8.281487 -2.347416 -0.661591
-8.467668 -2.023990 -0.639486
-7.785749 -2.925395 -0.653255
-7.974360 -2.604468 -0.641109
-8.057617 -2.223028 -0.633009
-8.239801 -1.900100 -0.601616
-7.585001 -2.807015 -0.689425
-7.776263 -2.487541 -0.686823
-7.856177 -2.105621 -0.668226
-8.050685 -1.786284 -0.674715
-7.384197 -2.688779 -0.723457
-7.575003 -2.369681 -0.720957
-7.642689 -1.984966 -0.663296
-7.827195 -1.664264 -0.641502
-7.172052 -2.566419 -0.717220
-7.359225 -2.247230 -0.705326
-7.426814 -1.864006 -0.646494
-7.610670 -1.544374 -0.624823
-6.971475 -2.448672 -0.746883
-7.149790 -2.127183 -0.706413
-7.228787 -1.748224 -0.684631
-7.409477 -1.428293 -0.653465
-6.749433 -2.323226 -0.697758
-6.946288 -2.009293 -0.724369
-7.027838 -1.631815 -0.711119
-7.211146 -1.312989 -0.689554
-6.546834 -2.205238 -0.713371
-6.748304 -1.893312 -0.759356
-6.816059 -1.512882 -0.697086
-7.009911 -1.197230 -0.713982
-6.339333 -2.085732 -0.707567
-6.524126 -1.769666 -0.696051
-6.615463 -1.397028 -0.719250
-6.797878 -1.079614 -0.697845
-6.129851 -1.965832 -0.689871
-6.313978 -1.650668 -0.678448
-6.394375 -1.276650 -0.662134
-6.575934 -0.960668 -0.640884
-5.928198 -1.848922 -0.698919
-6.116795 -1.535679 -0.706907
-6.184509 -1.159371 -0.641245
-6.365485 -0.844337 -0.620102
-5.719812 -1.730015 -0.676744
-5.898036 -1.414997 -0.646114
-5.985012 -1.044683 -0.656853
-6.165677 -0.730111 -0.635765
-5.530097 -1.617484 -0.730051
-5.706039 -1.301883 -0.689707
-5.776225 -0.928382 -0.631538
-5.965980 -0.616120 -0.649343
-5.324690 -1.500072 -0.713284
-5.506989 -1.187064 -0.702148
-5.586365 -0.816017 -0.681818
-5.764065 -0.502074 -0.651129
-5.126164 -1.385084 -0.723587
-5.308075 -1.072494 -0.712517
-5.376231 -0.700184 -0.642452
-5.566983 -0.388875 -0.670273
-4.911564 -1.265592 -0.653629
-5.100923 -0.956284 -0.681746
-5.177643 -0.586703 -0.649664
-5.367716 -0.275641 -0.677629
-4.719811 -1.153128 -0.689034
-4.902623 -0.842411 -0.687904
-4.975120 -0.472917 -0.635250
-5.160127 -0.162008 -0.643843
-4.514635 -1.037121 -0.653828
-4.696708 -0.727262 -0.652802
-4.784979 -0.361051 -0.677507
-4.969728 -0.049990 -0.686157
-4.326516 -0.925928 -0.704861
-4.506597 -0.615496 -0.694054
-4.584916 -0.248120 -0.668776
-4.755225 0.063048 -0.608917
-4.129210 -0.812486 -0.704807
-4.308902 -0.502473 -0.694054
-4.379725 -0.135100 -0.628477
-4.564966 0.174655 -0.647203
-3.930480 -0.698968 -0.692862
-4.113170 -0.390007 -0.701860
-4.182410 -0.023190 -0.625406
-4.359728 0.286249 -0.604916
-3.735318 -0.586515 -0.698587
-3.914233 -0.277339 -0.687941
-3.992095 0.088124 -0.659731
-4.169376 0.397585 -0.639248
-3.537254 -0.473712 -0.682556
-3.725185 -0.166093 -0.731207
-3.795014 0.199571 -0.652658
-3.978702 0.508946 -0.671659
-3.346797 -0.362559 -0.713943
-3.525142 -0.053857 -0.703373
-3.610514 0.310820 -0.722618
-3.781301 0.619774 -0.662670
-3.151960 -0.250782 -0.713699
-3.329985 0.057622 -0.703171
-3.409049 0.421764 -0.681927
-3.590327 0.730987 -0.691187
-2.954716 -0.138942 -0.691633
-3.139058 0.168727 -0.730700
-3.211127 0.532306 -0.658970
-3.393255 0.841301 -0.678217
-2.765216 -0.028241 -0.727095
-2.947860 0.279828 -0.756306
-3.020250 0.643140 -0.683556
-3.190998 0.950186 -0.623638
-2.568497 0.082972 -0.701050
-2.746768 0.390532 -0.700567
-2.824180 0.753194 -0.666531
-3.000136 1.060851 -0.646271
-2.374410 0.193671 -0.692883
-2.555675 0.501250 -0.722250
-2.628479 0.862875 -0.647520
-2.809042 1.171490 -0.666979
-2.183506 0.304121 -0.712601
-2.364357 0.611939 -0.742012
-2.437505 0.973285 -0.666273
-2.617729 1.282097 -0.685768
-1.992391 0.414533 -0.730398
-2.168911 0.721876 -0.720045
-2.246328 1.083653 -0.683105
-2.421896 1.390892 -0.662903
-1.796072 0.524292 -0.686483
-1.974776 0.831641 -0.706059
-2.051222 1.192511 -0.658218
-2.226477 1.499288 -0.638067
-1.605032 0.634343 -0.700405
-1.782569 0.941621 -0.710043
-1.859985 1.302596 -0.671185
-2.035201 1.609396 -0.651037
-1.413826 0.744331 -0.712404
-1.588088 1.050525 -0.682192
-1.668588 1.412614 -0.682234
-1.843766 1.719435 -0.662085
-1.220644 0.853553 -0.692549
-1.394059 1.159010 -0.652386
-1.474214 1.520576 -0.651508
-1.652187 1.829400 -0.671211
-1.029376 0.963260 -0.700697
-1.204710 1.269838 -0.690453
-1.282845 1.630262 -0.658697
-1.457671 1.936643 -0.638601
-0.837528 1.072561 -0.696941
-1.011629 1.378205 -0.666754
-1.091361 1.739855 -0.663967
-1.268653 2.049069 -0.683693
-0.646487 1.182401 -0.711231
-0.820695 1.488144 -0.681040
-0.898334 1.847472 -0.637409
-1.074526 2.155773 -0.647223
-0.454895 1.291820 -0.713621
-0.629890 1.598592 -0.703384
-0.708107 1.958732 -0.668745
-0.884715 2.268336 -0.688480
-0.263224 1.401125 -0.714090
-0.437211 1.706255 -0.673916
-0.516365 2.067999 -0.668251
-0.692632 2.377798 -0.687986
-0.071490 1.510309 -0.712637
-0.245590 1.815374 -0.672464
-0.324566 2.177140 -0.665840
-0.500491 2.487134 -0.685568
0.120294 1.619363 -0.709265
-0.054361 1.926329 -0.699024
-0.132192 2.283755 -0.631603
-0.307321 2.592661 -0.641409
0.312107 1.730012 -0.733921
0.137145 2.039500 -0.753580
0.059143 2.395014 -0.655249
-0.116098 2.705395 -0.674961
0.503953 1.837051 -0.696756
0.329524 2.144145 -0.686510
0.251025 2.503730 -0.647074
0.076125 2.814305 -0.666771
0.694601 1.940361 -0.607811
0.521321 2.251256 -0.657434
0.443103 2.615994 -0.676805
0.268347 2.923055 -0.656658
0.888311 2.056238 -0.706490
0.714215 2.365479 -0.716135
0.635270 2.724555 -0.664774
0.460779 3.036000 -0.684385
1.080954 2.166147 -0.713442
0.906753 2.474910 -0.713091
0.828212 2.836991 -0.690609
0.653257 3.144579 -0.670410
1.274616 2.277631 -0.738371
1.100329 2.586984 -0.737976
1.020606 2.945365 -0.674711
0.845689 3.252975 -0.654507
1.468832 2.389268 -0.761330
1.292922 2.695391 -0.721100
1.212940 3.053546 -0.656895
1.039198 3.366051 -0.676373
1.661472 2.497542 -0.742517
1.486827 2.806595 -0.732119
1.406914 3.166088 -0.676855
1.232877 3.478008 -0.686338
1.855843 2.608369 -0.751600
1.681641 2.918890 -0.751095
1.601405 3.278762 -0.694832
1.425615 3.586098 -0.664618
2.051932 2.721162 -0.778572
1.876963 3.031312 -0.768082
1.796397 3.391557 -0.710817
1.620805 3.700702 -0.690453
2.244886 2.829135 -0.753918
2.070030 3.139349 -0.743414
1.986628 3.494325 -0.645617
1.813697 3.808561 -0.664839
2.436882 2.935832 -0.717428
2.262971 3.247155 -0.716820
2.179047 3.601760 -0.618128
2.009105 3.921908 -0.676802
2.633121 3.047649 -0.728539
2.459961 3.360772 -0.737762
2.373737 3.713008 -0.618345
2.202017 4.029459 -0.647295
2.826860 3.156164 -0.707972
2.656637 3.473311 -0.746780
2.570483 3.827047 -0.636303
2.394766 4.136759 -0.615873
3.027985 3.272716 -0.754583
2.849788 3.580755 -0.714315
2.766847 3.939809 -0.642366
2.590891 4.250025 -0.621880
3.221064 3.379959 -0.720171
3.047012 3.693278 -0.719337
2.963621 4.052639 -0.646400
2.791282 4.369752 -0.665155
3.418776 3.491954 -0.723228
3.244637 3.805862 -0.722324
3.160789 4.165526 -0.648403
2.984354 4.476750 -0.627808
3.615590 3.602704 -0.714415
3.437788 3.912823 -0.683979
3.364254 4.286266 -0.697397
3.186120 4.596915 -0.666893
3.812624 3.713414 -0.703590
3.639740 4.029719 -0.712370
3.557503 4.393039 -0.656075
3.384089 4.710559 -0.664694
4.017032 3.830979 -0.739746
3.845226 4.149901 -0.758196
3.759835 4.511015 -0.681246
3.577347 4.817174 -0.621393
4.210308 3.937522 -0.695450
4.044600 4.262804 -0.752922
3.958721 4.624204 -0.674988
3.786409 4.945146 -0.693100
4.412809 4.052530 -0.707825
4.238235 4.369382 -0.706553
4.157922 4.737401 -0.666664
3.980013 5.051624 -0.645742
4.617574 4.169211 -0.727806
4.441117 4.485389 -0.716696
4.357421 4.850600 -0.656271
4.179272 5.165325 -0.635292
4.810946 4.275316 -0.677509
4.629609 4.586557 -0.637215
4.557202 4.963789 -0.643801
4.378813 5.279016 -0.622766
5.018456 4.393769 -0.702951
4.838197 4.707626 -0.672318
4.764078 5.084352 -0.667967
4.585170 5.400566 -0.646828
5.226819 4.512523 -0.726143
5.045973 4.827331 -0.695457
4.957547 5.190098 -0.612617
4.785523 5.514371 -0.630049
5.428193 4.624899 -0.708418
5.247036 4.940172 -0.677711
5.165498 5.310919 -0.632435
4.986109 5.628137 -0.611179
5.635880 4.742353 -0.717524
5.452247 5.056627 -0.677134
5.376189 5.433984 -0.659588
5.201792 5.758579 -0.667015
5.840011 4.856498 -0.705151
5.655925 5.171319 -0.664757
5.583810 5.553371 -0.665228
5.411120 5.881082 -0.682068
6.051013 4.976024 -0.719406
5.874705 5.299393 -0.717333
5.794134 5.674980 -0.678177
5.613188 5.995152 -0.656605
6.262779 5.095795 -0.731361
6.079559 5.414387 -0.700472
5.996610 5.788468 -0.650654
5.813341 6.106930 -0.619492
6.468315 5.210196 -0.712355
6.282459 5.527387 -0.671902
6.197010 5.899736 -0.611494
6.015650 6.220791 -0.589811
6.669340 5.320766 -0.672136
6.492488 5.646379 -0.669739
6.408879 6.021672 -0.617699
6.238137 6.355160 -0.643291
6.895051 5.450621 -0.724766
6.707883 5.769637 -0.684261
6.623818 6.146023 -0.631021
6.441348 6.469165 -0.609116
7.089109 5.555249 -0.651724
6.901834 5.874207 -0.611261
6.837138 6.268398 -0.632500
6.663641 6.601997 -0.648167
7.311457 5.681715 -0.680573
7.146252 6.021270 -0.724920
7.058665 6.397816 -0.659822
6.877391 6.725693 -0.647057
7.529511 5.804462 -0.688059
7.348513 6.132290 -0.675716
7.265740 6.513681 -0.628336
7.091781 6.849558 -0.643559
7.756624 5.933760 -0.721235
7.577608 6.265328 -0.718122
7.491623 6.646023 -0.660053
7.306791 6.973579 -0.637669
7.959425 6.044243 -0.667643
7.780385 6.376274 -0.664425
7.696827 6.759594 -0.614609
7.522401 7.097745 -0.629372
8.191152 6.176282 -0.705116
8.000055 6.500782 -0.664482
7.924469 6.892523 -0.641260
7.749530 7.232293 -0.655741
8.418211 6.304393 -0.721285
8.229167 6.632513 -0.689884
8.153245 7.025879 -0.665234
7.966568 7.356864 -0.642473
8.640155 6.428335 -0.716320
8.459401 6.764663 -0.712599
8.383134 7.159648 -0.686508
8.192779 7.489458 -0.654385
8.856530 6.547865 -0.690409
8.678530 6.887555 -0.695753
8.602038 7.283591 -0.668325
8.414038 7.617022 -0.645300
9.076463 6.669740 -0.671293
8.895044 7.008082 -0.667278
8.818354 7.405024 -0.638529
8.632917 7.742028 -0.624544
9.313195 6.803540 -0.695471
9.131067 7.143556 -0.691261
9.053964 7.542234 -0.661022
8.876996 7.889113 -0.674150
9.544436 6.932962 -0.698589
9.351945 7.266825 -0.666878
9.300426 7.687878 -0.707924
9.110017 8.025698 -0.684427
9.769741 7.057771 -0.680849
9.586604 7.400405 -0.676292
9.522043 7.812519 -0.679398
9.344033 8.162621 -0.691919
10.006028 7.190133 -0.687664
9.822251 7.534319 -0.682919
9.744075 7.937189 -0.648365
9.552617 8.276969 -0.624649
10.243279 7.322813 -0.691677
10.058859 7.668551 -0.686741
9.980259 8.072989 -0.650692
9.798107 8.422929 -0.653692
10.467020 7.445579 -0.656996
10.292861 7.800409 -0.678774
10.217367 8.209085 -0.650188
10.038059 8.563530 -0.661835
10.705844 7.578705 -0.655502
10.520412 7.927059 -0.650204
10.441062 8.334055 -0.611271
10.257996 8.686654 -0.613768
10.960561 7.722610 -0.686718
10.774213 8.073002 -0.681189
10.694264 8.482100 -0.640621
10.513897 8.839757 -0.651638
11.197598 7.853749 -0.670494
11.014425 8.208351 -0.673615
10.948867 8.630681 -0.666777
10.764044 8.987380 -0.668625
11.443112 7.990452 -0.669085
11.255477 8.343943 -0.663153
11.204844 8.779779 -0.689701
11.019140 9.138528 -0.691225
11.697489 8.132921 -0.682226
11.528441 8.502601 -0.719866
11.442903 8.914409 -0.665739
11.249101 9.268375 -0.649557
11.961108 8.281349 -0.709654
11.751863 8.624458 -0.659657
11.689440 9.055225 -0.656305
11.506379 9.420256 -0.665936
12.168892 8.391067 -0.612154
11.983414 8.752007 -0.614285
11.944835 9.202425 -0.661125
11.764946 9.572600 -0.679022
12.467681 8.562785 -0.702564
12.276649 8.923929 -0.695702
12.205410 9.353100 -0.671326
12.004845 9.709295 -0.645857
12.713997 8.698214 -0.677122
12.538946 9.072884 -0.704397
12.434244 9.479139 -0.609749
12.253407 9.852578 -0.626890
12.978162 8.845415 -0.682905
12.785563 9.210140 -0.675581
12.713467 9.643044 -0.647673
12.511005 10.002639 -0.621840
13.239153 8.990076 -0.676823
13.045703 9.356711 -0.669260
12.964614 9.785204 -0.622606
12.773826 10.156343 -0.621964
13.487897 9.126123 -0.642073
13.315579 9.509792 -0.676554
13.242426 9.946944 -0.644939
13.042034 10.313774 -0.627104
13.755199 9.274302 -0.637955
13.560183 9.644517 -0.629923
13.508584 10.099432 -0.638468
13.302853 10.464846 -0.612020
14.019045 9.419782 -0.622053
13.845609 9.807727 -0.655565
13.775821 10.252253 -0.628563
13.586522 10.633294 -0.635166
14.293064 9.571671 -0.619450
14.109859 9.955541 -0.635836
14.026043 10.392049 -0.582106
13.853974 10.788500 -0.621410
14.558876 9.717715 -0.596752
14.384247 10.110053 -0.629267
14.331723 10.572284 -0.631294
14.122439 10.943996 -0.604189
14.873051 9.895389 -0.652889
14.673804 10.274703 -0.643759
14.602262 10.726116 -0.610785
14.410182 11.113848 -0.616138
15.141221 10.042179 -0.622927
14.964842 10.439876 -0.654354
14.873754 10.880202 -0.586767
14.680836 11.270000 -0.591715
15.405319 10.185943 -0.581429
15.218855 10.578933 -0.596132
15.203415 11.076090 -0.656141
15.008821 11.469398 -0.660543
15.734286 10.371889 -0.641508
15.536597 10.761625 -0.639578
15.477467 11.231004 -0.624432
15.243914 11.597447 -0.564314
16.025488 10.532585 -0.632757
15.802060 10.907793 -0.590433
15.771954 11.400218 -0.621050
15.556084 11.783544 -0.592735
16.322964 10.696952 -0.628082
16.118078 11.088237 -0.617495
16.067755 11.569851 -0.613657
15.850511 11.955596 -0.585098
16.626863 10.865059 -0.627310
16.420713 11.258980 -0.616405
16.359816 11.736292 -0.594368
16.166019 12.142881 -0.604851
16.921770 11.026891 -0.606674
16.740091 11.440622 -0.634724
16.678400 11.921144 -0.610205
16.483257 12.330787 -0.620123
17.244024 11.205986 -0.621111
17.035273 11.605300 -0.609560
16.978100 12.091989 -0.590490
16.776812 12.500427 -0.592140
17.546707 11.371973 -0.600023
17.336756 11.773799 -0.588160
17.299780 12.277879 -0.597494
17.081675 12.677936 -0.575550
17.829042 11.524460 -0.544044
17.639380 11.942611 -0.562651
17.623062 12.464310 -0.599932
17.398165 12.863461 -0.570000
18.155460 11.704862 -0.545506
17.986021 12.140547 -0.594061
17.947906 12.651252 -0.597775
17.747623 13.072602 -0.605459
18.527349 11.913860 -0.603029
18.312983 12.324684 -0.590120
18.274267 12.838679 -0.591000
18.067310 13.259182 -0.590576
18.840631 12.084848 -0.572229
18.641445 12.509294 -0.581543
18.602100 13.026564 -0.579569
18.372225 13.434404 -0.548750
19.166231 12.263248 -0.552048
18.949190 12.679582 -0.538462
18.953369 13.230185 -0.593149
18.721552 13.641403 -0.561996
19.544136 12.474396 -0.594004
19.325079 12.894700 -0.579990
19.306486 13.434434 -0.601561
19.094688 13.864932 -0.599476
19.872795 12.653746 -0.564138
19.657991 13.080672 -0.557117
19.638927 13.623748 -0.575554
19.447891 14.073268 -0.602112
20.260494 12.869946 -0.602587
20.060810 13.312323 -0.616922
19.972652 13.813403 -0.544788
19.757990 14.249915 -0.541647
20.621286 13.068565 -0.599031
20.391216 13.495515 -0.576603
20.376413 14.050641 -0.595461
20.136826 14.475363 -0.562956
20.989647 13.271415 -0.597378
20.781025 13.717266 -0.603256
20.713253 14.241224 -0.554382
20.494877 14.685185 -0.550039
21.324015 13.452384 -0.547625
21.114155 13.901190 -0.552961
21.097998 14.464006 -0.564976
20.854517 14.895476 -0.531797
21.731514 13.678707 -0.577759
21.507713 14.124155 -0.568361
21.484726 14.687439 -0.569721
21.262342 15.139325 -0.564121
22.123108 13.894454 -0.580700
21.915337 14.355633 -0.591742
21.873384 14.911489 -0.568590
21.648994 15.367333 -0.562363
22.541088 14.126067 -0.605459
22.282822 14.560299 -0.560431
22.263906 15.136117 -0.561543
22.031567 15.591727 -0.547825
22.924294 14.335396 -0.582609
22.694460 14.793068 -0.571678
22.656240 15.361287 -0.548553
22.421835 15.820828 -0.534266
23.074800 15.603458 -0.556581
22.813848 16.050438 -0.514727
23.470787 15.829705 -0.531347
23.262470 16.318930 -0.549238
23.949331 16.110638 -0.586128
23.670586 16.558247 -0.530283
24.317801 16.317039 -0.515154
24.043226 16.772144 -0.465729
24.504585 17.046993 -0.486280
24.955791 17.313904 -0.486553
25.345564 17.537571 -0.416142
0.484087 0.383172 24.380648
0.449006 0.355202 24.420809
0.467137 0.370980 24.402607
0.487945 0.384935 24.385969
0.504391 0.391147 24.375448
0.515642 0.403516 24.363752
0.497109 0.390591 24.383642
0.507062 0.392348 24.379360
0.518503 0.404802 24.367943
0.481088 0.375149 24.404552
0.465898 0.368899 24.416405
0.509675 0.393512 24.383322
0.521302 0.406049 24.372187
0.469474 0.367156 24.419294
0.502146 0.392835 24.391283
0.505269 0.390131 24.392923
0.489592 0.384119 24.404381
0.469910 0.370668 24.422707