# This PCD file was generated using the MATLAB® pcwrite function
# from Computer Vision System Toolbox®.
# .PCD v.7 - Point Cloud Data file format
VERSION .7
FIELDS x y z
SIZE 4 4 4
TYPE F F F
COUNT 1 1 1
WIDTH 753
HEIGHT 1
VIEWPOINT 0 0 0 1 0 0 0
POINTS 753
DATA ascii
-28.707108 -16.200645 -0.354816
-28.155296 -15.883453 -0.318970
-27.307760 -16.064390 -0.274147
-27.693964 -15.617085 -0.356413
-26.844786 -15.790918 -0.296858
-27.227472 -15.348015 -0.380180
-26.409885 -15.533952 -0.338087
-26.789328 -15.094961 -0.422455
-25.897934 -15.232228 -0.294079
-26.299717 -14.813353 -0.405643
-25.518431 -15.007812 -0.373791
-25.891083 -14.577123 -0.460224
-25.088169 -14.753957 -0.394478
-25.457560 -14.327171 -0.481934
-24.659534 -14.501179 -0.408478
-25.025650 -14.078292 -0.496943
-24.207232 -14.234753 -0.388634
-24.569786 -13.816244 -0.478100
-23.832546 -14.013637 -0.443991
-24.166950 -13.583901 -0.507006
-23.384033 -13.749675 -0.410692
-23.664623 -13.296370 -0.419060
-22.962563 -13.501578 -0.398294
-23.296768 -13.083824 -0.469755
-22.616631 -13.297543 -0.463985
-22.942331 -12.878870 -0.529160
-22.247137 -13.079908 -0.496243
-22.521114 -12.636966 -0.505247
-21.878876 -12.863101 -0.523052
-22.150742 -12.423450 -0.532259
-21.488014 -12.633266 -0.515509
-21.757488 -12.197390 -0.524925
-21.098932 -12.404576 -0.502089
-21.371998 -11.975792 -0.519001
-20.764435 -12.207716 -0.548992
-21.029751 -11.778301 -0.558811
-20.355360 -11.967627 -0.494823
-20.665007 -11.568485 -0.564121
-20.040678 -11.782478 -0.553921
-20.278484 -11.346769 -0.534256
-19.703876 -11.584579 -0.578566
-19.963129 -11.164554 -0.588959
-19.351318 -11.377625 -0.575682
-19.625648 -10.970226 -0.609013
-18.989147 -11.165190 -0.552422
-19.221567 -10.739271 -0.532639
-18.700584 -10.995575 -0.623930
-18.931959 -10.571634 -0.604094
-18.324963 -10.775527 -0.567598
-18.554173 -10.355494 -0.547729
-18.038109 -10.607079 -0.630623
-18.244370 -10.176964 -0.579481
-17.708923 -10.414159 -0.626991
-17.935486 -9.999049 -0.607025
-18.008932 -9.497829 -0.601940
-18.205118 -9.070100 -0.540079
-17.365303 -10.212957 -0.594997
-17.606127 -9.809993 -0.598734
-17.673195 -9.309313 -0.583536
-17.906330 -8.903659 -0.576954
-17.013063 -10.006848 -0.542166
-17.257053 -9.610240 -0.553993
-17.371096 -9.138453 -0.608393
-17.581299 -8.724504 -0.569971
-16.771465 -9.864979 -0.652672
-16.993786 -9.457740 -0.632572
-17.043552 -8.954539 -0.589018
-17.247000 -8.541031 -0.542475
-16.447783 -9.675597 -0.631170
-16.668503 -9.271307 -0.611031
-16.717594 -8.771630 -0.565136
-16.924974 -8.363790 -0.526545
-16.125704 -9.487232 -0.605164
-16.365294 -9.097104 -0.617474
-16.413883 -8.600407 -0.569345
-16.646242 -8.207850 -0.571358
-15.805272 -9.299907 -0.574697
-16.043020 -8.912583 -0.587164
-16.131723 -8.440462 -0.602285
-16.337103 -8.037272 -0.563486
-15.525921 -9.136463 -0.605579
-15.742412 -8.740052 -0.585308
-15.835193 -8.273235 -0.606869
-16.039505 -7.872492 -0.567968
-15.247309 -8.973525 -0.632843
-15.482491 -8.589876 -0.645611
-15.529857 -8.101630 -0.590963
-15.753114 -7.713314 -0.585135
-14.950275 -8.799992 -0.623228
-15.183894 -8.418664 -0.636147
-15.230844 -7.933444 -0.579329
-15.452716 -7.547550 -0.573605
-14.673498 -8.638265 -0.643129
-14.891415 -8.250909 -0.631086
-14.957378 -7.778514 -0.605692
-15.178206 -7.394433 -0.600054
-14.360179 -8.455456 -0.592138
-14.576441 -8.071013 -0.580107
-14.660748 -7.611857 -0.586422
-14.860796 -7.220907 -0.547163
-14.090237 -8.297834 -0.613033
-14.324191 -7.925410 -0.634853
-14.384385 -7.455717 -0.597189
-14.602712 -7.075993 -0.591745
-13.839259 -8.151260 -0.664549
-14.062983 -7.775010 -0.669529
-14.108950 -7.300184 -0.604450
-14.345043 -6.931387 -0.633192
-13.561694 -7.989368 -0.661697
-13.775023 -7.610166 -0.649658
-13.834474 -7.145278 -0.608231
-14.050570 -6.769422 -0.602964
-13.271982 -7.820518 -0.629477
-13.479453 -7.441313 -0.608843
-13.579081 -7.000191 -0.643021
-13.794335 -6.625782 -0.637825
-13.036015 -7.682832 -0.697182
-13.243017 -7.304648 -0.676495
-13.306359 -6.846437 -0.640074
-13.520497 -6.473961 -0.634966
-12.765751 -7.525371 -0.692646
-12.971726 -7.149174 -0.671917
-13.052261 -6.702232 -0.668522
-13.265555 -6.331203 -0.663490
-12.492332 -7.366154 -0.675968
-12.714375 -7.001347 -0.690115
-12.777088 -6.547517 -0.650171
-12.993590 -6.180600 -0.653975
-12.224300 -7.210119 -0.664585
-12.428156 -6.838020 -0.643772
-12.511683 -6.397872 -0.645935
-12.722741 -6.030709 -0.641079
-11.973752 -7.064260 -0.685089
-12.181022 -6.695909 -0.673044
-12.255677 -6.253085 -0.656084
-12.470086 -5.889468 -0.660131
-11.691656 -6.900227 -0.631731
-11.913923 -6.543127 -0.655106
-12.008703 -6.112935 -0.680885
-12.201289 -5.740895 -0.640703
-11.462701 -6.766978 -0.690365
-11.664115 -6.399758 -0.669422
-11.729782 -5.956962 -0.631474
-11.933698 -5.593082 -0.617958
-11.214316 -6.622560 -0.701736
-11.430820 -6.265351 -0.716484
-11.508399 -5.829793 -0.703846
-11.699830 -5.460956 -0.663488
-10.966642 -6.478613 -0.710133
-11.166574 -6.114407 -0.689102
-11.243616 -5.681150 -0.674910
-11.450171 -5.321697 -0.670425
-10.704693 -6.326479 -0.679522
-10.903605 -5.964264 -0.658455
-11.010982 -5.548565 -0.714939
-11.201259 -5.182931 -0.674417
-10.473524 -6.192192 -0.718067
-10.671973 -5.831000 -0.696957
-10.748263 -5.401239 -0.679817
-10.953121 -5.044673 -0.675476
-10.228130 -6.049745 -0.717640
-10.440583 -5.697934 -0.732828
-10.516655 -5.269366 -0.714294
-10.705784 -4.906937 -0.673620
-9.983549 -5.907827 -0.714304
-10.198606 -5.559293 -0.738722
-10.274369 -5.132349 -0.718748
-10.462992 -4.771402 -0.677998
-9.771110 -5.784533 -0.790499
-9.964424 -5.424891 -0.760099
-10.043541 -5.001042 -0.747904
-10.246468 -4.647711 -0.743732
-9.496925 -5.625634 -0.698975
-9.709816 -5.279716 -0.723663
-9.784930 -4.856326 -0.700819
-9.986732 -4.504924 -0.696735
-9.268291 -5.493100 -0.723921
-9.480375 -5.148007 -0.748739
-9.538103 -4.717507 -0.678328
-9.742500 -4.369214 -0.683552
-9.040011 -5.360826 -0.746298
-9.234593 -5.007723 -0.724947
-9.322704 -4.593989 -0.736393
-9.509517 -4.238605 -0.695345
-8.812107 -5.228827 -0.766108
-9.006232 -4.876749 -0.744717
-9.080705 -4.457747 -0.717724
-9.266948 -4.103968 -0.676615
-8.559566 -5.082657 -0.708769
-8.755877 -4.734259 -0.696672
-8.842910 -4.323666 -0.705589
-9.038555 -3.975638 -0.692413
-8.348337 -4.960394 -0.770012
-8.541343 -4.610733 -0.748549
-8.599647 -4.187128 -0.672001
-8.823517 -3.853137 -0.743128
-8.121903 -4.829407 -0.782099
-8.314453 -4.480773 -0.760599
-8.385366 -4.064474 -0.720160
-8.583087 -3.719900 -0.716423
-7.881346 -4.690320 -0.744589
-8.085040 -4.349571 -0.760719
-8.158912 -3.936135 -0.728342
-8.356052 -3.592515 -0.724653
-7.670442 -4.568407 -0.798725
-7.862084 -4.221828 -0.777159
-7.935901 -3.809515 -0.743479
-8.132530 -3.466728 -0.739836
-7.434359 -4.432011 -0.765390
-7.636646 -4.092866 -0.781683
-7.707508 -3.680486 -0.737215
-7.918219 -3.344859 -0.781017
-7.207483 -4.300981 -0.757853
-7.408961 -3.962821 -0.774221
-7.496628 -3.559684 -0.785479
-7.692372 -3.218318 -0.781916
-6.997082 -4.179514 -0.804949
-7.187366 -3.836021 -0.783287
-7.271918 -3.432562 -0.783857
-7.478290 -3.096686 -0.818476
-6.773733 -4.050625 -0.802080
-6.971451 -3.712229 -0.809042
-7.034478 -3.299756 -0.731966
-7.242367 -2.966367 -0.776312
-6.560916 -3.927866 -0.835072
-6.750576 -3.585948 -0.813345
-6.824247 -3.179483 -0.773251
-7.018249 -2.840979 -0.769835
-6.316744 -3.787060 -0.740973
-6.517746 -3.453622 -0.767239
-6.611391 -3.058068 -0.802738
-6.802502 -2.719023 -0.789742
-6.126015 -3.677153 -0.855820
-6.315053 -3.336809 -0.834034
-6.388817 -2.932383 -0.791449
-6.591978 -2.599166 -0.826633
-5.884133 -3.537768 -0.756540
-6.081448 -3.204298 -0.773333
-6.164527 -2.806080 -0.768085
-6.369186 -2.474694 -0.813070
-5.683748 -3.422389 -0.828564
-5.880946 -3.088691 -0.845415
-5.954844 -2.686325 -0.800365
-6.147069 -2.350662 -0.797106
-5.469998 -3.299344 -0.840420
-5.657896 -2.961727 -0.818552
-5.731780 -2.560828 -0.772263
-5.932523 -2.229600 -0.807842
-5.252415 -3.174134 -0.830587
-5.437816 -2.836366 -0.798979
-5.522479 -2.441393 -0.800074
-5.713812 -2.107149 -0.796888
-5.041332 -3.052729 -0.847631
-5.228682 -2.716568 -0.825714
-5.302791 -2.317620 -0.777012
-5.493542 -1.984329 -0.773872
-4.820895 -2.925968 -0.813692
-5.015611 -2.594869 -0.830774
-5.099880 -2.201007 -0.829689
-5.282310 -1.864843 -0.787531
-4.597712 -2.797667 -0.757818
-4.799066 -2.471533 -0.814051
-4.879195 -2.077076 -0.792301
-5.071258 -1.745510 -0.799000
-4.407317 -2.688361 -0.875769
-4.594089 -2.353962 -0.853781
-4.677997 -1.961230 -0.850529
-4.858478 -1.625710 -0.798487
-4.198702 -2.568576 -0.893822
-4.390621 -2.237153 -0.901239
-4.453122 -1.835937 -0.779152
-4.649759 -1.507339 -0.815380
-3.986951 -2.447026 -0.890074
-4.173385 -2.113722 -0.868044
-4.250143 -1.719482 -0.823309
-4.439348 -1.388521 -0.820303
-3.758749 -2.316005 -0.775850
-3.950584 -1.987760 -0.793175
-4.040288 -1.600388 -0.826038
-4.229184 -1.269894 -0.823059
-3.560259 -2.202220 -0.846384
-3.755164 -1.874946 -0.883455
-3.836929 -1.483811 -0.866045
-4.025789 -1.153296 -0.863071
-3.352709 -2.083241 -0.855732
-3.545617 -1.755458 -0.883001
-3.622876 -1.363348 -0.834883
-3.815873 -1.034908 -0.861561
-3.145299 -1.964390 -0.862951
-3.334983 -1.635548 -0.870502
-3.412386 -1.244349 -0.821262
-3.594446 -0.913764 -0.778824
-2.935584 -1.844249 -0.848249
-3.126107 -1.516541 -0.865723
-3.209024 -1.127915 -0.854971
-3.402559 -0.800113 -0.891659
-2.728655 -1.725770 -0.851202
-2.918781 -1.398317 -0.868708
-2.995333 -1.008117 -0.807339
-3.182678 -0.679950 -0.804485
-2.525161 -1.609333 -0.881804
-2.710494 -1.279742 -0.859655
-2.792052 -0.891825 -0.836868
-2.979361 -0.563638 -0.834019
-2.317397 -1.490462 -0.870630
-2.506866 -1.163276 -0.888193
-2.588533 -0.775445 -0.864353
-2.775807 -0.447238 -0.861509
-2.112800 -1.373479 -0.887156
-2.299008 -1.045042 -0.874920
-2.376540 -0.656761 -0.810251
-2.563228 -0.329504 -0.807447
-1.903004 -1.253512 -0.841908
-2.087839 -0.925566 -0.819727
-2.173198 -0.540577 -0.833570
-2.359850 -0.213301 -0.830772
-1.698750 -1.136820 -0.854252
-1.887026 -0.810399 -0.871893
-1.969668 -0.424333 -0.854847
-2.156284 -0.097036 -0.852053
-1.495170 -1.020572 -0.874502
-1.680933 -0.693166 -0.862263
-1.762741 -0.307441 -0.834211
-1.949046 0.019391 -0.831440
-1.294572 -0.906126 -0.942572
-1.480017 -0.577886 -0.920355
-1.556262 -0.190851 -0.811480
-1.745450 0.135578 -0.848602
-1.085866 -0.786960 -0.878923
-1.272739 -0.460371 -0.886639
-1.355478 -0.075074 -0.866482
-1.541711 0.251800 -0.863716
-0.883496 -0.671576 -0.922970
-1.069366 -0.344232 -0.910723
-1.149334 0.041231 -0.839617
-1.337845 0.368046 -0.876785
-0.678138 -0.554469 -0.905062
-0.862893 -0.227271 -0.872839
-0.945695 0.157301 -0.850618
-1.133867 0.484309 -0.887806
-0.475090 -0.438793 -0.945032
-0.659448 -0.111186 -0.892815
-0.741960 0.273378 -0.859573
-0.927809 0.599827 -0.856833
-0.270747 -0.322393 -0.952990
-0.456404 0.004923 -0.930742
-0.538145 0.389454 -0.866486
-0.723958 0.715924 -0.863743
-0.065805 -0.205664 -0.928898
-0.252100 0.121254 -0.936644
-0.334265 0.505520 -0.871347
-0.519698 0.831736 -0.858618
0.138441 -0.089414 -0.932745
-0.046391 0.237144 -0.860504
-0.130335 0.621568 -0.874165
-0.317151 0.949349 -0.911388
0.342728 0.026814 -0.934540
0.156943 0.353575 -0.912291
0.073628 0.737587 -0.874933
-0.111885 1.063758 -0.862204
0.547042 0.143009 -0.934288
0.361094 0.470125 -0.942036
0.277609 0.853570 -0.873655
0.091472 1.181737 -0.910881
0.751750 0.259347 -0.961977
0.565534 0.586345 -0.939726
0.481593 0.969507 -0.870331
0.296001 1.295633 -0.857599
0.954666 0.374745 -0.877640
0.769024 0.700934 -0.865393
0.685565 1.085390 -0.864956
0.500107 1.413944 -0.902166
1.160823 0.491756 -0.951204
0.974383 0.818626 -0.928959
0.890226 1.202858 -0.897499
0.704278 1.529423 -0.884752
1.365313 0.607863 -0.942738
1.178761 0.934670 -0.920498
1.093407 1.316959 -0.848074
0.908628 1.645897 -0.885254
1.569751 0.723893 -0.932222
1.383087 1.050637 -0.909986
1.298572 1.434618 -0.876493
1.112544 1.761138 -0.863749
1.776657 0.841221 -0.969570
1.587784 1.166917 -0.907408
1.505896 1.554694 -0.942736
1.319615 1.882824 -0.939928
1.983073 0.958246 -0.984859
1.794092 1.284511 -0.932701
1.710480 1.670689 -0.927065
1.522579 1.996019 -0.884392
2.188527 1.074700 -0.978115
2.000907 1.402346 -0.955898
1.917191 1.789083 -0.949205
1.732662 2.120731 -0.986216
2.390345 1.189100 -0.919483
2.202225 1.515671 -0.887314
2.119312 1.902347 -0.889580
1.935398 2.233701 -0.926575
2.597909 1.306623 -0.938513
2.412291 1.635852 -0.946188
2.323529 2.017993 -0.867762
2.136750 2.345370 -0.854998
2.802390 1.422394 -0.915634
2.617703 1.752301 -0.933241
2.533876 2.139546 -0.923420
2.347220 2.468746 -0.920559
3.010553 1.540161 -0.930464
2.824890 1.870007 -0.938107
2.741819 2.258448 -0.937159
2.554130 2.587234 -0.924349
3.218107 1.657546 -0.933235
3.029450 1.985727 -0.911076
2.951117 2.378380 -0.958685
2.763042 2.707750 -0.945858
3.428145 1.776268 -0.953735
3.237989 2.104254 -0.921667
3.155910 2.494160 -0.928503
2.971565 2.827525 -0.955299
3.636352 1.893927 -0.952257
3.446923 2.222955 -0.930119
3.368094 2.616251 -0.965553
3.180472 2.947470 -0.962599
3.851098 2.015186 -0.998129
3.665782 2.348427 -1.015581
3.577613 2.735852 -0.970722
3.389749 3.067576 -0.967743
4.057444 2.131716 -0.972569
3.870982 2.464317 -0.980104
3.788721 2.856615 -0.983606
3.599379 3.187833 -0.970730
4.272159 2.252870 -1.004139
4.081298 2.583656 -0.982048
3.992442 2.971286 -0.935150
3.804372 3.303535 -0.932140
4.477239 2.368596 -0.964481
4.291943 2.703131 -0.981819
4.202668 3.091142 -0.933886
4.014355 3.423895 -0.930849
4.694528 2.491098 -1.001472
4.502898 2.822732 -0.979418
4.413197 3.211120 -0.930447
4.223249 3.543119 -0.917559
4.899612 2.606730 -0.957581
4.714145 2.942451 -0.974838
4.624010 3.331211 -0.924828
4.435213 3.664971 -0.921738
5.119781 2.730751 -0.999893
4.927313 3.063356 -0.977875
4.841537 3.456289 -0.956198
4.652219 3.791039 -0.953064
5.332022 2.850291 -0.990896
5.144324 3.186684 -0.998262
5.046426 3.571689 -0.907030
4.863608 3.911995 -0.942970
5.535205 2.964711 -0.930849
5.342314 3.297558 -0.908886
5.265033 3.697278 -0.933868
5.081991 4.038740 -0.969692
5.763019 3.092872 -0.995558
5.569196 3.427117 -0.973608
5.484450 3.823274 -0.958351
5.294127 4.160019 -0.955116
5.968123 3.208270 -0.940968
5.781951 3.547439 -0.957968
5.704659 3.949666 -0.980467
5.513814 4.287398 -0.977184
6.199898 3.338554 -1.010569
6.011009 3.678122 -1.017797
5.925640 4.076442 -1.000200
5.726624 4.408957 -0.958101
6.413768 3.458762 -0.990366
6.226805 3.800210 -1.007248
6.130930 4.191819 -0.940132
5.939598 4.530558 -0.936790
6.634481 3.582755 -0.996939
6.438580 3.919676 -0.975088
6.352809 4.319000 -0.955236
6.160955 4.658726 -0.951849
6.851165 3.704440 -0.981850
6.663754 4.047557 -0.998606
6.575404 4.446532 -0.967924
6.383027 4.787245 -0.964491
7.056230 3.819566 -0.916370
6.866697 4.161334 -0.923447
6.798694 4.574404 -0.978184
6.596970 4.909239 -0.936296
7.300008 3.956331 -1.002403
7.109491 4.300109 -1.009428
7.010916 4.694424 -0.938093
6.829238 5.045291 -0.982473
7.525438 4.082766 -1.009014
7.336940 4.429116 -1.025566
7.237596 4.824413 -0.953140
7.043929 5.167603 -0.949581
7.751513 4.209511 -1.013168
7.560126 4.555363 -1.020098
7.472540 4.959944 -0.994265
7.278071 5.304603 -0.990639
7.978214 4.336555 -1.014847
7.778593 4.678593 -0.993168
7.688147 5.082026 -0.956673
7.490935 5.425308 -0.943514
8.202779 4.462351 -1.004545
8.002574 4.805182 -0.982904
7.911687 5.209462 -0.945236
7.716519 5.555489 -0.941534
8.433412 4.591494 -1.010742
8.232485 4.935362 -0.989128
8.141081 5.340765 -0.950258
7.953244 5.693780 -0.974829
8.638790 4.706435 -0.929434
8.437760 5.050244 -0.907862
8.379524 5.478046 -0.980967
8.180245 5.824650 -0.967728
8.890865 4.847486 -0.996611
8.685749 5.191406 -0.965658
8.619075 5.615893 -1.008923
8.410566 5.957805 -0.967487
9.117359 4.974151 -0.976379
8.926386 5.327916 -0.992382
8.848004 5.746456 -0.996666
8.647255 6.095434 -0.983366
9.350410 5.104435 -0.972366
9.159003 5.459397 -0.988281
9.077425 5.877239 -0.981859
8.867295 6.220802 -0.940567
9.606277 5.247446 -1.030958
9.386042 5.587379 -0.962938
9.307315 6.008231 -0.964497
9.117366 6.367738 -0.988327
9.837807 5.376767 -1.012201
9.645123 5.734854 -1.027927
9.550209 6.147731 -0.981627
9.350460 6.502228 -0.977509
10.096268 5.521118 -1.064882
9.889697 5.873347 -1.043509
9.794095 6.287730 -0.995909
9.593539 6.643695 -0.991726
10.312301 5.641649 -0.994606
10.121994 6.004266 -1.019363
10.022549 6.417429 -0.961349
9.837586 6.785646 -1.003084
10.562548 5.781284 -1.013914
10.364834 6.141514 -1.020170
10.254593 6.549404 -0.933416
10.069453 6.918799 -0.974926
10.806819 5.917515 -1.011969
10.601556 6.274958 -0.999859
10.514354 6.699400 -0.975901
10.328478 7.070941 -1.017145
11.041080 6.048084 -0.979847
10.849336 6.415016 -1.004200
10.761609 6.841055 -0.978819
10.561597 7.204679 -0.983467
11.290312 6.186976 -0.981411
11.094401 6.553335 -0.996542
11.009732 6.983136 -0.978815
10.808981 7.348266 -0.983356
11.544127 6.328374 -0.989082
11.332862 6.687577 -0.967947
11.258698 7.125628 -0.975866
11.053651 7.489793 -0.971287
11.776118 6.457496 -0.939711
11.582930 6.828737 -0.963631
11.523263 7.278072 -1.005880
11.320755 7.646695 -1.010187
12.058504 6.614763 -1.004293
11.860395 6.986290 -1.019093
11.759053 7.411789 -0.961081
11.567167 7.789075 -0.992105
12.311275 6.755392 -0.993872
12.097054 7.119183 -0.972858
12.025721 7.565284 -0.984816
11.817969 7.934330 -0.980007
12.580811 6.905340 -1.015995
12.365403 7.271027 -0.995020
12.293671 7.719431 -1.005228
12.100152 8.100917 -1.035755
12.839399 7.049099 -1.008242
12.623008 7.416316 -0.987312
12.547001 7.864055 -0.987005
12.352941 8.247157 -1.017302
13.107097 7.197889 -1.014982
12.893658 7.569317 -1.002897
12.817152 8.019304 -1.000858
12.606413 8.393714 -0.995800
13.380072 7.349565 -1.027191
13.177927 7.730349 -1.041389
13.092598 8.177768 -1.020058
12.880698 8.554246 -1.014906
13.637133 7.492276 -1.001112
13.417528 7.864575 -0.980314
13.365170 8.334236 -1.027063
13.152180 8.712663 -1.021824
13.912165 7.644969 -1.006664
13.712728 8.031904 -1.029287
13.634639 8.488583 -1.021984
13.420627 8.868834 -1.016659
14.192714 7.800678 -1.017405
14.001031 8.194985 -1.057114
13.892171 8.635228 -0.987709
13.677346 9.016945 -0.982315
14.465539 7.952001 -1.007412
14.242385 8.329995 -0.986742
14.167711 8.793152 -0.984568
13.951794 9.176816 -0.979084
14.743822 8.106304 -1.002571
14.519487 8.486199 -0.981945
14.462014 8.962770 -1.011999
14.244723 9.348863 -1.006407
15.041528 8.271390 -1.028214
14.833871 8.664444 -1.041616
14.721869 9.110508 -0.967772
14.521473 9.509877 -0.995979
15.303415 8.416392 -0.982342
15.076723 8.800089 -0.961807
15.036911 9.292846 -1.021477
14.817155 9.683315 -1.015694
15.622504 8.593277 -1.034161
15.394087 8.979848 -1.013662
15.316921 9.452979 -1.003851
15.096069 9.845393 -0.997978
15.905189 8.749749 -1.014791
15.670869 9.135425 -0.985985
15.597836 9.613544 -0.982641
15.394365 10.020141 -1.009983
16.203333 8.914783 -1.016760
15.991517 9.316863 -1.029587
15.917643 9.798310 -1.024086
15.694041 10.195581 -1.018000
16.507635 9.083178 -1.023088
16.294624 9.487786 -1.035765
16.200775 9.959962 -0.995270
15.957095 10.346663 -0.956186
16.798309 9.243886 -1.000761
16.564646 9.639044 -0.980444
16.523735 10.146327 -1.028269
16.297380 10.548455 -1.021973
17.125221 9.424743 -1.031809
16.889837 9.822779 -1.011532
16.828703 10.321290 -1.024277
16.600969 10.725843 -1.017876
17.428339 9.592237 -1.017830
17.216780 10.007407 -1.038143
17.134897 10.496856 -1.016193
16.905787 10.903836 -1.009689
17.758390 9.774681 -1.040148
17.519917 10.177869 -1.019957
17.442282 10.673004 -1.004004
17.231770 11.095473 -1.029490
18.069181 9.946293 -1.025898
17.834425 10.354914 -1.013758
17.766195 10.859249 -1.011602
17.534117 11.271443 -1.004873
18.402271 10.130260 -1.039320
18.181538 10.551017 -1.051029
18.076027 11.036594 -0.990953
17.863035 11.464545 -1.015800
18.736942 10.315018 -1.048147
18.493595 10.726362 -1.028084
18.407917 11.227434 -0.997606
18.188330 11.655061 -1.014248
19.029831 10.476396 -0.989565
18.806702 10.902207 -1.000937
18.741320 11.419027 -0.999619
18.525490 11.853060 -1.023792
19.388937 10.674600 -1.020716
19.164061 11.103914 -1.031910
19.076191 11.611348 -0.996964
18.853638 12.044986 -1.013039
19.749960 10.873780 -1.046749
19.501482 11.293774 -1.026810
19.455887 11.831114 -1.051260
19.215223 12.258331 -1.043911
20.090488 11.061440 -1.036896
19.840303 11.484322 -1.017002
19.794029 12.025067 -1.038738
19.546286 12.451695 -1.023621
20.454969 11.262355 -1.052809
20.225136 11.701687 -1.063452
20.155664 12.233294 -1.051836
19.911392 12.666808 -1.044231
20.815514 11.460976 -1.055935
20.544518 11.880576 -1.013412
20.519049 12.442395 -1.059698
20.272833 12.879297 -1.051954
21.189194 11.666813 -1.068949
20.955872 12.113148 -1.079208
20.844519 12.628046 -1.009935
20.613607 13.078263 -1.024509
21.558834 11.870296 -1.069103
21.300741 12.306676 -1.049356
21.227983 12.849086 -1.029892
20.978151 13.292280 -1.021893
21.900684 12.058211 -1.026962
21.670023 12.514333 -1.044237
21.619152 13.074626 -1.051531
21.361389 13.518038 -1.036018
22.273222 12.263105 -1.016748
22.040867 12.722757 -1.033762
21.988993 13.286912 -1.038116
21.758020 13.752097 -1.059023
22.719189 12.508752 -1.088486
22.460627 12.959571 -1.076122
22.360321 13.499917 -1.019308
22.127621 13.968610 -1.039843
23.071165 12.701990 -1.037899
22.834885 13.169678 -1.054379
22.780592 13.742597 -1.052536
22.522125 14.200786 -1.043949
23.448519 12.909241 -1.010981
23.180361 13.362871 -0.991421
23.155165 13.957187 -1.022360
22.888823 14.414988 -1.006519
23.901121 13.158226 -1.063740
23.630182 13.616700 -1.044201
23.555248 14.187130 -1.014938
23.316513 14.667786 -1.034294
24.275551 13.363625 -1.018080
24.033438 13.843237 -1.033741
24.005850 14.447595 -1.057495
23.734373 14.914037 -1.041447
24.450756 14.077792 -1.031199
24.409689 14.679387 -1.037518
24.160273 15.165113 -1.049110
24.839939 14.927011 -1.038948
24.539051 15.386050 -0.995243
25.240808 15.156590 -0.999718
24.993217 15.654501 -1.017429
25.680902 15.409751 -0.994936
25.449661 15.924082 -1.032450
25.845360 16.155006 -0.973497
0.517881 0.161118 25.896215
0.607638 0.220331 25.806507
0.586188 0.202160 25.835688
0.564506 0.193008 25.854630
0.585587 0.206111 25.837633
0.595531 0.207610 25.833233
0.573492 0.198425 25.851768
0.588142 0.207479 25.841349
0.598151 0.209012 25.837112
0.555480 0.186966 25.873240
0.571840 0.193136 25.862818
0.556492 0.187506 25.874779
0.545150 0.177058 25.887974
0.557493 0.188040 25.876328
0.594981 0.206860 25.848822
0.593081 0.210114 25.848928
0.568042 0.190647 25.873644
0.580351 0.202085 25.862293
0.567432 0.193955 25.875383