# This PCD file was generated using the MATLAB® pcwrite function
# from Computer Vision System Toolbox®.
# .PCD v.7 - Point Cloud Data file format
VERSION .7
FIELDS x y z
SIZE 4 4 4
TYPE F F F
COUNT 1 1 1
WIDTH 893
HEIGHT 1
VIEWPOINT 0 0 0 1 0 0 0
POINTS 893
DATA ascii
40.928329 -23.414503 4.728800
40.029427 -23.571245 5.251518
40.199013 -24.096348 5.033892
39.963589 -23.512352 4.777372
40.175911 -24.031473 4.504354
39.983707 -23.429226 4.186357
40.145447 -23.966953 3.972811
40.034569 -23.254181 2.949139
40.134670 -23.820976 2.810040
39.945400 -23.195137 2.459858
40.104927 -23.751566 2.240814
39.931885 -23.113503 1.858662
40.114258 -23.670515 1.606014
37.458065 -23.725922 4.619101
37.430458 -24.284058 4.651733
37.049614 -23.762039 4.604359
37.016846 -24.318518 4.646078
36.654068 -23.795313 4.578182
36.604942 -24.353420 4.645231
36.220676 -23.840532 4.613354
36.217236 -24.382729 4.616590
35.833862 -23.873022 4.588297
35.830769 -24.412460 4.592306
35.453777 -23.904287 4.559357
35.423733 -24.448641 4.605307
35.047981 -23.944187 4.575972
35.040176 -24.479204 4.589848
34.665371 -23.977917 4.563988
34.658005 -24.510172 4.578671
34.263256 -24.018621 4.589720
34.277252 -24.541538 4.571749
33.925087 -24.039989 4.519152
33.897972 -24.573298 4.569061
33.546577 -24.074898 4.519697
33.520203 -24.605442 4.570574
33.149586 -24.116756 4.558424
33.164078 -24.631947 4.542202
32.774529 -24.152416 4.567495
32.769398 -24.670858 4.586115
32.420540 -24.181877 4.546354
32.435394 -24.692093 4.531252
32.048504 -24.218266 4.563490
32.029972 -24.736233 4.609514
31.697020 -24.248449 4.550022
31.712246 -24.753691 4.536034
31.485519 -24.229866 4.278906
31.492043 -24.740030 4.282341
30.979351 -24.316425 4.569239
30.999521 -24.815193 4.547575
30.672016 -24.332943 4.487892
30.670010 -24.838223 4.510586
30.285439 -24.379223 4.568474
30.288261 -24.879545 4.583147
30.155087 -25.379889 4.526932
30.173792 -25.871235 4.510019
29.962013 -24.402966 4.529196
29.961025 -24.903252 4.553284
29.798119 -25.411587 4.561476
29.795437 -25.906376 4.589727
29.634909 -24.428682 4.502056
29.634506 -24.927298 4.526720
29.472549 -25.434126 4.537096
29.474739 -25.926022 4.556917
29.271118 -24.469387 4.558733
29.275370 -24.963600 4.575167
29.114603 -25.467808 4.587997
29.121426 -25.955704 4.599421
28.889126 -24.518520 4.664265
28.951027 -24.988297 4.555452
28.791246 -25.490992 4.570440
28.798553 -25.977211 4.582323
28.627506 -25.013319 4.538994
28.468727 -25.514500 4.556124
28.476521 -25.999043 4.568459
28.304836 -25.038664 4.525772
28.147083 -25.538324 4.545027
28.143618 -26.024807 4.585176
27.715498 -24.686930 5.115353
27.967638 -25.070253 4.552202
27.795746 -25.573202 4.610273
27.819771 -26.048466 4.586987
27.644043 -24.609304 4.517330
27.662186 -25.090302 4.508972
27.480328 -25.596292 4.596668
27.504534 -26.070023 4.573669
27.323839 -24.637255 4.513323
27.327496 -25.122490 4.542063
27.143738 -25.627714 4.641415
27.157040 -26.102678 4.646460
26.986612 -24.673571 4.558437
27.008881 -25.149067 4.541756
26.844778 -25.646065 4.597231
26.854954 -26.121239 4.611851
26.668797 -24.702112 4.560925
26.677155 -25.181828 4.581560
26.542538 -25.666067 4.565138
26.539207 -26.144886 4.617264
26.355461 -24.729342 4.557295
26.374714 -25.203110 4.550583
26.213348 -25.697018 4.610336
26.224520 -26.168825 4.625790
26.053099 -24.752056 4.528879
26.059227 -25.230568 4.559683
25.912605 -25.717621 4.584217
25.910927 -26.193048 4.637413
25.738089 -24.781483 4.540577
25.744839 -25.258312 4.571880
25.586285 -25.749115 4.635845
25.598455 -26.217554 4.652111
25.424208 -24.811192 4.555367
25.431587 -25.286337 4.587164
25.299845 -25.765022 4.578077
25.646870 -26.108856 3.607010
25.111488 -24.841175 4.573223
25.272400 -25.243284 4.145479
25.337749 -25.643042 3.533916
25.361513 -26.121326 3.520874
24.917973 -24.809395 4.227633
25.898397 -24.294006 1.182842
25.081997 -25.212456 3.779461
25.063412 -25.650766 3.412365
25.090609 -26.128275 3.389942
25.858177 -24.163887 0.235741
24.909641 -25.170586 3.338757
25.917236 -24.676353 0.118725
23.503960 -26.233706 7.451643
24.787788 -25.658873 3.293106
23.609020 -26.618057 7.170134
25.559065 -24.169411 0.089874
24.626987 -25.181385 3.239445
25.568890 -24.707167 0.133595
23.309097 -26.219711 7.194052
25.422918 -25.248199 0.127121
25.425682 -25.782621 0.195179
25.230530 -24.191166 0.041233
25.246811 -24.725307 0.066341
23.080080 -26.220493 7.042427
25.084900 -25.273888 0.118732
25.088715 -25.807014 0.187267
24.893948 -24.218006 0.024071
24.921730 -24.745256 0.011478
22.806313 -26.242422 7.045361
24.766323 -25.290812 0.046669
22.795391 -26.677231 7.153811
24.763210 -25.827087 0.144253
24.557926 -24.245178 0.010025
24.575575 -24.777042 0.035885
22.533274 -26.264603 7.050861
24.418827 -25.322346 0.082703
22.526260 -26.697083 7.150236
24.429985 -25.850977 0.132946
24.222500 -24.272678 -0.000912
22.399086 -25.841927 6.970596
24.238295 -24.804832 0.034874
22.233425 -26.301224 7.164463
24.067772 -25.356745 0.141251
22.262751 -26.714884 7.129940
22.594946 -26.562841 5.861506
24.092337 -25.877493 0.143936
23.897457 -24.294243 -0.047031
23.916523 -24.824377 -0.020531
22.224382 -26.184948 6.136700
23.759703 -25.369541 0.039692
22.050596 -26.708853 6.909782
22.653816 -26.424221 4.521164
23.562965 -24.322403 -0.051872
23.573244 -24.857082 0.013420
21.730463 -26.326206 7.034470
23.457626 -25.378891 -0.088142
21.821102 -26.710125 6.749039
23.231417 -24.349323 -0.063251
23.270144 -24.865967 -0.113129
23.147282 -25.392502 -0.184494
22.739107 -26.133120 1.675846
23.169123 -25.916687 -0.162159
22.941967 -24.347088 -0.254646
22.972143 -24.871035 -0.266109
22.805618 -25.424332 -0.142677
22.525269 -26.104538 1.227425
22.605700 -24.377827 -0.241047
22.621422 -24.910374 -0.184540
21.132469 -26.268301 6.109123
22.484123 -25.445017 -0.184948
21.217722 -26.663202 5.821093
22.226761 -26.118484 1.139477
22.272379 -24.407324 -0.234035
22.295141 -24.934496 -0.206215
20.478643 -26.531511 7.966732
22.142580 -25.478691 -0.127197
20.973408 -26.667410 5.676495
21.949505 -24.429436 -0.272423
21.965248 -24.961750 -0.205547
20.238497 -26.542591 7.896460
21.821814 -25.500027 -0.163597
20.755934 -26.655207 5.387619
21.875132 -26.002951 -0.286388
21.637672 -24.442699 -0.366203
21.662016 -24.969784 -0.338055
20.059704 -26.511333 7.496691
20.120457 -26.894617 7.297606
21.312469 -24.467062 -0.389252
21.344652 -24.987989 -0.399849
19.858681 -26.491964 7.185783
21.201128 -25.528736 -0.345097
19.913147 -26.882395 7.015394
20.987448 -24.491760 -0.409416
20.999790 -25.028728 -0.302750
20.871061 -25.557381 -0.324257
19.744665 -26.841957 6.479855
20.664223 -24.515270 -0.436447
20.682816 -25.047598 -0.358784
19.325455 -26.546621 7.293024
19.603275 -26.327299 5.558777
19.459757 -26.877174 6.612291
20.333538 -24.546684 -0.411774
19.118160 -26.198187 7.643820
20.374483 -25.058588 -0.470798
19.075724 -26.561892 7.252216
19.174599 -26.914692 6.767117
20.015144 -24.566322 -0.462387
18.902550 -26.183300 7.388901
20.040392 -25.093288 -0.413586
19.244938 -26.208900 4.265972
19.907387 -25.626593 -0.391243
18.943254 -26.913046 6.570444
19.689690 -24.593838 -0.461254
19.719877 -25.115961 -0.441654
18.887413 -26.302210 4.835688
19.581135 -25.655220 -0.368568
18.962721 -26.703617 4.483862
19.370941 -24.614182 -0.506271
19.396816 -25.141693 -0.447262
19.254503 -25.685350 -0.333111
18.292143 -27.067623 7.612898
18.677786 -26.730951 4.535179
19.048363 -24.639360 -0.519062
19.072922 -25.169094 -0.440178
18.938019 -25.706055 -0.373623
18.050358 -27.079449 7.541859
18.723824 -24.667835 -0.509350
18.751728 -25.194105 -0.449924
17.847807 -26.613594 6.843857
18.620169 -25.728323 -0.401505
17.893757 -27.005116 6.672127
18.404774 -24.689217 -0.545975
18.428753 -25.222122 -0.437130
17.595291 -26.629515 6.805994
17.651897 -27.008505 6.515385
18.075544 -24.727161 -0.471481
18.108185 -25.247765 -0.441216
17.979738 -25.779861 -0.399521
17.366625 -27.060905 6.816217
18.017294 -26.289045 -0.423740
17.756910 -24.749189 -0.502464
17.790354 -25.269737 -0.472126
17.662828 -25.801937 -0.428951
17.697493 -26.315298 -0.413490
17.434410 -24.778877 -0.481350
17.465652 -25.303970 -0.411304
17.342878 -25.829092 -0.416008
17.375299 -26.346027 -0.360752
17.118967 -24.794304 -0.556129
17.154022 -25.314735 -0.525646
17.028378 -25.847137 -0.479549
16.566727 -27.180027 7.377611
17.065010 -26.359367 -0.473904
16.796944 -24.824629 -0.529404
16.832748 -25.344315 -0.498779
16.708755 -25.874937 -0.461048
16.745382 -26.387602 -0.445374
16.477959 -24.848026 -0.549274
16.516956 -25.361130 -0.568115
16.391462 -25.898378 -0.479427
16.425110 -26.419189 -0.384224
16.158840 -24.871769 -0.566376
16.196257 -25.391335 -0.535656
16.074047 -25.922161 -0.495056
16.109060 -26.442871 -0.399780
15.838439 -24.901573 -0.541134
15.877832 -25.415361 -0.549950
15.756535 -25.946285 -0.507923
15.636167 -27.028353 5.106707
15.519470 -24.925976 -0.552677
15.559323 -25.439728 -0.561474
15.438948 -25.970749 -0.518032
15.477473 -26.487228 -0.462456
15.200912 -24.945053 -0.601036
15.240751 -25.464436 -0.570232
15.121699 -25.991001 -0.565128
15.161289 -26.507957 -0.509575
14.881495 -24.970161 -0.607040
14.922142 -25.489477 -0.576221
14.803648 -26.020683 -0.529972
14.844234 -26.536013 -0.484303
14.562065 -24.995604 -0.610268
14.603519 -25.514856 -0.579433
14.485677 -26.041662 -0.571548
14.527043 -26.554518 -0.555786
14.242645 -25.021381 -0.610718
14.284251 -25.534283 -0.629482
14.167688 -26.067490 -0.570614
14.209724 -26.580292 -0.554855
13.923261 -25.047491 -0.608387
13.965239 -25.560360 -0.627163
13.850750 -26.098083 -0.527176
13.893412 -26.610275 -0.511360
13.602354 -25.067026 -0.652786
13.646286 -25.586769 -0.622063
13.531877 -26.120136 -0.560459
13.575253 -26.632826 -0.544716
13.284291 -25.099325 -0.605309
13.327417 -25.613506 -0.614193
13.211980 -26.141479 -0.600883
13.258149 -26.659582 -0.535507
12.963111 -25.120962 -0.634228
13.008657 -25.640570 -0.603554
12.893890 -26.168652 -0.588882
12.941164 -26.686661 -0.523548
12.641945 -25.144341 -0.650455
12.688331 -25.664293 -0.619869
12.573553 -26.191832 -0.613800
12.621975 -26.710299 -0.548580
12.322407 -25.172142 -0.634216
12.369597 -25.692024 -0.603672
12.255428 -26.219677 -0.596249
12.301586 -26.733381 -0.580757
11.997046 -25.189516 -0.694244
12.045130 -25.710430 -0.663902
11.931322 -26.239332 -0.655239
11.981282 -26.757786 -0.600197
11.676363 -25.216682 -0.682281
11.726089 -25.738861 -0.642117
11.616348 -26.272099 -0.592476
11.667277 -26.789907 -0.537441
11.356662 -25.245510 -0.657654
11.407280 -25.767609 -0.617554
11.294748 -26.296732 -0.606201
11.591352 -27.053337 2.046337
11.338335 -26.806816 -0.640545
11.030142 -25.265409 -0.699276
11.076730 -25.782482 -0.708778
11.254334 -26.605690 2.083454
11.308359 -27.090252 2.181843
11.015317 -25.659721 2.070011
10.704885 -25.288359 -0.718296
11.060400 -26.139576 2.075504
10.991289 -26.661909 2.389324
11.015364 -27.117447 2.210842
10.996774 -25.992474 4.403980
10.732887 -25.701645 2.208832
11.026947 -26.427170 4.305285
10.790121 -26.191595 2.313091
10.709285 -26.697481 2.499748
10.717886 -27.141384 2.202835
10.707865 -26.004175 4.326651
10.456471 -25.747566 2.379513
10.764193 -26.464746 4.434700
10.519997 -26.240082 2.523289
10.847159 -27.062315 5.808550
10.413485 -26.721012 2.494179
10.530047 -27.241127 3.047035
10.432279 -26.030487 4.359999
10.180082 -25.790960 2.532806
10.498089 -26.497824 4.526932
10.243885 -26.280506 2.666756
10.505611 -27.029005 5.269876
10.109064 -26.738844 2.432102
10.599729 -27.494497 5.648546
10.161345 -26.060902 4.425184
9.904663 -25.833157 2.678574
10.206151 -26.509373 4.434624
9.941391 -26.298193 2.615891
10.287527 -27.087837 5.630428
9.812056 -26.763113 2.431839
10.340023 -27.521713 5.703527
9.831988 -27.220440 2.253727
9.886688 -26.087713 4.463293
9.625393 -25.870361 2.787407
9.936594 -26.539530 4.502111
9.640748 -26.318573 2.587395
9.923664 -27.049273 5.029194
10.064089 -27.539768 5.652456
9.525968 -27.241447 2.206959
9.604330 -26.108471 4.454845
9.318662 -25.884993 2.722401
9.619828 -26.536156 4.277714
9.355320 -26.350590 2.659660
9.519577 -26.994383 4.255249
9.218769 -26.813660 2.449020
9.515875 -27.417305 3.962091
9.238285 -27.273010 2.280956
9.304505 -26.117029 4.351177
9.378195 -26.585955 4.516693
9.047174 -26.367203 2.597271
9.167028 -26.978168 3.858433
9.310442 -27.480190 4.419060
8.949833 -27.303957 2.347584
9.079292 -26.179655 4.670012
9.179439 -26.660027 4.972630
8.751772 -26.393135 2.615948
8.993233 -27.062376 4.473494
8.628387 -26.867464 2.496300
9.100061 -27.536818 4.808599
8.628073 -27.319435 2.230442
8.902331 -26.270489 5.214544
8.646018 -26.101065 3.879442
8.434607 -25.961319 2.778221
8.887854 -26.674290 4.902449
8.454453 -26.418289 2.627464
8.701169 -27.080807 4.424654
8.956266 -27.619255 5.512646
8.754091 -26.372955 5.857145
8.118301 -25.973892 2.695019
8.867029 -26.841599 6.199726
8.549915 -26.663940 4.610773
8.174438 -26.453587 2.729374
8.382160 -27.087345 4.251671
8.535444 -27.581837 4.780478
8.059820 -27.386068 2.415768
8.508512 -26.409973 5.985273
8.574041 -26.850128 6.084044
8.167894 -26.633921 4.137691
7.840948 -26.459871 2.570869
8.593806 -27.337591 6.604496
8.166948 -27.143341 4.588322
8.568989 -27.728493 6.277369
8.089162 -27.541283 3.994759
8.271149 -26.450716 6.144493
8.291321 -26.865631 6.029482
7.472498 -26.450731 2.269924
8.433838 -27.405394 7.084730
7.321624 -26.923958 2.048504
8.431721 -27.799955 6.875599
7.806008 -27.568176 4.022591
8.259507 -26.612799 7.283081
8.423164 -27.082483 7.810255
8.310843 -27.484589 7.691725
7.973814 -27.345617 6.226397
7.933648 -27.740040 5.850954
7.987217 -26.627659 7.241293
8.142306 -27.091858 7.709105
8.100703 -27.524694 7.891958
7.617824 -27.749615 5.676609
6.108028 -27.243395 -0.676872
7.885165 -26.728081 7.896151
7.982486 -27.156071 8.112955
7.349668 -26.877113 5.534071
7.879203 -27.559328 8.035734
7.310129 -27.345556 5.745024
5.698951 -26.740322 -0.740494
7.929320 -27.961462 8.061064
7.284150 -27.755280 5.447399
7.771923 -26.817013 8.464111
7.696723 -27.163914 7.997002
7.813848 -27.649355 8.779245
6.675499 -27.240498 4.361851
7.814298 -28.026508 8.612278
5.427062 -27.298559 -0.709404
7.515180 -26.835320 8.456034
7.504932 -27.211300 8.249380
5.123593 -26.248724 -0.772099
7.555415 -27.667595 8.751949
7.157125 -27.530678 7.260265
7.657239 -28.075909 8.970654
7.197239 -26.827404 8.230045
7.317059 -27.258518 8.503004
6.677102 -27.010420 6.161530
7.311940 -27.691450 8.784708
7.373842 -28.088150 8.848898
7.046023 -26.892416 8.609468
6.908460 -27.221958 7.963198
6.285942 -26.990273 5.761200
5.879951 -26.839172 4.325115
7.074006 -27.717293 8.838810
7.125984 -28.111118 8.864347
6.685250 -26.869551 8.255474
5.957026 -26.574251 5.777069
6.785674 -27.292568 8.440756
4.098683 -26.331699 -0.756725
6.695452 -27.700615 8.417219
6.827312 -28.121485 8.709799
6.649429 -26.977240 8.999126
5.657245 -26.589844 5.728180
6.641940 -27.352673 8.823112
6.187904 -27.196543 7.317829
5.742490 -27.043377 5.841129
6.593608 -27.767944 8.934229
6.670031 -28.167831 9.035721
6.397558 -26.997787 9.011122
6.347610 -27.360481 8.702291
5.419162 -27.053236 5.718470
3.396685 -26.383951 -0.781315
6.332925 -27.787773 8.918602
5.747437 -27.624027 7.055275
3.291978 -26.937290 -0.759296
6.241146 -28.149021 8.476843
4.937911 -27.843689 4.306383
6.102618 -27.003151 8.893032
6.084033 -27.379530 8.688778
6.117441 -27.820358 9.047688
5.349934 -27.613945 6.677389
6.184247 -28.217609 9.110367
3.012829 -27.504858 -0.737022
5.839484 -27.021168 8.881781
4.918349 -26.698681 6.108494
2.615510 -25.892460 -0.824715
5.919547 -27.429636 8.980234
5.812185 -27.829359 8.904303
5.877074 -28.229000 8.956865
5.620559 -27.054773 9.004742
4.552980 -26.693886 5.881853
5.765944 -27.481380 9.291372
5.655864 -27.876883 9.207298
2.236428 -27.025070 -0.757984
5.685883 -28.265757 9.156061
5.396555 -27.086315 9.110716
1.894245 -25.942482 -0.849697
5.525100 -27.506521 9.340052
5.427890 -27.905809 9.294796
5.312425 -28.265617 8.829327
5.072358 -27.085976 8.938034
1.537049 -25.969856 -0.842945
5.237294 -27.518902 9.259733
4.707929 -27.820957 8.025351
3.280327 -27.490908 4.089233
5.162969 -28.310558 9.145338
4.851783 -27.119131 9.057919
4.726562 -27.472998 8.584612
3.618767 -27.178013 5.586300
2.918200 -26.991465 3.690170
4.800553 -27.925373 9.008524
4.948959 -28.342434 9.274780
4.629069 -27.151344 9.170319
0.809663 -26.022898 -0.847023
4.726187 -27.563423 9.294315
3.125937 -27.151735 5.076426
4.674490 -27.977499 9.373428
4.693913 -28.366861 9.294010
4.083284 -28.258984 7.689672
4.541710 -27.222034 9.627272
4.488128 -27.590662 9.361660
4.415631 -28.000492 9.385807
4.398558 -28.384827 9.213406
4.257825 -27.235634 9.576050
4.209883 -27.608351 9.329388
4.115303 -28.015633 9.298927
3.586506 -27.909847 7.985315
4.008281 -28.388174 8.904289
3.979884 -27.251753 9.546165
4.058703 -27.656338 9.613363
3.926856 -28.053383 9.491829
3.922879 -28.441486 9.357096
3.835986 -27.303513 9.839973
3.630249 -27.640732 9.227419
3.636117 -28.071524 9.437990
3.596719 -28.456667 9.220518
3.487293 -27.302242 9.650198
3.446192 -27.681240 9.432680
2.733801 -27.526106 7.776016
3.054248 -28.038076 8.719063
3.014439 -28.435722 8.500879
3.227101 -27.324440 9.673803
2.321242 -27.102911 7.626160
2.574224 -27.576059 8.070660
2.936290 -28.089645 9.084200
3.084185 -28.510021 9.296352
1.923710 -27.099583 7.397125
-1.845142 -26.205458 -0.925655
2.287871 -27.598997 8.075272
2.337263 -28.059059 8.377470
2.488490 -28.491440 8.587305
1.525470 -27.098186 7.181864
-2.207247 -26.238876 -0.873871
2.292927 -27.680120 8.716225
1.363669 -27.971905 6.900919
-2.254759 -27.384857 -0.889744
2.210702 -28.517864 8.602570
1.565350 -28.434164 7.206823
1.357036 -27.150137 7.466078
-2.654915 -26.253689 -0.998478
1.836152 -27.669733 8.354536
1.146974 -28.011488 7.088335
1.445600 -28.483936 7.591522
0.284357 -28.339018 5.136139
1.353264 -27.236708 8.082554
-3.032166 -26.285389 -0.965820
1.146931 -27.618830 7.531881
1.255187 -28.099941 7.941525
0.771266 -28.026646 6.945257
0.117320 -27.927601 5.598949
1.253321 -28.523844 7.814344
0.031639 -28.377161 5.288067
0.864223 -27.217960 7.697796
1.112746 -27.690893 8.077921
-3.319181 -26.893860 -0.906803
0.951238 -28.124443 7.932697
0.886926 -28.543217 7.680286
-0.179652 -28.420027 5.522665
0.376493 -27.202442 7.337152
-0.721027 -26.977909 5.169519
-3.820179 -26.343876 -0.951378
0.808851 -27.713591 8.070536
-0.048307 -27.564190 6.370224
-3.741718 -26.920441 -0.956245
0.515215 -28.130901 7.668959
-0.618143 -27.970621 5.435150
0.737894 -28.587885 7.987293
0.393931 -27.290117 7.973467
-0.791136 -27.054607 5.682560
-4.231947 -26.370813 -0.969028
0.339494 -27.708996 7.747242
0.284878 -28.167341 7.818268
0.460354 -28.618071 8.037395
1.328706 -27.551863 10.324556
0.235319 -27.340755 8.255154
0.077050 -27.740639 7.835892
-4.518965 -26.987940 -0.900242
-0.621001 -28.114471 6.690393
-4.636961 -27.584179 -0.895832
0.187327 -28.649076 8.099070
-1.098181 -28.517057 5.660292
1.144724 -27.590805 10.509886
1.188413 -27.990574 10.483271
-0.217927 -27.767290 7.865496
-0.332456 -28.219931 7.823988
-0.189813 -28.670118 7.969887
1.015866 -27.639359 10.792479
-0.449954 -27.372110 8.131193
0.810170 -27.998093 10.311432
-0.331213 -27.822403 8.230379
0.799347 -28.424679 10.445011
-0.367734 -28.280821 8.329914
-0.700129 -28.679651 7.608784
0.637083 -27.642651 10.623842
0.622827 -28.035574 10.492340
-5.783621 -27.079489 -0.951691
0.466834 -28.443573 10.365314
-0.718617 -28.302414 8.260279
-0.597208 -28.747108 8.361046
0.487379 -27.686958 10.866060
0.205086 -28.039398 10.267532
-1.170333 -27.840384 7.859833
-1.285690 -28.300077 7.822443
-6.299583 -27.723404 -0.903076
-0.904128 -28.776260 8.372383
0.265375 -27.718454 10.980000
-0.690913 -27.558344 9.346024
-0.031741 -28.070337 10.366922
-1.478336 -27.867397 7.884869
-1.740305 -28.312843 7.599072
-6.728973 -27.758732 -0.910950
-1.816412 -28.755173 7.351587
-2.602200 -28.689255 6.005558
-1.952927 -27.425030 7.750259
-2.857050 -27.277872 6.235729
-7.152922 -26.578657 -0.960426
-1.771767 -27.896940 7.938873
-2.210205 -28.325613 7.364336
-2.011408 -28.796488 7.580744
-2.747517 -28.737267 6.344522
-2.160706 -27.467836 7.953398
-7.628366 -26.602648 -1.027618
-2.365437 -27.887306 7.501059
-7.491337 -27.211401 -0.953312
-2.144739 -28.395506 8.022284
-2.742998 -28.796141 6.922930
-3.510563 -28.736954 5.658913
-7.462473 -28.432224 -0.849079
-1.041446 -27.714432 10.292053
-2.324102 -27.517105 8.225786
-8.043493 -26.637224 -0.987724
-2.359308 -27.957167 8.055861
-3.240744 -27.844494 6.630104
-2.612139 -28.409927 7.803478
-3.476816 -28.323534 6.412626
-3.066381 -28.829168 6.955343
-3.792290 -28.775553 5.782919
-7.916294 -28.470957 -0.877819
-2.974398 -27.492830 7.724005
-8.475542 -26.670019 -0.968681
-2.914061 -27.955542 7.705227
-3.733406 -27.854017 6.405243
-4.266027 -28.311586 5.726477
-8.462635 -27.907038 -0.895256
-3.353130 -28.865309 7.050362
-8.372219 -28.510479 -0.901432
-3.223978 -27.530190 7.868046
-8.925131 -26.701134 -0.970058
-3.174097 -27.991693 7.832260
-4.118013 -27.878330 6.363018
-8.826817 -27.312813 -0.966396
-8.845633 -27.950897 -0.795498
-4.715506 -28.829008 5.475754
-8.749084 -28.556276 -0.793808
-1.905945 -27.789175 10.396950
-3.888580 -27.508869 7.381161
-9.266893 -26.748478 -0.799789
-9.222538 -27.354242 -0.880116
-9.354893 -27.983902 -0.883720
-9.218920 -28.596497 -0.824474
-9.829391 -26.765593 -0.957718
-4.040352 -28.025284 7.570501
-9.707102 -27.386189 -0.922577
-9.806189 -28.023191 -0.874619
-9.668774 -28.638920 -0.816479
-10.306440 -26.795933 -0.976883
-4.470434 -28.044411 7.460104
-10.182920 -27.420240 -0.942883
-10.281616 -28.061344 -0.893421
-10.097727 -28.683407 -0.770370
-10.768536 -26.829327 -0.965996
-10.626774 -27.458738 -0.908470
-10.736322 -28.102161 -0.873940
-10.595993 -28.724710 -0.818119
-11.249557 -26.861301 -0.974285
-11.094856 -27.495569 -0.901749
-11.186728 -28.144163 -0.841171
-11.050753 -28.769402 -0.794640
-11.709244 -26.896973 -0.944653
-11.605444 -27.529140 -0.946419
-11.673508 -28.184277 -0.851929
-11.553637 -28.812462 -0.830925
-12.188023 -26.931273 -0.933941
-12.065624 -27.568758 -0.912491
-12.156435 -28.225668 -0.848946
-12.035385 -28.857584 -0.828960
-12.674520 -26.965687 -0.925686
-12.550993 -27.606895 -0.905361
-12.659195 -28.266657 -0.864315
-12.519003 -28.903534 -0.821377
-13.193062 -26.997528 -0.951450
-13.038191 -27.645863 -0.892574
-13.176291 -28.307751 -0.889610
-13.022570 -28.949535 -0.832016
-13.707939 -27.030987 -0.963112
-13.575985 -27.681414 -0.937321
-13.665176 -28.351725 -0.869213
-13.509947 -28.997179 -0.812927
-14.175594 -27.070625 -0.905964
-14.067194 -27.722136 -0.912697
-14.180519 -28.395025 -0.874447
-14.054653 -29.043520 -0.858818
-14.694336 -27.105835 -0.905704
-14.535072 -27.765713 -0.851128
-14.698013 -28.439249 -0.873482
-14.545937 -29.092924 -0.827766
-15.259413 -27.137535 -0.953289
-15.073368 -27.804573 -0.869370
-15.217587 -28.484394 -0.866283
-15.089315 -29.141451 -0.852909
-15.757223 -27.177158 -0.909477
-15.626867 -27.843460 -0.896412
-15.758368 -28.529442 -0.875851
-15.577782 -29.192799 -0.802113
-16.256460 -27.217604 -0.859795
-16.150793 -27.885742 -0.878441
-16.314417 -28.574825 -0.894028
-16.157854 -29.242304 -0.852505
-16.861353 -27.249317 -0.925179
-16.728683 -27.925272 -0.914757
-16.859934 -28.621876 -0.890171
-16.675816 -29.294706 -0.819740
-17.416973 -27.286917 -0.922813
-17.276581 -27.968143 -0.906204
-17.414230 -28.669613 -0.887100
-17.254692 -29.346519 -0.848446
-18.001453 -27.323238 -0.943371
-17.839897 -28.011135 -0.905830
-17.950790 -28.719233 -0.854797
-17.789803 -29.400507 -0.817562
-18.588634 -27.360666 -0.956562
-18.418945 -28.054316 -0.913254
-18.529472 -28.768118 -0.860302
-18.400532 -29.453888 -0.861633
-19.151329 -27.401396 -0.933010
-18.980190 -28.099808 -0.891346
-19.117409 -28.817818 -0.865845
-18.980492 -29.509111 -0.861069
-19.770779 -27.438843 -0.960663
-19.598118 -28.143124 -0.920784
-19.762672 -28.866589 -0.922153
-19.576515 -29.565182 -0.867760
-20.337936 -27.481682 -0.922623
-20.191433 -28.189182 -0.913330
-20.335297 -28.919315 -0.890602
-20.133682 -29.622999 -0.823418
-20.962696 -27.521431 -0.934750
-20.738415 -28.238960 -0.848125
-20.951744 -28.971695 -0.894806
-20.783104 -29.680607 -0.865410
-21.618343 -27.560381 -0.967197
-21.413162 -28.283157 -0.904221
-21.549690 -29.025896 -0.869759
-21.379559 -29.740141 -0.841949
-22.220432 -27.604521 -0.934761
-22.070213 -28.329773 -0.930199
-22.178192 -29.080374 -0.865231
-21.978180 -29.800770 -0.810848
-22.796005 -27.651659 -0.866760
-22.673210 -28.380373 -0.891609
-22.787762 -29.136623 -0.831596
-22.607468 -29.862274 -0.800049
-23.459641 -27.694237 -0.874474
-23.335835 -28.429470 -0.900742
-23.471649 -29.192186 -0.859280
-23.239220 -29.924969 -0.781052
-24.097057 -27.739906 -0.846046
-23.943233 -28.482355 -0.846195
-24.166004 -29.248941 -0.884670
-23.960564 -29.988497 -0.836220
-24.824749 -27.781507 -0.890759
-24.640327 -28.532730 -0.865509
-24.834206 -29.307703 -0.873596
-24.597668 -30.053713 -0.799931
-25.489540 -27.828419 -0.865101
-25.303654 -28.585922 -0.841770
-25.534630 -29.367174 -0.880566
-25.296028 -30.120071 -0.809223
-26.223801 -27.872869 -0.890610
-26.043831 -28.637623 -0.876045
-26.230579 -29.428154 -0.871449
-26.012276 -30.187824 -0.822464
-26.901390 -27.922003 -0.853382
-15.107918 -29.099903 9.403002
-26.705040 -28.693712 -0.827477
-26.846638 -29.491785 -0.780422
-26.649120 -30.256781 -0.753250
-27.641830 -27.969305 -0.859409
-27.451466 -28.748276 -0.842220
-15.580170 -30.276594 9.466843
-24.720264 -28.198837 2.254341
-28.193546 -28.804573 -0.840263
-15.691690 -30.325939 9.827229
-24.925674 -28.267426 2.665653
-28.823662 -28.865717 -0.731922
-15.895803 -29.823790 10.210693
-15.584452 -30.373354 10.367260
-25.180969 -28.333345 3.033707
-14.490849 -29.340214 11.692671
-16.100105 -29.873753 10.488897
-15.678711 -30.421629 10.732077
-25.580719 -28.392794 3.284676
-30.633755 -28.173191 -0.782108
-25.476234 -29.110012 3.235878
-16.473263 -29.922480 10.630877
-16.025620 -30.472263 10.889328
-26.096630 -28.447779 3.447147
-25.553028 -29.179581 3.745564
-31.290874 -29.892014 -0.636276
-16.325020 -30.522789 11.088041
-32.201363 -28.281698 -0.724796
-16.935804 -29.441645 11.030525
-25.316486 -29.255379 4.493986
-22.130360 -28.749374 7.605341
-17.077425 -29.493441 11.359476
-17.261593 -30.629923 11.234152
-18.637997 -28.942163 10.723475
-22.373520 -28.807512 7.924072
-18.446037 -29.521912 10.763161
-28.563717 -30.864260 3.170158
-22.549450 -28.867886 8.292334
-22.263691 -29.512329 8.387949
-17.027744 -30.719257 12.272884
-25.727379 -28.900846 7.018351
-22.559368 -30.292049 9.283724
-24.107735 -29.083202 9.165337
-24.276958 -29.731787 8.934343
-28.615940 -30.445539 6.100813
-25.162506 -29.785301 8.830566
-28.596054 -30.509182 6.660654
-19.565075 -29.889345 13.034019
-28.611450 -30.572407 7.190474
-19.781803 -31.196907 14.170898
-18.951553 -31.215813 15.092386
14.493142 -30.152658 35.608734
14.607684 -30.152451 35.670307
14.552764 -30.151808 35.645710
14.553074 -30.155123 35.645332
14.525434 -30.156570 35.633549
14.515095 -30.153433 35.631611
14.497580 -30.158092 35.622234
14.559278 -30.155611 35.655285
14.512995 -30.154129 35.635967
14.495331 -30.158836 35.626904
14.548225 -30.153299 35.655029
14.566635 -30.155748 35.663113
14.510973 -30.154823 35.640362
14.493165 -30.159580 35.631611
14.564792 -30.153254 35.666927
14.519474 -30.158579 35.646202
14.554868 -30.153858 35.664692
14.582630 -30.155624 35.676315
14.554392 -30.157318 35.666157