# This PCD file was generated using the MATLAB® pcwrite function
# from Computer Vision System Toolbox®.
# .PCD v.7 - Point Cloud Data file format
VERSION .7
FIELDS x y z
SIZE 4 4 4
TYPE F F F
COUNT 1 1 1
WIDTH 770
HEIGHT 1
VIEWPOINT 0 0 0 1 0 0 0
POINTS 770
DATA ascii
0.273515 -0.257200 -0.214003
0.238109 -0.256126 -0.239879
0.273248 -0.256760 -0.228952
0.270649 -0.237910 -0.221547
0.279559 -0.252629 -0.237188
0.270424 -0.237284 -0.236492
0.336860 -0.219981 -0.190631
0.302548 -0.219357 -0.217322
0.342895 -0.216047 -0.198227
0.283238 -0.228921 -0.252769
0.411636 -0.177135 -0.136091
0.321419 -0.207817 -0.225998
0.355140 -0.208086 -0.213232
0.271162 -0.233794 -0.296872
0.379835 -0.193777 -0.199365
0.302926 -0.216133 -0.276678
0.410383 -0.176247 -0.177914
0.309612 -0.211807 -0.284510
0.392110 -0.185840 -0.213617
0.322487 -0.204209 -0.285065
0.422345 -0.168527 -0.191555
0.353540 -0.187031 -0.263627
0.446256 -0.154753 -0.176285
0.336052 -0.195469 -0.300260
0.440414 -0.157442 -0.197555
0.366792 -0.178509 -0.278207
0.458206 -0.147080 -0.189198
0.349852 -0.186610 -0.315171
0.475829 -0.136833 -0.180546
0.380270 -0.169871 -0.292510
0.470356 -0.139306 -0.201862
0.387091 -0.165509 -0.299556
0.487855 -0.129151 -0.192855
0.416953 -0.149140 -0.276066
0.488320 -0.128353 -0.206594
0.417968 -0.147826 -0.290418
0.500070 -0.121373 -0.204914
0.447315 -0.131798 -0.266172
0.528267 -0.105421 -0.179696
0.476255 -0.116035 -0.241415
0.534260 -0.101620 -0.185349
0.466156 -0.120490 -0.271016
0.540298 -0.097796 -0.190940
0.467373 -0.119075 -0.285091
0.562371 -0.085261 -0.172620
0.495764 -0.103679 -0.259481
0.568318 -0.081505 -0.177928
0.486332 -0.107731 -0.289359
0.558669 -0.086195 -0.207337
0.509003 -0.095325 -0.271188
0.580336 -0.073933 -0.188359
0.515690 -0.091114 -0.276938
0.606777 -0.059130 -0.160857
0.527587 -0.084255 -0.274469
0.577420 -0.074405 -0.223160
0.529200 -0.082627 -0.288232
0.583752 -0.070435 -0.228305
0.520893 -0.086001 -0.318525
0.557005 -0.050648 -0.254420
0.559912 -0.033119 -0.237005
0.604854 -0.058549 -0.208472
0.562809 -0.064005 -0.266048
0.556187 -0.033583 -0.258717
0.635323 -0.041689 -0.171578
0.594066 -0.047474 -0.229518
0.570202 -0.042397 -0.264740
0.572860 -0.025023 -0.247129
0.602988 -0.058407 -0.243347
0.556740 -0.065395 -0.309976
0.569462 -0.025294 -0.268899
0.628374 -0.044297 -0.214440
0.602090 -0.041870 -0.247697
0.583559 -0.034067 -0.274787
0.585964 -0.016851 -0.256987
0.629990 -0.042865 -0.227563
0.575495 -0.054299 -0.311932
0.587735 -0.014832 -0.270310
0.659356 -0.026712 -0.189478
0.596511 -0.042988 -0.291398
0.611194 -0.019131 -0.258908
0.594446 -0.010661 -0.275115
0.692659 -0.008538 -0.142293
0.626397 -0.027338 -0.253363
0.617818 -0.015020 -0.263555
0.605908 -0.004454 -0.271264
0.684993 -0.012048 -0.172170
0.614808 -0.032211 -0.292426
0.619897 -0.012989 -0.276772
0.603333 -0.004240 -0.293146
0.721809 0.007881 -0.115528
0.657498 -0.010367 -0.227765
0.631173 -0.006745 -0.272644
0.619389 0.003898 -0.280439
0.701307 -0.002356 -0.171520
0.663889 -0.006412 -0.232026
0.633453 -0.004600 -0.285811
0.626184 0.008100 -0.284923
0.702999 -0.000905 -0.184176
0.665965 -0.004560 -0.244974
0.662212 0.009507 -0.246392
0.633013 0.012319 -0.289336
0.696428 -0.003757 -0.214452
0.672487 -0.000534 -0.249145
0.647150 0.003855 -0.294570
0.635488 0.014737 -0.302480
0.727598 0.013070 -0.165349
0.683260 0.005545 -0.244414
0.675322 0.017591 -0.254600
0.668395 0.029684 -0.253752
0.709043 0.004016 -0.222266
0.669025 -0.000424 -0.292789
0.681926 0.021655 -0.258603
0.679255 0.035482 -0.248874
0.723425 0.012077 -0.208235
0.692250 0.011636 -0.261255
0.688561 0.025733 -0.262538
0.681632 0.037825 -0.261689
0.753362 0.028131 -0.158145
0.702919 0.017637 -0.256202
0.695228 0.029826 -0.266406
0.692421 0.043571 -0.256597
0.739836 0.021765 -0.206506
0.705582 0.019822 -0.268990
0.701925 0.033933 -0.270205
0.674704 0.037961 -0.314335
0.765147 0.035358 -0.164830
0.743372 0.038603 -0.200512
0.704731 0.036361 -0.282978
0.693737 0.047000 -0.291151
0.778571 0.042814 -0.149937
0.738123 0.037023 -0.231114
0.730823 0.048791 -0.241282
0.720242 0.058866 -0.249534
0.777036 0.042632 -0.171273
0.729558 0.033954 -0.270974
0.718409 0.044725 -0.290304
0.707548 0.055445 -0.298548
0.804684 0.057263 -0.119538
0.751016 0.044902 -0.237940
0.743879 0.056765 -0.248113
0.748580 0.072710 -0.219869
0.803197 0.057103 -0.140756
0.743050 0.042190 -0.277950
0.732202 0.053140 -0.297350
0.732631 0.068158 -0.278135
0.777690 0.044898 -0.226546
0.735659 0.039823 -0.318167
0.742721 0.058850 -0.291549
0.732131 0.069572 -0.299903
0.814736 0.064131 -0.146439
0.770556 0.056810 -0.247682
0.746107 0.061604 -0.304114
0.749838 0.077774 -0.275520
0.790515 0.052701 -0.232707
0.760087 0.053092 -0.297168
0.784080 0.078455 -0.223834
0.774180 0.088293 -0.232321
0.829632 0.072818 -0.142574
0.797060 0.070803 -0.216616
0.773609 0.075546 -0.273330
0.749662 0.081080 -0.319033
0.806636 0.062123 -0.229263
0.773985 0.061529 -0.303512
0.783678 0.080964 -0.266991
0.787127 0.096148 -0.238154
0.838080 0.078301 -0.157094
0.796962 0.072839 -0.259734
0.787164 0.083761 -0.279277
0.777123 0.094327 -0.287812
0.843969 0.081866 -0.159608
0.813007 0.080990 -0.234383
0.809792 0.094038 -0.235114
0.800167 0.104042 -0.243721
0.837931 0.079638 -0.199794
0.810308 0.080914 -0.265355
0.800814 0.092016 -0.284946
0.794073 0.103733 -0.284112
0.844142 0.083390 -0.202302
0.825975 0.088828 -0.239694
0.810695 0.097302 -0.278213
0.813295 0.111972 -0.249023
0.850374 0.087150 -0.204747
0.823743 0.089025 -0.270703
0.826357 0.104718 -0.252373
0.816871 0.114968 -0.261055
0.867722 0.096208 -0.169064
0.833338 0.094296 -0.263763
0.824336 0.105525 -0.283410
0.814711 0.116180 -0.292092
0.862896 0.094695 -0.209445
0.837263 0.097171 -0.275777
0.839613 0.112700 -0.257273
0.821634 0.120346 -0.294611
0.866553 0.097241 -0.221267
0.841352 0.100140 -0.287773
0.849007 0.117677 -0.250052
0.839801 0.127933 -0.258819
0.888292 0.108234 -0.165925
0.871909 0.113932 -0.203871
0.852947 0.120713 -0.261902
0.843742 0.131132 -0.270684
0.896746 0.112966 -0.158312
0.865371 0.112538 -0.254033
0.872607 0.129168 -0.216029
0.853171 0.135958 -0.263311
0.897825 0.114296 -0.179514
0.874490 0.117502 -0.246553
0.866356 0.128754 -0.266259
0.857293 0.139258 -0.275087
0.903896 0.117933 -0.181419
0.883482 0.122385 -0.238959
0.875536 0.133585 -0.258672
0.866613 0.144011 -0.267531
0.903168 0.118514 -0.212318
0.885321 0.124489 -0.260296
0.879836 0.136820 -0.270343
0.873360 0.148046 -0.269539
0.920481 0.127176 -0.165633
0.901082 0.131910 -0.223442
0.879692 0.138720 -0.301397
0.880123 0.152088 -0.271477
0.930703 0.132609 -0.147859
0.909687 0.136551 -0.215523
0.893382 0.144910 -0.274152
0.886903 0.156134 -0.273347
0.936542 0.136092 -0.149437
0.905421 0.136493 -0.265948
0.902335 0.149590 -0.266209
0.893698 0.160186 -0.275149
0.948333 0.142119 -0.121661
0.914202 0.141230 -0.257936
0.904906 0.152437 -0.287449
0.900508 0.164243 -0.276881
0.944445 0.141467 -0.171985
0.926805 0.147249 -0.230260
0.915826 0.157622 -0.269568
0.907333 0.168305 -0.278544
0.946803 0.143532 -0.193023
0.927560 0.149180 -0.261191
0.918719 0.160653 -0.290742
0.914172 0.172370 -0.280137
0.956505 0.148636 -0.174795
0.939749 0.154945 -0.233277
0.929372 0.165672 -0.272653
0.928755 0.177766 -0.242438
0.965923 0.153569 -0.156440
0.940972 0.157145 -0.264174
0.932587 0.168885 -0.293753
0.935324 0.181664 -0.243830
0.971834 0.157074 -0.157662
0.952743 0.162654 -0.236030
0.942970 0.173735 -0.275463
0.934766 0.184590 -0.284501
0.977756 0.160582 -0.158823
0.954434 0.165124 -0.266885
0.954710 0.178734 -0.247187
0.948499 0.189469 -0.246415
0.983687 0.164092 -0.159925
0.965784 0.170376 -0.238520
0.962882 0.182918 -0.238507
0.955103 0.193376 -0.247607
0.988239 0.167109 -0.170857
0.962103 0.171613 -0.308866
0.960468 0.185387 -0.298931
0.961718 0.197285 -0.248731
0.995578 0.171120 -0.161947
0.978866 0.178108 -0.240745
0.981647 0.191407 -0.201077
0.968342 0.201196 -0.249790
0.997815 0.173412 -0.192611
0.980179 0.180826 -0.281397
0.974473 0.193651 -0.301095
0.974975 0.205108 -0.250780
1.007503 0.178153 -0.163729
0.991987 0.185847 -0.242705
0.984028 0.197988 -0.282234
0.976263 0.209101 -0.291344
1.013478 0.181672 -0.164529
0.995076 0.189119 -0.273377
0.988516 0.201922 -0.302976
0.983213 0.213192 -0.292239
1.017427 0.184640 -0.185157
1.005141 0.193590 -0.244399
0.997789 0.206084 -0.283935
0.990171 0.217284 -0.293064
1.025448 0.188712 -0.165948
1.008695 0.197129 -0.274991
1.007814 0.210040 -0.254846
1.001593 0.220770 -0.254072
1.034043 0.192796 -0.136684
1.014579 0.201066 -0.285650
1.015458 0.213883 -0.245548
1.008266 0.224686 -0.254726
1.040610 0.196329 -0.127254
1.024929 0.205210 -0.246441
1.021169 0.217875 -0.256088
1.014945 0.228603 -0.255313
1.042018 0.199073 -0.187569
1.026817 0.209206 -0.306802
1.028674 0.221629 -0.246642
1.021630 0.232519 -0.255833
1.049462 0.202793 -0.168058
1.036016 0.213149 -0.277392
1.030827 0.226743 -0.306910
1.025065 0.237745 -0.296130
1.055478 0.206312 -0.168434
1.044770 0.216827 -0.247882
1.039237 0.230376 -0.287367
1.032061 0.241835 -0.296532
1.060026 0.209926 -0.198713
1.049710 0.221155 -0.278178
1.047944 0.233537 -0.257760
1.041715 0.244262 -0.256986
1.068769 0.213119 -0.139030
1.058020 0.224567 -0.248509
1.053094 0.238466 -0.287952
1.046066 0.250011 -0.297123
1.074570 0.216502 -0.139216
1.063420 0.229155 -0.278688
1.059585 0.242891 -0.298122
1.053074 0.254097 -0.297313
1.078254 0.221194 -0.219305
1.070280 0.233153 -0.278839
1.066965 0.246548 -0.288257
1.060085 0.258180 -0.297432
1.084853 0.224717 -0.209386
1.077922 0.236163 -0.248946
1.074780 0.249173 -0.258351
1.068184 0.260487 -0.267552
1.091074 0.228653 -0.219393
1.084007 0.241139 -0.278933
1.080845 0.254620 -0.288282
1.074113 0.266338 -0.297457
1.097525 0.232083 -0.209345
1.091200 0.243881 -0.248904
1.088210 0.256976 -0.258240
1.080918 0.271091 -0.307339
1.103604 0.233387 -0.139269
1.097840 0.247735 -0.248782
1.094992 0.260270 -0.248101
1.088146 0.274483 -0.297200
1.109751 0.237905 -0.169080
1.104650 0.253600 -0.288542
1.101643 0.264765 -0.257858
1.095404 0.275484 -0.257084
1.115788 0.241402 -0.168848
1.111005 0.254886 -0.238353
1.108274 0.267965 -0.247590
1.102180 0.282613 -0.296660
1.121823 0.244895 -0.168555
1.117763 0.259276 -0.248015
1.115075 0.272539 -0.257206
1.108924 0.284110 -0.266395
1.126842 0.246842 -0.138258
1.124403 0.263115 -0.247626
1.122498 0.278749 -0.286679
1.116211 0.290725 -0.295837
1.133891 0.251868 -0.167786
1.131041 0.266949 -0.247170
1.128190 0.279474 -0.246322
1.123465 0.295714 -0.305273
1.142370 0.258353 -0.217161
1.137677 0.270778 -0.246647
1.134825 0.283300 -0.245766
1.130234 0.298816 -0.294732
1.143693 0.256247 -0.126922
1.144310 0.274602 -0.246057
1.141919 0.288029 -0.255091
1.136065 0.299771 -0.264256
1.151978 0.262295 -0.166179
1.153221 0.281654 -0.285204
1.150236 0.294739 -0.284213
1.144245 0.306885 -0.293345
1.158001 0.265760 -0.165521
1.159503 0.284788 -0.274506
1.157775 0.299716 -0.293354
1.149616 0.307567 -0.262777
1.164811 0.269994 -0.174742
1.167073 0.289619 -0.283623
1.164083 0.302698 -0.282562
1.158240 0.314929 -0.291676
1.163109 0.266134 -0.084594
1.170012 0.288901 -0.233108
1.171763 0.307748 -0.291544
1.162457 0.314138 -0.251122
1.173223 0.273540 -0.133431
1.177420 0.293632 -0.242109
1.174556 0.306136 -0.241028
1.169141 0.317970 -0.250156
1.182052 0.279563 -0.162287
1.186866 0.300492 -0.270827
1.182074 0.311085 -0.249895
1.176662 0.323082 -0.259003
1.188052 0.282998 -0.161328
1.190629 0.301198 -0.240064
1.191712 0.318531 -0.278426
1.186164 0.330931 -0.287496
1.198710 0.290383 -0.199838
1.201608 0.309410 -0.278453
1.200730 0.324974 -0.296947
1.193128 0.334912 -0.286275
1.200033 0.289846 -0.159229
1.202640 0.307580 -0.227890
1.200933 0.321221 -0.236541
1.195813 0.333224 -0.245619
1.207329 0.294335 -0.167944
1.219111 0.320857 -0.305449
1.214787 0.332997 -0.294268
1.202462 0.337017 -0.244318
1.207816 0.293313 -0.127370
1.216963 0.316235 -0.235180
1.219227 0.334235 -0.273182
1.209103 0.340801 -0.242949
1.217952 0.300063 -0.155630
1.223526 0.319974 -0.233795
1.221997 0.333872 -0.242286
1.217026 0.346120 -0.251310
1.237763 0.314273 -0.242577
1.234488 0.327672 -0.261751
1.232930 0.342033 -0.270147
1.227822 0.354683 -0.279128
1.225016 0.303101 -0.123561
1.236624 0.327423 -0.230826
1.241278 0.347424 -0.278296
1.236172 0.360236 -0.287251
1.239172 0.312780 -0.171037
1.249631 0.336764 -0.268312
1.246593 0.349791 -0.266837
1.241630 0.362525 -0.275783
1.247012 0.317557 -0.179255
1.254759 0.339183 -0.256840
1.256726 0.356837 -0.284544
1.235807 0.352739 -0.196219
1.249481 0.318296 -0.158171
1.261493 0.343000 -0.255068
1.267142 0.364040 -0.302104
1.255392 0.370324 -0.272162
1.261193 0.325920 -0.185675
1.270056 0.348339 -0.262938
1.268807 0.363025 -0.271052
1.263991 0.376002 -0.279931
1.275320 0.335238 -0.222687
1.276840 0.352175 -0.261010
1.273777 0.365181 -0.259399
1.269105 0.378078 -0.268266
1.265338 0.326931 -0.143409
1.281623 0.354383 -0.249348
1.290312 0.377789 -0.305612
1.277824 0.383816 -0.275854
1.279735 0.336394 -0.180210
1.290367 0.359813 -0.256951
1.287291 0.372807 -0.255273
1.282763 0.385786 -0.264095
1.301317 0.350913 -0.245644
1.303513 0.368712 -0.283683
1.296127 0.378442 -0.262710
1.297691 0.397464 -0.300281
1.292032 0.343323 -0.176259
1.303838 0.367403 -0.252622
1.300747 0.380384 -0.250876
1.296362 0.393444 -0.259652
1.288760 0.340128 -0.135882
1.317392 0.376524 -0.279074
1.309699 0.386077 -0.258130
1.305315 0.399297 -0.266873
1.304273 0.350205 -0.172061
1.326660 0.382232 -0.286212
1.314141 0.387911 -0.246212
1.309899 0.401051 -0.254937
1.317858 0.358856 -0.198448
1.323929 0.378692 -0.245625
1.332773 0.401675 -0.291282
1.325928 0.413331 -0.290447
1.329294 0.365954 -0.215114
1.348080 0.395756 -0.309617
1.327469 0.395384 -0.241280
1.323370 0.408604 -0.249953
1.341003 0.373202 -0.231608
1.347522 0.393929 -0.278493
1.346789 0.409525 -0.285942
1.342407 0.423385 -0.294545
1.328575 0.363824 -0.162936
1.349154 0.393830 -0.256905
1.351161 0.411303 -0.273751
1.346920 0.425082 -0.282334
1.354097 0.380523 -0.226402
1.358623 0.399629 -0.263591
1.360729 0.417315 -0.280323
1.346051 0.422113 -0.251353
1.357760 0.382218 -0.214317
1.379359 0.413753 -0.307669
1.364918 0.418982 -0.268052
1.360818 0.432840 -0.276577
1.358335 0.381836 -0.192874
1.383646 0.415632 -0.295280
1.374589 0.425044 -0.274426
1.367736 0.436696 -0.273594
1.358606 0.381280 -0.171491
1.370198 0.404550 -0.226975
1.390170 0.435737 -0.299261
1.374633 0.440535 -0.270543
1.380057 0.394990 -0.215211
1.397728 0.423470 -0.289051
1.388365 0.432707 -0.268254
1.384403 0.446802 -0.276678
1.395916 0.404875 -0.240028
1.407806 0.429588 -0.295084
1.392184 0.434151 -0.255835
1.388362 0.448164 -0.264235
1.392916 0.402132 -0.209229
1.399156 0.422192 -0.245659
1.402051 0.440304 -0.261808
1.395193 0.451953 -0.260978
1.405875 0.410039 -0.224525
1.431526 0.444305 -0.315928
1.418389 0.451400 -0.285970
1.402000 0.455725 -0.257654
1.405689 0.409209 -0.202991
1.425618 0.438942 -0.275754
1.415645 0.447832 -0.255090
1.411960 0.462079 -0.263381
1.418883 0.417238 -0.218020
1.445936 0.452280 -0.308723
1.419091 0.449050 -0.242537
1.415544 0.463216 -0.250802
1.407901 0.409331 -0.169244
1.439419 0.446570 -0.268691
1.429142 0.455288 -0.248102
1.425593 0.469611 -0.256322
1.435356 0.426702 -0.220307
1.463731 0.462633 -0.310275
1.432399 0.456393 -0.235489
1.428988 0.470634 -0.243681
1.441846 0.430278 -0.216792
1.456676 0.456617 -0.270360
1.442538 0.462670 -0.240846
1.452935 0.488080 -0.284882
1.455705 0.438656 -0.231159
1.478066 0.470528 -0.302425
1.474342 0.485028 -0.299715
1.456415 0.489140 -0.272029
1.417091 0.412897 -0.120223
1.440835 0.443618 -0.191238
1.470471 0.480809 -0.268938
1.466908 0.495761 -0.276975
1.438158 0.425984 -0.152490
1.477229 0.467915 -0.258730
1.458705 0.470855 -0.220603
1.470195 0.496705 -0.264063
1.467547 0.444398 -0.202091
1.480191 0.468997 -0.245867
1.484196 0.488335 -0.260833
1.491943 0.512069 -0.295235
1.465967 0.442761 -0.180628
1.486889 0.472666 -0.241828
1.487151 0.489247 -0.247897
1.480066 0.501249 -0.247050
1.488311 0.456536 -0.211904
1.513396 0.489901 -0.281561
1.497804 0.495778 -0.252456
1.494506 0.510875 -0.260333
1.498852 0.462685 -0.216591
1.532475 0.501973 -0.303356
1.500564 0.496574 -0.239469
1.493476 0.508574 -0.238624
1.492814 0.458208 -0.186376
1.523212 0.494708 -0.264045
1.511289 0.503134 -0.243811
1.508122 0.518303 -0.251604
1.528719 0.480550 -0.242802
1.550896 0.512570 -0.302765
1.513854 0.503814 -0.230777
1.527063 0.531239 -0.272944
1.500971 0.462250 -0.169545
1.536869 0.502142 -0.255024
1.520451 0.507401 -0.226332
1.525737 0.528762 -0.251163
1.524567 0.476685 -0.199604
1.560847 0.517419 -0.284615
1.544067 0.523113 -0.255907
1.540881 0.538747 -0.263544
1.526484 0.477318 -0.186689
1.585316 0.532958 -0.313774
1.555189 0.529869 -0.259624
1.547739 0.542465 -0.258741
1.555237 0.494948 -0.224587
1.574827 0.524999 -0.274824
1.557620 0.530456 -0.246324
1.554562 0.546159 -0.253871
1.538960 0.484073 -0.177783
1.586258 0.531757 -0.278238
1.568802 0.537235 -0.249814
1.561350 0.549829 -0.248933
1.554408 0.493253 -0.189977
1.606902 0.544637 -0.298218
1.589120 0.550412 -0.269811
1.585905 0.566663 -0.277231
1.570079 0.502549 -0.201919
1.600150 0.539257 -0.267940
1.600615 0.557348 -0.272879
1.597391 0.573753 -0.280244
1.595484 0.517934 -0.230151
1.621103 0.552293 -0.287493
1.602899 0.557835 -0.259308
1.599809 0.574153 -0.266633
1.582799 0.509397 -0.192133
1.632896 0.559223 -0.290245
1.614444 0.564787 -0.262141
1.611345 0.581259 -0.269410
1.579339 0.506674 -0.170797
1.639961 0.563018 -0.284658
1.597422 0.551898 -0.215985
1.594739 0.567804 -0.223246
1.615161 0.528502 -0.214591
1.646985 0.566785 -0.279002
1.608764 0.558731 -0.218786
1.620372 0.585190 -0.250223
1.621643 0.531973 -0.209276
1.649028 0.567281 -0.265209
1.629991 0.572364 -0.237491
1.627146 0.588814 -0.244619
1.628087 0.535419 -0.203896
1.640903 0.561129 -0.235419
1.641626 0.579343 -0.239854
1.658334 0.610078 -0.278820
1.634492 0.538838 -0.198454
1.703247 0.601083 -0.317363
1.643296 0.579466 -0.226185
1.665333 0.613811 -0.272820
1.640857 0.542230 -0.192948
1.690035 0.591597 -0.279420
1.675308 0.600369 -0.259818
1.672288 0.617515 -0.266750
1.647181 0.545595 -0.187379
1.717770 0.608816 -0.304689
1.677014 0.600501 -0.245910
1.674124 0.617558 -0.252797
1.632207 0.535792 -0.150517
1.682998 0.585385 -0.235823
1.688965 0.607624 -0.247580
1.701466 0.635821 -0.277687
1.670456 0.558877 -0.191563
1.716189 0.606110 -0.268486
1.711522 0.621931 -0.264502
1.708465 0.639530 -0.271249
1.703947 0.578966 -0.224188
1.739202 0.620182 -0.285146
1.702442 0.614759 -0.235075
1.720671 0.646933 -0.272391
1.721506 0.589200 -0.233266
1.735401 0.616905 -0.263217
1.725263 0.629193 -0.251528
1.701072 0.631825 -0.227791
1.700391 0.575651 -0.188955
1.714868 0.602875 -0.218705
1.710293 0.618105 -0.214760
1.734549 0.654255 -0.259059
1.717918 0.585856 -0.197848
1.765740 0.634823 -0.272498
1.738812 0.636329 -0.238286
1.735985 0.654049 -0.244812
1.741300 0.599625 -0.213920
1.772698 0.638481 -0.265580
1.751072 0.643578 -0.238995
1.748230 0.661448 -0.245456
1.730625 0.592530 -0.185105
1.819205 0.667471 -0.310444
1.774628 0.658373 -0.254264
1.749451 0.661116 -0.231191
1.771607 0.617015 -0.222763
1.786461 0.645697 -0.251539
1.764441 0.650580 -0.225239
1.761711 0.668508 -0.231586
1.784023 0.624014 -0.223175
1.833661 0.675035 -0.295442
1.811151 0.680760 -0.269031
1.807978 0.699556 -0.275262
1.784708 0.623857 -0.208933
1.800017 0.652776 -0.237230
1.800745 0.672840 -0.239993
1.797841 0.691305 -0.246190
1.797134 0.630848 -0.209097
1.853779 0.686197 -0.287327
1.824995 0.687969 -0.254040
1.845008 0.722807 -0.288647
1.779583 0.619619 -0.173509
1.860867 0.689881 -0.279520
1.831833 0.691520 -0.246443
1.852121 0.726500 -0.280746
1.810037 0.637547 -0.194764
1.867897 0.693527 -0.271643
1.862418 0.710768 -0.266814
1.829780 0.709889 -0.237772
1.816409 0.640845 -0.187503
1.874870 0.697136 -0.263698
1.863356 0.710396 -0.251888
1.854305 0.725610 -0.250858
1.822727 0.644109 -0.180180
1.900089 0.712271 -0.276450
1.882304 0.721899 -0.257671
1.867121 0.733242 -0.249751
1.897458 0.688710 -0.248298
1.913259 0.719769 -0.275038
1.907517 0.737490 -0.269953
1.886026 0.745028 -0.255262
1.885420 0.680838 -0.219751
1.938892 0.735102 -0.287020
1.889836 0.724898 -0.234493
1.886802 0.744393 -0.240207
1.885666 0.680397 -0.204996
1.952256 0.742684 -0.285088
1.921408 0.744617 -0.253013
1.899704 0.752046 -0.238581
1.898512 0.687548 -0.203648
1.953034 0.742350 -0.269626
1.928259 0.748121 -0.244441
1.925042 0.768147 -0.249997
1.943570 0.714057 -0.235138
1.985468 0.761872 -0.287228
1.935047 0.751583 -0.235803
1.913134 0.758905 -0.221636
1.943789 0.713578 -0.219994
1.973334 0.753449 -0.258492
1.992741 0.788201 -0.279061
1.989053 0.809235 -0.284425
1.963449 0.724768 -0.224340
1.954363 0.740786 -0.223614
1.974118 0.775086 -0.244045
1.977115 0.799961 -0.255797
2.003004 0.747856 -0.247579
2.013124 0.776684 -0.266030
1.980912 0.778526 -0.234943
1.996808 0.812092 -0.259271
2.003178 0.747329 -0.232038
2.020084 0.780203 -0.256627
1.987640 0.781924 -0.225775
1.990833 0.806899 -0.237262
2.020579 0.802278 -0.241449
2.036581 0.836520 -0.265208
2.053838 0.822784 -0.256511
2.030464 0.831237 -0.243064
2.067410 0.830542 -0.252688
2.076843 0.861157 -0.269781
2.094432 0.846945 -0.260701
2.077221 0.860222 -0.253515
2.087856 0.841715 -0.238476
2.097497 0.872589 -0.255147
2.128669 0.866923 -0.257626
2.104412 0.876023 -0.244688
2.149305 0.879136 -0.258576
2.138375 0.897451 -0.257369
2.170043 0.891390 -0.259175
1.715207 0.615276 0.114532
2.193406 0.931584 -0.269504
1.287505 0.330858 0.479431
1.260846 0.313042 0.503445
1.298858 0.333272 0.477691
1.310863 0.345863 0.467026
1.291006 0.332563 0.485328
1.272596 0.316259 0.503014
1.285056 0.328453 0.492611
1.302399 0.334984 0.483876
1.286137 0.328974 0.494536
1.216642 0.280567 0.547813
1.258522 0.310684 0.517058
1.282834 0.322277 0.503295
1.266624 0.315830 0.513632
1.298478 0.331991 0.495167
1.282044 0.325744 0.505369
1.319481 0.349997 0.482654