# This PCD file was generated using the MATLAB® pcwrite function
# from Computer Vision System Toolbox®.
# .PCD v.7 - Point Cloud Data file format
VERSION .7
FIELDS x y z
SIZE 4 4 4
TYPE F F F
COUNT 1 1 1
WIDTH 770
HEIGHT 1
VIEWPOINT 0 0 0 1 0 0 0
POINTS 770
DATA ascii
-10.234918 -5.714635 -0.882834
-10.312842 -5.494262 -0.832928
-10.017514 -5.586432 -0.849507
-10.140189 -5.392931 -0.846304
-9.807793 -5.462698 -0.819408
-9.968085 -5.292077 -0.857034
-9.631226 -5.357385 -0.820113
-9.777158 -5.181553 -0.844630
-9.423639 -5.235272 -0.783562
-9.548638 -5.051606 -0.787840
-9.299126 -5.158819 -0.834220
-9.423512 -4.975919 -0.838685
-9.087152 -5.034724 -0.784766
-9.241505 -4.870711 -0.824614
-8.963272 -4.958897 -0.831143
-9.085440 -4.779207 -0.836062
-8.808681 -4.866460 -0.840067
-8.936088 -4.691356 -0.852345
-8.612011 -4.751318 -0.796210
-8.756371 -4.587946 -0.830419
-8.470940 -4.666567 -0.814677
-8.638675 -4.516790 -0.878388
-8.306312 -4.569195 -0.801787
-8.448302 -4.408276 -0.836891
-8.195832 -4.501276 -0.852921
-8.283161 -4.312991 -0.821963
-8.020630 -4.398510 -0.820692
-8.112916 -4.215292 -0.797112
-7.893039 -4.321598 -0.845825
-8.014289 -4.154467 -0.859698
-7.719588 -4.220139 -0.808687
-7.839524 -4.054815 -0.822843
-7.592909 -4.143992 -0.829859
-7.752524 -4.000107 -0.897553
-7.421306 -4.043891 -0.787877
-7.556334 -3.889937 -0.825559
-7.301211 -3.971544 -0.812870
-7.401414 -3.800986 -0.804581
-7.125958 -3.869861 -0.758383
-7.258574 -3.718340 -0.796896
-7.023252 -3.807047 -0.803150
-7.127487 -3.641792 -0.802849
-6.849975 -3.706784 -0.744011
-6.985871 -3.560091 -0.791214
-6.731700 -3.635929 -0.761711
-6.877538 -3.495256 -0.825229
-6.624278 -3.570926 -0.793846
-6.731615 -3.411706 -0.801910
-6.511643 -3.503253 -0.816572
-6.607796 -3.339372 -0.808695
-6.399168 -3.435760 -0.837844
-6.484376 -3.267369 -0.813818
-6.240769 -3.344208 -0.784272
-6.382141 -3.205999 -0.849888
-6.114016 -3.269471 -0.777589
-6.223400 -3.116779 -0.794522
-6.270469 -2.927660 -0.809614
-6.388117 -2.777210 -0.838709
-5.982831 -3.192549 -0.760922
-6.096383 -3.043434 -0.786324
-5.877051 -3.129045 -0.783961
-5.994998 -2.982828 -0.817898
-6.010879 -2.781443 -0.781946
-6.126642 -2.632934 -0.811675
-5.781135 -3.070767 -0.822387
-5.878754 -2.915024 -0.823210
-5.919478 -2.726175 -0.828200
-6.019646 -2.571247 -0.833114
-5.632124 -2.984953 -0.767298
-5.733563 -2.833230 -0.776653
-5.793364 -2.655133 -0.814561
-5.867842 -2.490625 -0.777633
-5.498629 -2.907386 -0.735394
-5.623268 -2.768617 -0.787122
-5.633858 -2.569139 -0.740044
-5.756742 -2.427517 -0.787581
-5.412934 -2.854700 -0.786563
-5.489443 -2.692723 -0.753763
-5.533471 -2.510140 -0.765245
-5.631320 -2.358525 -0.770662
-5.266748 -2.770857 -0.725811
-5.380022 -2.628797 -0.761226
-5.414183 -2.442737 -0.755059
-5.506569 -2.290020 -0.752089
-5.149257 -2.701978 -0.714461
-5.261632 -2.560674 -0.750158
-5.300128 -2.377837 -0.751914
-5.415685 -2.235760 -0.791959
-5.068329 -2.651976 -0.770594
-5.157521 -2.499533 -0.763412
-5.177305 -2.309191 -0.730043
-5.245118 -2.148731 -0.684148
-4.947043 -2.581364 -0.747851
-5.044596 -2.434288 -0.758063
-5.082457 -2.253093 -0.758638
-5.173394 -2.102591 -0.755940
-4.835223 -2.515722 -0.740930
-4.963223 -2.384149 -0.812238
-4.960698 -2.185240 -0.733808
-5.064607 -2.041333 -0.757363
-4.728189 -2.452632 -0.741338
-4.842040 -2.315211 -0.786820
-4.870574 -2.131396 -0.768738
-4.960658 -1.982167 -0.766202
-4.651200 -2.404864 -0.802003
-4.751781 -2.260990 -0.821361
-4.762908 -2.069981 -0.767445
-4.830450 -1.912624 -0.721011
-4.531924 -2.335757 -0.773521
-4.623169 -2.188864 -0.775396
-4.651341 -2.007020 -0.755980
-4.740432 -1.859304 -0.753625
-4.409320 -2.265129 -0.734600
-4.512317 -2.125230 -0.763203
-4.565590 -1.955276 -0.796441
-4.633142 -1.799232 -0.749737
-4.311900 -2.207292 -0.747564
-4.414333 -2.067702 -0.776357
-4.442241 -1.887558 -0.755653
-4.513604 -1.734541 -0.717791
-4.214623 -2.149608 -0.759385
-4.308402 -2.006598 -0.770461
-4.319840 -1.820485 -0.713255
-4.407336 -1.675222 -0.711181
-4.109686 -2.088194 -0.752074
-4.198914 -1.943990 -0.754278
-4.214465 -1.760795 -0.705272
-4.313747 -1.620913 -0.730262
-4.012866 -2.030915 -0.761546
-4.125200 -1.897842 -0.817992
-4.141110 -1.714570 -0.768332
-4.208146 -1.562127 -0.721197
-3.901126 -1.966356 -0.733604
-4.004720 -1.830465 -0.772231
-4.032207 -1.653620 -0.749017
-4.122740 -1.511075 -0.756195
-3.782701 -1.898660 -0.686034
-3.900343 -1.770561 -0.761313
-3.935338 -1.597773 -0.755701
-4.017714 -1.452764 -0.744774
-3.679843 -1.838761 -0.673495
-3.763060 -1.696069 -0.666898
-3.823693 -1.536038 -0.724679
-3.913160 -1.394801 -0.732094
-3.598884 -1.789644 -0.714777
-3.707564 -1.658268 -0.772394
-3.742209 -1.486634 -0.765728
-3.824067 -1.342613 -0.754858
-3.503589 -1.733601 -0.718384
-3.590065 -1.592948 -0.721032
-3.631545 -1.425614 -0.732218
-3.716542 -1.283885 -0.730619
-3.415386 -1.681064 -0.739384
-3.515645 -1.546740 -0.779045
-3.521662 -1.365128 -0.697342
-3.616873 -1.228150 -0.723563
-3.327140 -1.628563 -0.759424
-3.416598 -1.489782 -0.771448
-3.440317 -1.315988 -0.735369
-3.524656 -1.175163 -0.733895
-3.222395 -1.568244 -0.731953
-3.314570 -1.431665 -0.753391
-3.345072 -1.261486 -0.735313
-3.425615 -1.119926 -0.724595
-3.124769 -1.511448 -0.721891
-3.209780 -1.372518 -0.724788
-3.250086 -1.207199 -0.734178
-3.333766 -1.067278 -0.732823
-3.033854 -1.457927 -0.729440
-3.137912 -1.327507 -0.788591
-3.155367 -1.153131 -0.731965
-3.235391 -1.012559 -0.721308
-2.924571 -1.395875 -0.679564
-2.995953 -1.252992 -0.645013
-3.064114 -1.100470 -0.738091
-3.143946 -0.960271 -0.727453
-2.849417 -1.349902 -0.732079
-2.948884 -1.218432 -0.782270
-2.966770 -1.045674 -0.724343
-3.046274 -0.906090 -0.713745
-2.750169 -1.292770 -0.708200
-2.836725 -1.156802 -0.720784
-2.885096 -0.996684 -0.756789
-2.967731 -0.858085 -0.755636
-2.660118 -1.239998 -0.711623
-2.769837 -1.113873 -0.800144
-2.791255 -0.943373 -0.750451
-2.870515 -0.804292 -0.739877
-2.575834 -1.189933 -0.733085
-2.658923 -1.053104 -0.736302
-2.694822 -0.889293 -0.733548
-2.791592 -0.756173 -0.780050
-2.472339 -1.131231 -0.686874
-2.571573 -1.001985 -0.747383
-2.604518 -0.837486 -0.734635
-2.683258 -0.699392 -0.724124
-2.398971 -1.086207 -0.744661
-2.470625 -0.945601 -0.709725
-2.511641 -0.784919 -0.725175
-2.590120 -0.647319 -0.714693
-2.301665 -1.030519 -0.715444
-2.386376 -0.895885 -0.728402
-2.419101 -0.732610 -0.714685
-2.508353 -0.598554 -0.742563
-2.217557 -0.980780 -0.733187
-2.299454 -0.845189 -0.736595
-2.326909 -0.680562 -0.703176
-2.407554 -0.544669 -0.702362
-2.118720 -0.924684 -0.692217
-2.212595 -0.794585 -0.743861
-2.245251 -0.631972 -0.729202
-2.325840 -0.496045 -0.728408
-2.032522 -0.874203 -0.698410
-2.116051 -0.740490 -0.711579
-2.153489 -0.580290 -0.715758
-2.241369 -0.446714 -0.743972
-1.955586 -0.827721 -0.742425
-2.039094 -0.693671 -0.755632
-2.062099 -0.528883 -0.701313
-2.149427 -0.395628 -0.729643
-1.851474 -0.769822 -0.669233
-1.922653 -0.632830 -0.634046
-1.982722 -0.481097 -0.734383
-2.069844 -0.347557 -0.762783
-1.774426 -0.723381 -0.711511
-1.868153 -0.593942 -0.773456
-1.889483 -0.429413 -0.708328
-1.966692 -0.294298 -0.697998
-1.682354 -0.670794 -0.684825
-1.760172 -0.536577 -0.678761
-1.807687 -0.381011 -0.729959
-1.875916 -0.244063 -0.680693
-1.600849 -0.622590 -0.705942
-1.693168 -0.493129 -0.768194
-1.715175 -0.329863 -0.701957
-1.785543 -0.194121 -0.662411
-1.519165 -0.574334 -0.726233
-1.596951 -0.440098 -0.720179
-1.629322 -0.280583 -0.702282
-1.712403 -0.147465 -0.721312
-1.431738 -0.523886 -0.716299
-1.513152 -0.391190 -0.729852
-1.543595 -0.231430 -0.701711
-1.622274 -0.097773 -0.701233
-1.341022 -0.472310 -0.685800
-1.420069 -0.339572 -0.689606
-1.456114 -0.182001 -0.690432
-1.534528 -0.048671 -0.689996
-1.261140 -0.424895 -0.713310
-1.349064 -0.294517 -0.766266
-1.374356 -0.133885 -0.707714
-1.443308 0.000695 -0.658199
-1.169511 -0.373266 -0.671087
-1.242915 -0.239635 -0.645431
-1.285499 -0.084451 -0.684800
-1.361713 0.048663 -0.674592
-1.091115 -0.326450 -0.706764
-1.177838 -0.196014 -0.759927
-1.210399 -0.037551 -0.739798
-1.279976 0.096662 -0.690160
-1.001874 -0.275952 -0.672536
-1.078447 -0.143591 -0.666587
-1.115499 0.012529 -0.675634
-1.199760 0.144577 -0.714762
-0.920307 -0.228129 -0.686798
-1.007238 -0.098087 -0.750040
-1.033777 0.060416 -0.689499
-1.109762 0.193018 -0.679319
-0.826572 -0.176598 -0.611122
-0.898261 -0.044440 -0.575538
-0.946172 0.108908 -0.662959
-1.020386 0.241043 -0.642930
-0.749219 -0.130225 -0.653370
-0.837320 -0.000767 -0.736630
-0.869968 0.156249 -0.714751
-0.945985 0.288833 -0.704568
-0.665361 -0.081963 -0.645243
-0.741311 0.049468 -0.639347
-0.782732 0.204423 -0.686470
-0.858488 0.336514 -0.676322
-0.583923 -0.034421 -0.656121
-0.672874 0.095285 -0.759440
-0.700852 0.252197 -0.696989
-0.776624 0.384278 -0.686837
-0.505500 0.012424 -0.696008
-0.582736 0.144123 -0.700038
-0.618874 0.299977 -0.706679
-0.689823 0.431451 -0.656825
-0.416896 0.061447 -0.635605
-0.497686 0.192072 -0.679467
-0.532543 0.347471 -0.675773
-0.604665 0.478470 -0.635855
-0.339029 0.108238 -0.683821
-0.414915 0.239706 -0.677932
-0.446727 0.394613 -0.643978
-0.521992 0.525700 -0.633897
-0.252345 0.156412 -0.631609
-0.332211 0.287251 -0.675558
-0.368753 0.442680 -0.690960
-0.444312 0.574241 -0.680840
-0.172392 0.203576 -0.658278
-0.251198 0.334823 -0.692281
-0.283387 0.489460 -0.657464
-0.358684 0.620529 -0.647381
-0.089418 0.250970 -0.644235
-0.169964 0.382473 -0.708190
-0.204672 0.537857 -0.702844
-0.280262 0.669399 -0.692721
-0.006094 0.298148 -0.619367
-0.081946 0.428714 -0.623508
-0.119782 0.584260 -0.667658
-0.192078 0.713663 -0.617720
0.074786 0.345331 -0.633601
-0.004533 0.477222 -0.697630
-0.037895 0.631633 -0.671516
-0.113922 0.763129 -0.671394
0.154995 0.392809 -0.667002
0.077023 0.524907 -0.711068
0.044040 0.678984 -0.674552
-0.029499 0.808518 -0.634557
0.237145 0.439892 -0.659628
0.160498 0.571538 -0.683740
0.124167 0.727995 -0.716685
0.048513 0.859500 -0.706559
0.318612 0.487264 -0.671413
0.242492 0.618848 -0.685538
0.208028 0.773602 -0.678149
0.133092 0.904029 -0.658087
0.400682 0.534200 -0.662391
0.323961 0.666858 -0.706489
0.290069 0.820863 -0.678710
0.215802 0.949978 -0.638701
0.482224 0.581881 -0.682528
0.406572 0.713368 -0.686659
0.372132 0.868087 -0.678445
0.297013 0.998408 -0.658383
0.564439 0.627702 -0.641874
0.488645 0.760572 -0.685982
0.453573 0.917654 -0.717280
0.377855 1.049122 -0.707154
0.646182 0.675765 -0.670359
0.570783 0.807237 -0.674493
0.536303 0.962409 -0.675441
0.461000 1.092625 -0.655383
0.728294 0.723624 -0.688018
0.652871 0.855930 -0.702124
0.618397 1.009500 -0.672702
0.542613 1.143681 -0.702484
0.809361 0.767904 -0.624940
0.734424 0.898997 -0.629087
0.700490 1.056540 -0.669138
0.625001 1.187497 -0.659051
0.891224 0.815153 -0.630971
0.817357 0.950182 -0.694981
0.782574 1.103524 -0.664749
0.707069 1.234473 -0.654663
0.975146 0.865729 -0.696051
0.899836 0.997894 -0.700147
0.864643 1.150450 -0.659537
0.789122 1.281390 -0.649451
1.055364 0.909739 -0.640546
0.982448 1.045633 -0.704476
0.947868 1.200738 -0.693336
0.872053 1.332151 -0.683216
1.137628 0.957067 -0.644085
1.063180 1.089610 -0.658152
1.028713 1.244112 -0.646641
0.953160 1.375033 -0.636559
1.220012 1.004415 -0.646791
1.146139 1.137974 -0.670794
1.110700 1.290841 -0.638960
1.035507 1.422816 -0.638814
1.301267 1.050334 -0.628753
1.224391 1.178853 -0.593041
1.192648 1.337497 -0.630456
1.116613 1.467294 -0.610448
1.381631 1.095327 -0.599963
1.310336 1.231457 -0.653754
1.276936 1.388189 -0.660847
1.201056 1.519565 -0.650731
1.468601 1.147340 -0.659827
1.393067 1.279011 -0.653933
1.359087 1.434860 -0.650663
1.283192 1.566227 -0.640552
1.550633 1.193918 -0.649243
1.475894 1.326569 -0.653270
1.444169 1.485902 -0.679295
1.367979 1.617743 -0.669147
1.632603 1.240410 -0.637838
1.560519 1.376156 -0.671588
1.526499 1.532573 -0.667422
1.447282 1.659296 -0.617720
1.708512 1.281198 -0.566177
1.641809 1.421682 -0.649414
1.612348 1.583948 -0.694276
1.532535 1.710975 -0.644584
1.796334 1.333124 -0.612566
1.720864 1.464831 -0.606665
1.690938 1.625637 -0.641207
1.614700 1.757450 -0.631066
1.887277 1.387506 -0.677752
1.815588 1.524758 -0.711306
1.781419 1.682295 -0.705759
1.704606 1.815065 -0.695547
1.968314 1.432896 -0.653093
1.888925 1.561916 -0.617561
1.855041 1.718308 -0.611702
1.784037 1.857338 -0.650760
2.054305 1.482521 -0.667056
1.984340 1.621599 -0.710330
1.951327 1.780910 -0.713718
1.869691 1.908187 -0.664180
2.137898 1.529996 -0.660429
2.057814 1.659264 -0.624956
2.025123 1.817611 -0.628007
1.953284 1.956117 -0.657065
2.227330 1.582203 -0.692241
2.160489 1.725069 -0.754957
2.116629 1.873949 -0.678919
2.034362 2.000870 -0.629513
2.309777 1.628556 -0.674035
2.234749 1.763608 -0.677828
2.200531 1.921789 -0.670065
2.123289 2.055115 -0.659823
2.395302 1.677338 -0.674584
2.326342 1.818262 -0.717479
2.281465 1.966518 -0.640820
2.202850 2.098059 -0.620832
2.481000 1.726165 -0.674239
2.405875 1.861803 -0.677966
2.363693 2.012619 -0.620536
2.287991 2.147506 -0.620050
2.556379 1.766889 -0.614484
2.484978 1.905050 -0.637703
2.465531 2.078030 -0.716189
2.381170 2.205694 -0.666975
2.645597 1.818341 -0.631924
2.575910 1.958639 -0.664787
2.548373 2.124369 -0.694027
2.471948 2.260768 -0.693399
2.744741 1.877191 -0.696948
2.680222 2.023438 -0.758800
2.638239 2.177383 -0.709797
2.552974 2.305180 -0.660716
2.833248 1.927760 -0.702627
2.750053 2.058643 -0.667449
2.721072 2.223612 -0.685900
2.644483 2.360557 -0.685203
2.915910 1.973867 -0.678343
2.852250 2.121073 -0.739870
2.803742 2.269696 -0.661176
2.725339 2.404768 -0.650824
2.998407 2.019828 -0.653234
2.916849 2.152167 -0.627821
2.894302 2.322938 -0.674121
2.815604 2.458482 -0.663738
3.082922 2.067245 -0.636930
3.020255 2.215164 -0.698121
2.976922 2.368888 -0.647657
2.890134 2.496474 -0.598918
3.169670 2.116237 -0.629357
3.098616 2.257626 -0.651985
3.068007 2.422313 -0.658674
2.982721 2.552238 -0.619567
3.263536 2.170293 -0.649593
3.201443 2.319647 -0.710397
3.150549 2.468113 -0.630467
3.069357 2.602044 -0.610523
3.336253 2.209056 -0.582805
3.267942 2.352676 -0.614812
3.232896 2.513750 -0.601440
3.162804 2.658176 -0.629104
3.440464 2.270301 -0.639223
3.371839 2.415181 -0.671071
3.343607 2.583567 -0.685572
3.254466 2.712397 -0.637114
3.538114 2.326681 -0.665853
3.454463 2.460890 -0.640600
3.426416 2.629351 -0.654582
3.336969 2.758011 -0.606236
3.612771 2.366748 -0.606101
3.547110 2.514299 -0.647168
3.519110 2.683396 -0.660542
3.438899 2.821287 -0.650016
3.724577 2.432815 -0.677885
3.637485 2.565843 -0.643253
3.604367 2.731134 -0.637207
3.524069 2.869137 -0.626677
3.812795 2.482238 -0.663500
3.738880 2.625638 -0.675974
3.705555 2.791901 -0.669306
3.614353 2.921503 -0.621215
3.889691 2.523771 -0.610642
3.824399 2.673278 -0.651195
3.788324 2.837440 -0.634677
3.707503 2.976268 -0.624096
4.001049 2.589025 -0.669321
3.926901 2.733570 -0.681617
3.882099 2.891857 -0.636525
3.800982 3.031158 -0.625915
4.080731 2.632380 -0.624021
4.003894 2.774725 -0.626936
3.976197 2.946394 -0.637301
3.894783 3.086167 -0.626662
4.175310 2.685880 -0.624415
4.119210 2.844194 -0.692261
4.070605 3.001045 -0.637002
3.988894 3.141290 -0.626333
4.282714 2.747983 -0.660762
4.192981 2.882903 -0.626524
4.177422 3.065341 -0.672533
4.086266 3.199027 -0.634142
4.368581 2.795371 -0.631189
4.306765 2.950850 -0.680008
4.260322 3.110666 -0.633152
4.165911 3.241684 -0.585683
4.483751 2.862428 -0.683444
4.396070 3.000790 -0.658516
4.368282 3.175471 -0.666229
4.273012 3.307290 -0.618834
4.556612 2.900942 -0.615165
4.485374 3.050670 -0.636065
4.451178 3.220677 -0.624928
4.355611 3.352334 -0.577680
4.676517 2.970881 -0.673963
4.588037 3.110077 -0.649113
4.547009 3.275815 -0.619165
4.463815 3.418424 -0.608351
4.755891 3.013662 -0.622137
4.704888 3.179464 -0.697226
4.643099 3.331033 -0.612291
4.559607 3.474115 -0.601451
4.856123 3.070255 -0.623853
4.777565 3.217223 -0.626237
4.742881 3.388939 -0.613321
4.659022 3.532613 -0.602444
4.956737 3.126995 -0.624379
4.899225 3.289684 -0.680718
4.850072 3.452290 -0.631114
4.765705 3.596799 -0.620181
5.065100 3.188731 -0.641651
4.975026 3.329602 -0.616977
4.947151 3.507864 -0.620732
4.866001 3.655654 -0.618703
5.155311 3.238428 -0.612899
5.083421 3.392405 -0.632920
5.059060 3.574396 -0.644822
4.959486 3.708949 -0.598231
5.249288 3.290532 -0.592064
5.169898 3.439747 -0.594164
5.156838 3.630226 -0.632013
5.074950 3.779515 -0.629816
5.366695 3.357840 -0.623298
5.309723 3.524152 -0.678387
5.239654 3.674903 -0.582781
5.154099 3.821302 -0.571740
5.457243 3.407533 -0.591291
5.396732 3.571656 -0.637267
5.352976 3.742010 -0.602968
5.266842 3.889362 -0.591864
5.559793 3.464949 -0.584620
5.491438 3.624441 -0.612775
5.467016 3.809441 -0.621671
5.380303 3.957747 -0.610503
5.674942 3.530411 -0.602901
5.590209 3.679952 -0.595938
5.565794 3.865556 -0.604097
5.467018 4.005250 -0.566846
5.790790 3.596185 -0.619686
5.734190 3.766339 -0.673435
5.697199 3.945239 -0.654580
5.593374 4.083196 -0.608716
5.886172 3.648665 -0.591743
5.792391 3.793877 -0.567422
5.780310 3.989755 -0.599895
5.696478 4.143058 -0.597217
5.994453 3.709349 -0.588521
5.933969 3.878236 -0.632992
5.879792 4.046051 -0.578649
5.791608 4.196728 -0.567344
6.107493 3.772969 -0.592503
6.025469 3.928369 -0.593909
5.979400 4.102348 -0.556225
5.895105 4.256667 -0.553405
6.225477 3.839623 -0.603544
6.156065 4.004877 -0.630359
6.092092 4.167895 -0.558042
6.007353 4.323082 -0.555123
6.321622 3.892246 -0.570721
6.243432 4.052050 -0.580408
6.214056 4.239877 -0.575252
6.124415 4.392932 -0.563800
6.435973 3.956363 -0.570470
6.370919 4.126143 -0.605246
6.332311 4.309031 -0.582423
6.242090 4.463040 -0.570911
6.560048 4.026522 -0.585484
6.458273 4.173171 -0.553051
6.433092 4.365682 -0.554692
6.342573 4.520162 -0.543157
6.670778 4.088105 -0.573857
6.609992 4.263150 -0.616362
6.552270 4.435188 -0.558895
6.461173 4.590622 -0.547300
6.786581 4.152784 -0.569110
6.702296 4.313299 -0.569938
6.653435 4.491900 -0.528566
6.566615 4.651184 -0.525173
6.931715 4.235806 -0.612203
6.856112 4.404247 -0.629327
6.768775 4.558436 -0.521585
6.681509 4.718585 -0.518092
7.029237 4.288740 -0.571453
6.944014 4.451283 -0.572063
6.913167 4.645058 -0.561903
6.825032 4.806794 -0.558255
7.136546 4.347743 -0.545835
7.080300 4.530247 -0.595054
7.034538 4.715434 -0.559669
6.941120 4.874680 -0.547838
7.274026 4.425529 -0.567324
7.173053 4.580343 -0.543515
7.136826 4.772449 -0.523672
7.072074 4.953220 -0.559962
7.402249 4.497376 -0.570826
7.345537 4.682786 -0.619184
7.278793 4.856759 -0.550292
7.184214 5.017911 -0.538346
7.541341 4.575859 -0.588514
7.438782 4.732989 -0.564770
7.406668 4.931143 -0.551058
7.311439 5.093369 -0.539045
7.644941 4.632113 -0.548821
7.567609 4.806418 -0.564693
7.545296 5.012729 -0.565804
7.449275 5.176268 -0.553709
7.790519 4.714348 -0.570782
7.707381 4.886834 -0.578552
7.669306 5.084109 -0.555095
7.557485 5.237687 -0.519504
7.878590 4.760786 -0.504755
7.816495 4.947116 -0.543602
7.814564 5.169831 -0.573768
7.696565 5.321079 -0.530493
8.062943 4.866729 -0.577353
7.957493 5.028013 -0.553774
7.923868 5.230877 -0.536329
7.831227 5.401094 -0.531757
8.200134 4.943309 -0.577769
8.115351 5.119654 -0.584992
8.086452 5.327976 -0.574083
7.987542 5.496285 -0.561690
8.337953 5.020132 -0.576258
8.230927 5.183740 -0.552753
8.169498 5.370991 -0.495346
8.102448 5.561865 -0.528515
8.443076 5.076700 -0.527299
8.341156 5.244277 -0.511447
8.360810 5.487072 -0.566658
8.281942 5.672938 -0.584256
8.576133 5.150350 -0.514712
8.490177 5.329700 -0.521414
8.465866 5.544733 -0.515100
8.397793 5.738837 -0.547404
8.771993 5.262379 -0.582452
8.690398 5.447824 -0.596368
8.654167 5.658225 -0.573684
8.541180 5.823962 -0.546137
8.872231 5.315619 -0.521058
8.784964 5.497900 -0.527361
8.765422 5.719775 -0.526069
8.696313 5.917102 -0.557496
9.053157 5.418114 -0.561444
8.970572 5.606183 -0.574860
8.916341 5.807751 -0.528224
8.818698 5.987129 -0.522700
9.182840 5.489121 -0.533365
9.088351 5.670889 -0.531962
9.027882 5.869268 -0.477388
8.929926 6.049269 -0.471778
9.365856 5.592506 -0.568624
9.270277 5.776378 -0.567044
9.266644 6.015337 -0.583332
9.138241 6.178754 -0.541534
9.490609 5.660233 -0.529288
9.394625 5.844993 -0.527590
9.326662 6.042314 -0.464173
9.250247 6.241107 -0.486761
9.675560 5.764420 -0.559418
9.584423 5.955053 -0.564643
9.533010 6.166274 -0.521405
9.426236 6.347593 -0.508222
9.734393 5.791902 -0.438579
9.637661 5.978314 -0.436643
9.663611 6.239834 -0.484153
9.585664 6.442372 -0.505908
9.932813 5.903934 -0.478173
9.889298 6.127132 -0.538889
9.836444 6.341116 -0.493710
9.733947 6.529261 -0.487297
10.138780 6.020297 -0.521520
10.045628 6.215378 -0.526107
9.992017 6.430801 -0.479932
9.888709 6.620406 -0.473372
10.296390 6.107215 -0.506633
10.184068 6.292173 -0.490433
10.172622 6.536736 -0.491100
10.044044 6.711740 -0.457120
10.448281 6.190528 -0.482615
10.335169 6.376805 -0.466393
10.335700 6.630935 -0.479159
10.254802 6.840707 -0.499242
10.619601 6.285395 -0.476591
10.543077 6.496963 -0.500705
10.511850 6.733482 -0.478121
10.405539 6.928425 -0.471046
10.798031 6.384358 -0.474627
10.701813 6.586008 -0.478312
10.669996 6.824047 -0.454457
10.587679 7.037308 -0.473700
10.957953 6.472021 -0.450089
10.867404 6.679176 -0.460153
10.853918 6.931225 -0.454659
10.770710 7.146526 -0.473455
11.176733 6.594824 -0.482037
11.078500 6.800606 -0.485221
11.038702 7.038721 -0.451950
10.954601 7.256063 -0.470302
11.357638 6.694695 -0.471565
11.258500 6.902361 -0.474504
11.198613 7.129835 -0.420609
11.113901 7.348735 -0.438545
11.512905 6.779045 -0.432663
11.419652 6.992169 -0.441780
11.410738 7.254601 -0.437742
11.324844 7.476017 -0.455194
11.617510 7.375609 -0.445090
11.504682 7.582058 -0.436927
11.779293 7.467298 -0.405486
11.665648 7.675203 -0.397174
12.020885 7.610243 -0.437322
11.931784 7.838599 -0.453352
12.237244 7.736609 -0.440708
12.120543 7.949826 -0.431929
12.447910 7.859035 -0.434506
12.356492 8.092288 -0.449557
12.639173 7.968753 -0.407009
12.546840 8.204033 -0.421601
12.885529 8.113506 -0.423497
12.784969 8.347291 -0.431688
13.105734 8.241216 -0.412568
0.776941 0.367675 10.024383
12.976768 8.459469 -0.397134
0.813335 0.391365 9.999235
0.786841 0.373668 10.023517
0.824680 0.393734 9.997383
0.801789 0.383327 10.014156
0.783402 0.367375 10.032110
0.788853 0.374623 10.026855
0.798598 0.376840 10.022971
0.811004 0.388978 10.012440
0.799615 0.377318 10.024738
0.783718 0.370898 10.035525
0.800619 0.377788 10.026515
0.784639 0.371329 10.037153
0.808862 0.382818 10.023149
0.821448 0.395193 10.013068
0.853631 0.410814 9.994551
0.808105 0.386289 10.025228
0.816371 0.391479 10.022113