# This PCD file was generated using the MATLAB® pcwrite function
# from Computer Vision System Toolbox®.
# .PCD v.7 - Point Cloud Data file format
VERSION .7
FIELDS x y z
SIZE 4 4 4
TYPE F F F
COUNT 1 1 1
WIDTH 862
HEIGHT 1
VIEWPOINT 0 0 0 1 0 0 0
POINTS 862
DATA ascii
54.809349 -63.983456 7.885593
53.148811 -63.585220 8.737087
53.916580 -64.049561 7.753418
52.989670 -63.560417 8.316341
53.701714 -64.037704 7.389553
52.100616 -63.697884 8.876385
53.181496 -64.086304 7.433964
51.782280 -63.709248 8.678974
52.465847 -64.175125 7.757984
51.243965 -63.770817 8.791363
52.005764 -64.213615 7.743999
51.782902 -63.584965 7.374691
51.740959 -64.212532 7.458637
50.616642 -63.792519 8.398689
51.034771 -64.303085 7.813877
51.142036 -63.605354 6.956371
55.679260 -63.269291 0.245857
51.015686 -63.569153 6.453617
50.983112 -64.200027 6.531254
55.160767 -63.310768 0.208805
50.451206 -63.637611 6.616028
54.579063 -63.366524 0.277542
50.056320 -63.665947 6.526054
50.718021 -64.137657 5.516254
54.075409 -63.406281 0.235809
53.499680 -62.745155 0.279739
50.924427 -64.030243 4.447502
50.435654 -63.430939 4.445995
50.440338 -64.073982 4.473900
49.973976 -63.473648 4.443104
49.958614 -64.117958 4.505798
49.489017 -63.523056 4.488083
49.539696 -64.148354 4.440388
49.095680 -63.549522 4.383842
49.101624 -64.183632 4.413765
48.639011 -63.592983 4.395832
48.625824 -64.228325 4.461060
48.203484 -63.631550 4.378109
48.210266 -64.259514 4.409370
47.731644 -63.680584 4.434834
47.738781 -64.304642 4.466831
47.294975 -63.720890 4.435471
47.325813 -64.336327 4.424221
46.901031 -63.749973 4.361526
46.913746 -64.368271 4.385876
46.458076 -63.793293 4.388821
46.448647 -64.414024 4.458080
46.012787 -63.838078 4.429779
46.021767 -64.450935 4.464264
45.604408 -63.872959 4.404156
45.631271 -64.479080 4.403442
45.450798 -65.099770 4.399555
45.461601 -65.704895 4.432320
45.197098 -63.908077 4.382706
45.207123 -64.516441 4.418297
45.074188 -65.123672 4.317947
44.790901 -63.943428 4.365417
44.901886 -64.522751 4.185230
44.606171 -65.169327 4.438896
44.617943 -65.768837 4.472683
44.467735 -63.953987 4.171509
44.396942 -64.582870 4.388939
44.219170 -65.196625 4.392559
44.215172 -65.797760 4.463127
43.949905 -64.024788 4.415817
43.977524 -64.620857 4.416771
43.784782 -65.235786 4.459404
43.801590 -65.829399 4.485027
43.563671 -64.055801 4.374714
43.575771 -64.654610 4.412495
43.384285 -65.267387 4.457680
43.417259 -65.855446 4.447090
43.162659 -64.092018 4.373978
43.175293 -64.688576 4.412277
43.000435 -65.295357 4.423267
42.998955 -65.889122 4.495647
42.747868 -64.133385 4.413998
42.776146 -64.722748 4.416103
42.617290 -65.323563 4.392605
42.620476 -65.914795 4.456299
42.364628 -64.165070 4.384621
42.378353 -64.757126 4.423939
42.220173 -65.355804 4.402683
42.224144 -65.944763 4.466915
41.967686 -64.201897 4.395954
41.996460 -64.787338 4.398750
41.810093 -65.392036 4.453876
38.688061 -66.680008 12.574705
41.572182 -64.238907 4.411266
41.601185 -64.822113 4.414429
41.430237 -65.420868 4.434765
38.538116 -66.667236 12.163826
41.205757 -64.266357 4.356083
41.224697 -64.851669 4.387466
41.037498 -65.453674 4.456715
36.749641 -67.034676 16.187099
38.368141 -66.658203 11.790657
40.785637 -64.313499 4.453728
40.828625 -64.887917 4.420216
36.524433 -66.637405 16.014101
37.244923 -66.436264 13.998426
36.585602 -67.030472 15.903748
40.407822 -64.346214 4.443363
37.198212 -65.976051 13.657906
40.473854 -64.911461 4.344379
36.307652 -66.644623 15.873066
37.059532 -66.430466 13.710011
36.387871 -67.033806 15.705931
40.043755 -64.374321 4.399055
37.066353 -65.948441 13.200159
36.133778 -66.639137 15.601688
37.239582 -66.317604 12.328354
39.916451 -65.539261 4.404430
36.225815 -67.028008 15.396189
39.680000 -64.402664 4.358162
37.008789 -65.893791 12.497099
39.531952 -65.571899 4.431988
36.009254 -67.035187 15.238712
36.696545 -65.463013 12.467762
36.729164 -65.913010 12.445757
35.737778 -66.640381 15.175703
39.155010 -65.602875 4.444340
35.778553 -67.045776 15.120895
36.384243 -65.496117 12.523138
36.425705 -65.940865 12.472889
38.946018 -65.046265 4.415108
35.500019 -66.652489 15.078924
35.605499 -67.041145 14.814508
36.105312 -65.516258 12.477091
35.304039 -66.266747 15.205824
36.129280 -65.966751 12.483952
35.315517 -66.647583 14.802893
35.533836 -67.008522 14.155676
39.626495 -65.910599 0.518845
39.288940 -64.068985 0.607140
35.124878 -66.256927 14.912090
35.996330 -65.932228 11.944391
35.143509 -66.637680 14.470547
35.365089 -67.000397 13.792753
39.241215 -65.936203 0.455292
38.952286 -64.075623 0.373116
34.930370 -66.251717 14.657618
38.986435 -64.701324 0.383476
34.936787 -66.638145 14.244534
35.069237 -67.026947 13.862526
35.428356 -65.506340 11.769869
35.409210 -65.981140 11.939476
38.584118 -64.735008 0.382248
34.830944 -66.603279 13.635403
34.845882 -67.033218 13.675426
34.753277 -65.707390 13.211176
34.986858 -65.599968 12.327831
35.088417 -65.553268 11.943768
35.121773 -66.003777 11.921917
34.624363 -66.601166 13.372818
34.748993 -67.001640 12.998087
34.465008 -65.736168 13.247244
34.800182 -66.040916 12.041916
34.394341 -66.606537 13.188862
34.740234 -66.481216 11.817347
34.848885 -66.907730 11.498461
37.640678 -66.059227 0.467869
34.123489 -65.791679 13.507917
34.212154 -66.193199 13.256573
34.610001 -66.023079 11.643600
34.030041 -66.661392 13.548727
37.209194 -65.475288 0.461460
37.245419 -66.089767 0.470646
33.949459 -65.765259 13.085953
36.966904 -64.244728 0.325741
33.898785 -66.232834 13.414434
33.781445 -66.674141 13.447060
33.698639 -67.135063 13.915033
36.889793 -66.108055 0.312019
35.716732 -64.724762 4.091663
36.570820 -64.279900 0.333069
33.630817 -66.253288 13.391209
33.520737 -66.691490 13.396084
36.464302 -65.522499 0.283154
36.475201 -66.145653 0.409328
35.358757 -64.755753 4.090813
36.196850 -64.303871 0.246986
33.371525 -66.269913 13.331524
33.278564 -66.701294 13.259743
33.132915 -67.187180 14.061123
32.771038 -66.033836 14.771753
33.121952 -66.281769 13.225407
33.014427 -66.719955 13.222950
32.878063 -67.204369 14.016155
32.576149 -66.019539 14.456240
32.704624 -66.378166 13.950653
32.721260 -66.751556 13.335133
32.663620 -67.206833 13.767954
32.309223 -66.046227 14.493338
32.457794 -66.391068 13.859972
32.469219 -66.765457 13.244518
32.108204 -67.338097 15.305176
32.423096 -67.218193 13.638901
31.778883 -66.239700 15.989746
32.074028 -66.478706 14.515421
31.893019 -66.933891 14.960871
31.857470 -67.357872 15.308474
31.716232 -66.141083 14.937311
31.858727 -66.476089 14.273233
31.694626 -66.927246 14.641596
31.588722 -67.385414 15.422207
31.439865 -66.178925 15.080446
31.671932 -66.454536 13.836199
31.338980 -67.000488 15.268183
31.328743 -67.410217 15.499128
31.222582 -66.175987 14.862833
31.312677 -66.537605 14.462423
31.204433 -66.958214 14.519411
31.124826 -67.410515 15.223459
31.494623 -67.243446 12.807299
31.063454 -66.126381 14.223917
31.109159 -66.524414 14.107832
31.068474 -66.910484 13.691927
31.074453 -67.336273 13.853115
30.784472 -66.165916 14.383350
30.867224 -66.534615 13.991285
30.775202 -66.951256 13.931515
30.789242 -67.369682 14.043760
30.522491 -66.193489 14.436995
30.654121 -66.522446 13.639778
30.477783 -66.997498 14.243225
30.520212 -67.396378 14.138168
30.250044 -66.231911 14.591751
30.406141 -66.088715 13.278730
30.456543 -66.493988 13.111832
30.210354 -67.026779 14.349995
30.240339 -67.430336 14.344080
30.136099 -66.117218 13.335840
30.177530 -66.527855 13.238180
30.000578 -67.014999 13.943842
29.955734 -67.469391 14.632046
29.864357 -66.149002 13.425076
29.897993 -66.564491 13.396841
29.832037 -66.965492 13.053034
31.095926 -65.955429 0.264977
29.716101 -67.482437 14.525602
29.879732 -67.376060 12.887184
29.591715 -66.183998 13.546501
29.627991 -66.594650 13.488718
29.573122 -66.982582 12.997015
30.709303 -65.994789 0.376499
29.504738 -67.474716 14.093210
29.336359 -66.200073 13.492052
29.361538 -66.623024 13.563210
30.325794 -66.033463 0.481579
29.285257 -67.468338 13.672285
29.060284 -66.244583 13.707586
29.101891 -66.645111 13.570589
29.971111 -66.043953 0.222157
29.104034 -67.423904 12.635864
30.016573 -66.644234 0.223763
28.811752 -66.251595 13.568422
28.849918 -66.657455 13.470947
29.592558 -66.078506 0.274162
28.848835 -67.434837 12.466892
29.638994 -66.677025 0.265911
28.555882 -66.268234 13.520723
28.596983 -66.669197 13.363514
29.362394 -65.488770 0.218582
29.215187 -66.113220 0.329521
29.261866 -66.710602 0.321362
28.306086 -66.270760 13.336142
28.354164 -66.659981 13.019470
28.986557 -65.521217 0.235664
28.842710 -66.142143 0.308517
28.889723 -66.739502 0.300381
28.050467 -66.280823 13.223240
28.564754 -64.951324 0.241268
28.610439 -65.555634 0.275944
28.470085 -66.171333 0.290768
28.515892 -66.771057 0.322540
27.798235 -66.274017 12.943480
28.189520 -64.984795 0.264866
28.237461 -65.584137 0.249836
28.096193 -66.203712 0.316147
28.142637 -66.802818 0.347980
27.816195 -65.012444 0.232063
27.863739 -65.614639 0.246902
27.723705 -66.233398 0.304913
27.771883 -66.829529 0.286865
27.441114 -65.050362 0.302013
27.489246 -65.650543 0.306999
27.351265 -66.262627 0.286953
27.398958 -66.862343 0.328800
27.068111 -65.072571 0.216034
27.116785 -65.673828 0.220928
26.978565 -66.293541 0.292198
27.027235 -66.889633 0.274162
26.694231 -65.107941 0.262676
26.743147 -65.704239 0.217815
26.605724 -66.321182 0.250820
26.654888 -66.920067 0.272686
26.319946 -65.133728 0.213062
26.375574 -65.778458 0.736107
26.239788 -66.384598 0.721409
26.282562 -66.950752 0.274452
25.962442 -65.239288 0.982681
26.016472 -65.849686 1.227676
25.874775 -66.426247 0.885956
25.910288 -66.981689 0.279480
25.604813 -65.300705 1.307610
25.656660 -65.894112 1.403542
25.512943 -66.468590 1.063641
25.777267 -67.429497 7.962730
25.538403 -67.013412 0.297729
25.242344 -65.336128 1.367035
25.293482 -65.924660 1.413200
25.151306 -66.506210 1.174656
25.164808 -67.042694 0.269341
24.878487 -65.366989 1.379894
24.926708 -65.948982 1.346378
24.794518 -66.547920 1.348583
24.792595 -67.074387 0.284119
24.806070 -65.884743 6.544781
24.506901 -65.384926 1.256771
24.561445 -65.977661 1.332554
24.441252 -66.590286 1.535526
24.417685 -67.103722 0.252300
24.504375 -65.936432 6.819935
24.108391 -65.367889 0.759407
24.199663 -66.011383 1.381615
24.063660 -66.605934 1.317261
24.045393 -67.135925 0.273605
24.184555 -65.959259 6.789757
23.821751 -65.503487 1.894302
23.803095 -66.006775 0.946629
23.697250 -66.635048 1.301445
23.709831 -67.193092 0.786171
23.855017 -65.972282 6.653244
23.518570 -65.597267 2.594395
23.909950 -66.493439 6.775429
23.423119 -66.026443 0.813469
23.329546 -66.663811 1.278904
23.338928 -67.223404 0.773846
23.511112 -65.973930 6.390793
23.539942 -66.475090 6.204674
23.033445 -66.040428 0.604305
23.068193 -66.765106 2.402344
23.039242 -67.292168 1.540554
23.244091 -66.050148 6.944118
23.177513 -66.471588 5.816189
22.615288 -66.035927 0.150661
22.778406 -66.835770 3.060543
23.040077 -67.497726 5.151470
22.912918 -66.064957 6.826088
22.874506 -66.515762 6.045864
22.668591 -66.999390 5.238503
22.733503 -67.537308 5.393322
22.558409 -66.064240 6.533020
22.413197 -66.455177 4.891357
22.407322 -67.063683 5.839611
22.369637 -67.552528 5.121841
22.260021 -66.107262 6.727585
22.205158 -66.559372 5.918880
22.177927 -67.137421 6.610733
22.197956 -67.639893 6.399685
21.539383 -67.401253 1.236992
22.029123 -66.191986 7.398415
21.937582 -66.619751 6.373901
21.956207 -67.207817 7.343498
22.034691 -67.720955 7.578682
21.224548 -67.450897 1.639763
21.688290 -66.202591 7.232452
21.868824 -66.777351 8.163605
21.582726 -66.631157 6.169319
21.639774 -67.234291 7.346436
21.351624 -67.118675 5.380802
21.716381 -67.746437 7.551598
20.864643 -67.484261 1.688950
21.379040 -66.233353 7.296219
21.288568 -66.673927 6.392139
21.112898 -67.182518 6.000690
20.563047 -67.534325 2.116486
21.120129 -66.290497 7.667542
20.857830 -66.151718 6.054615
20.614723 -66.023087 4.559700
20.948692 -66.694656 6.312019
20.857040 -67.236000 6.454407
20.871521 -67.743736 6.243893
20.242737 -67.577171 2.388386
20.269079 -66.049744 4.554131
20.602011 -66.713676 6.205540
20.263840 -66.572365 4.219063
20.574568 -67.277863 6.713036
19.634790 -66.971100 1.292450
19.438646 -66.907074 0.161110
19.682793 -67.559677 1.244858
19.892799 -66.062584 4.384941
20.226664 -66.722763 5.955025
19.918701 -66.601768 4.236584
19.376682 -66.388824 1.212135
20.256767 -67.307487 6.757725
19.232201 -66.993713 1.138985
19.285786 -67.586571 1.120697
19.509396 -66.074333 4.199791
18.933922 -65.819580 1.164345
19.567867 -66.629372 4.227764
19.051170 -66.438080 1.482510
19.926167 -67.333527 6.736549
19.062893 -67.084969 2.225121
19.040901 -67.647308 1.815060
19.126158 -66.088310 4.037933
18.351398 -65.763702 0.137363
19.189362 -66.647827 4.085072
18.745287 -66.492592 1.833698
19.580994 -67.356140 6.649841
18.676502 -67.110855 2.136108
18.735388 -67.692635 2.147911
18.737553 -66.102051 3.870037
17.975399 -65.799271 0.200562
18.811886 -66.668152 3.965576
18.459084 -66.551483 2.255482
18.351475 -67.153435 2.353745
18.367935 -67.724998 2.160141
17.593567 -65.832664 0.237839
18.083000 -66.579689 2.230446
17.654369 -66.445389 0.240513
17.980610 -67.184105 2.349552
18.000113 -67.757652 2.175678
17.172211 -65.852119 0.103493
17.253366 -66.473709 0.193420
17.602411 -67.213562 2.319534
17.125736 -67.104561 0.225876
17.638569 -67.791702 2.223778
17.530506 -66.139732 3.302013
16.768389 -65.879173 0.060581
16.869053 -66.507568 0.227814
16.762697 -67.143684 0.349289
16.800911 -67.751160 0.251755
17.120373 -66.153557 3.120735
16.367863 -65.908173 0.040813
16.432831 -66.527779 0.052311
16.312815 -67.164803 0.116940
16.438839 -67.789902 0.378395
16.664747 -66.155045 2.779282
16.646729 -66.716011 2.474770
16.061153 -66.566132 0.152134
15.919930 -67.198708 0.131149
15.989727 -67.816414 0.159382
16.359646 -66.204247 3.040638
15.637460 -66.591713 0.052391
15.534199 -67.234352 0.177933
15.594544 -67.851357 0.167290
15.175740 -66.001915 0.061634
15.237338 -66.623894 0.053131
16.233025 -67.461105 4.187920
15.794990 -67.384026 2.588612
15.968387 -67.981995 3.004337
15.550102 -66.244720 2.821373
15.549811 -66.815094 2.604816
15.955306 -67.506035 4.491756
16.062702 -68.069565 4.667557
15.233276 -66.289810 3.033775
14.361088 -66.061729 0.036419
15.792058 -66.977859 4.754753
15.524961 -67.525703 4.260574
15.743636 -68.105782 4.809811
15.424451 -66.461555 4.929859
15.419019 -67.004517 4.716686
15.297843 -67.577682 4.722553
15.509704 -68.150742 5.232327
13.970265 -67.990570 0.111099
15.222561 -66.527771 5.447727
15.091594 -67.040733 4.834866
14.953089 -67.611115 4.784950
15.468813 -68.213577 6.257519
14.946889 -66.574394 5.709694
14.768423 -67.077637 4.965363
14.629967 -67.647713 4.917053
15.274464 -68.259071 6.747356
14.729692 -68.208626 5.043018
14.718602 -66.630577 6.106285
14.785455 -67.175117 6.132854
14.957852 -67.769646 7.015488
14.189030 -67.668762 4.691429
14.959620 -68.292786 6.848518
14.281265 -68.233559 4.788124
14.198626 -66.622673 5.625305
14.541142 -67.222717 6.464588
14.422800 -67.775589 6.466389
14.145169 -68.285446 5.475479
14.092991 -66.703194 6.365910
14.144618 -67.244232 6.344967
13.999539 -67.797478 6.272816
13.872008 -68.324921 5.737534
13.756998 -66.734650 6.429256
13.943064 -67.297493 6.784416
13.893541 -67.856644 6.977051
13.818304 -68.379997 6.603813
13.852118 -66.848564 7.666176
13.902882 -67.373619 7.646564
13.888961 -67.924591 7.924042
13.657791 -68.425476 7.139862
13.685498 -66.908539 8.152000
13.707872 -67.423943 8.058048
13.644455 -67.964645 8.195763
13.544513 -68.472778 7.778820
13.598592 -66.980713 8.824142
13.645056 -67.491364 8.796341
13.367433 -68.000931 8.375973
13.448587 -68.519630 8.435684
13.345246 -67.021645 9.050121
13.395367 -67.531113 9.031715
13.137089 -68.041397 8.669743
13.170814 -68.554634 8.608536
13.109951 -67.064964 9.314896
13.062293 -67.559631 9.056038
12.903278 -68.080956 8.946423
12.823273 -68.585823 8.607738
12.816643 -67.098305 9.433884
12.847753 -67.603142 9.369427
12.669397 -68.119987 9.215374
12.594324 -68.623314 8.896343
12.665965 -67.153481 9.885719
12.649414 -67.647774 9.711559
12.470765 -68.161407 9.559277
12.369350 -68.660583 9.186344
12.490024 -67.203346 10.264530
12.451993 -67.691620 10.045460
12.277065 -68.202492 9.904091
12.220682 -68.700760 9.642494
12.286901 -67.248123 10.571072
12.320553 -67.741837 10.517067
12.104732 -68.244453 10.286205
11.669133 -68.723961 9.186619
12.121425 -67.297241 10.951248
12.100561 -67.781403 10.779583
11.933772 -68.285706 10.659763
11.517885 -68.763626 9.628162
11.893496 -67.336876 11.187319
11.888305 -67.821220 11.052519
11.588989 -68.314613 10.654167
11.168936 -68.795776 9.635475
11.685906 -67.378609 11.460936
11.731522 -67.865860 11.434855
11.364691 -68.351593 10.904209
10.684650 -68.824066 9.366997
11.451132 -67.416306 11.673050
11.408832 -67.894112 11.467581
10.869337 -68.371956 10.599922
9.925465 -68.845551 8.557072
10.994705 -67.427002 11.440790
10.870849 -67.903481 11.074697
9.921928 -68.367966 9.418190
9.142078 -68.868889 7.739986
5.339735 -68.769394 0.172085
10.738403 -67.462364 11.613827
10.488766 -67.928093 11.009029
8.778854 -68.357460 7.912819
6.278801 -68.222679 3.060688
6.402506 -68.848427 3.153275
9.945786 -67.437469 10.763103
8.665342 -67.294075 8.322304
5.966219 -67.612724 3.030319
4.424828 -67.485886 0.081264
5.946274 -68.265800 3.266502
6.075808 -68.891083 3.367344
3.873985 -66.845505 0.099304
5.529650 -67.648300 3.044384
3.939133 -67.522758 0.064629
5.568478 -68.306686 3.387051
5.751314 -68.933762 3.584106
3.400322 -66.881126 0.114563
5.072662 -67.682899 3.027927
3.489756 -67.563087 0.123421
5.090246 -68.343216 3.327114
5.429045 -68.976463 3.803543
2.910627 -66.915787 0.108665
2.995991 -67.600655 0.108192
4.589870 -68.379539 3.237629
5.089535 -69.018906 3.990696
2.419106 -66.951012 0.108051
2.505177 -67.639145 0.107025
4.086344 -68.416573 3.153881
4.553764 -69.059021 3.833229
8.798109 -67.633125 11.935179
7.457785 -67.507065 9.629417
7.292635 -68.029648 9.226490
2.032625 -67.679535 0.145756
3.599871 -68.455070 3.110458
4.053854 -69.100395 3.751339
8.472023 -67.662407 11.997347
7.152431 -67.542603 9.771938
1.446085 -67.024513 0.148571
7.197733 -68.079605 9.732201
1.538620 -67.719101 0.155071
3.095640 -68.493652 3.046730
1.368275 -68.432686 0.142097
3.525394 -69.142265 3.632210
6.930838 -67.585510 10.054039
0.934132 -67.060020 0.138222
6.970865 -68.120392 10.005882
1.084219 -67.761742 0.238235
2.630072 -68.534279 3.057178
0.908657 -68.477577 0.218884
3.024235 -69.185127 3.570690
6.660255 -67.623810 10.252457
0.525002 -67.105011 0.303612
6.464689 -68.144577 9.821163
0.765469 -67.812706 0.547501
2.136644 -68.574631 3.030209
0.911287 -68.537071 1.048794
2.494061 -69.228546 3.472385
7.667885 -67.766243 12.482981
3.068127 -67.390991 5.166977
0.441210 -67.176682 0.988819
0.747393 -67.880096 1.333431
1.102365 -68.600288 2.154560
1.838064 -69.272446 3.185612
7.596806 -67.816254 12.952354
2.787970 -67.437866 5.449131
0.955006 -67.293640 2.589161
2.963270 -68.064224 5.595661
2.872992 -68.702614 5.684811
1.294462 -68.661163 3.228607
0.576639 -69.317207 1.972595
2.456320 -67.480499 5.649670
5.687433 -68.261261 10.486431
5.590414 -68.818871 10.536190
0.117809 -69.364349 2.043041
2.065474 -67.518768 5.761665
5.438532 -68.300354 10.720566
2.166906 -68.142754 5.789238
2.072840 -68.784889 5.872871
5.346506 -69.395386 10.669216
-0.563286 -69.412575 1.785355
1.674772 -67.557343 5.877644
1.776989 -68.182899 5.904625
1.700659 -68.827103 6.014500
5.268799 -69.432053 11.155117
1.261536 -67.594666 5.964737
1.364571 -68.222351 5.991077
4.871218 -68.933784 11.272324
1.294941 -68.868927 6.110500
5.118359 -69.468575 11.524736
0.847954 -67.632355 6.056225
0.974770 -68.263123 6.114655
4.659885 -68.972305 11.553871
0.889029 -68.911102 6.210796
4.725325 -69.506660 11.542883
0.434071 -67.670418 6.152119
0.556168 -68.303047 6.201565
0.494646 -68.953796 6.331623
4.546492 -69.543175 11.866282
0.043507 -67.710266 6.284725
0.172466 -68.344666 6.341484
0.082720 -68.996567 6.432358
3.493382 -69.589050 10.986813
2.196650 -69.603264 9.209656
-0.346706 -67.750404 6.421345
-0.216705 -68.386337 6.477287
0.477428 -69.048393 7.619843
2.995977 -69.630417 10.893936
1.809139 -69.645210 9.296654
0.753511 -69.658371 7.875961
-0.730494 -67.791161 6.569969
-0.629581 -68.427505 6.585194
3.393703 -69.120575 12.095285
0.751650 -69.096695 8.614498
3.279581 -69.661613 11.844006
-1.168627 -67.829231 6.651272
-1.060860 -68.468460 6.673752
2.967283 -69.157295 12.094152
3.156790 -69.697510 12.240101
1.903681 -68.048363 11.211378
-1.613556 -67.867416 6.729599
1.938717 -68.609383 11.153530
0.053633 -68.554688 8.743744
1.840414 -69.190598 11.210041
2.940372 -69.734627 12.510099
-2.052958 -67.906357 6.820747
1.525791 -68.645210 11.198338
1.802948 -69.231133 11.724783
3.631456 -69.755173 13.914677
1.672567 -69.790787 11.460894
0.584663 -68.091103 10.701252
-1.200058 -68.006798 8.506584
1.558842 -68.692802 11.799425
-1.079298 -68.626099 8.544914
1.538754 -69.270370 11.951014
3.172121 -69.795670 13.861507
1.595633 -69.826469 11.921471
-1.480074 -68.051208 8.773460
-2.926889 -67.985809 7.025505
1.574976 -68.738861 12.366699
-1.390415 -68.669243 8.772655
1.033968 -69.309402 11.887056
-1.290367 -69.307297 9.085800
2.691040 -69.837242 13.791050
-1.654490 -68.100044 9.164932
-3.290342 -68.029350 7.223137
-3.133591 -68.681313 7.295670
-0.460945 -69.349792 10.660637
-3.319197 -69.351578 7.276070
-0.362320 -69.936493 10.674675
-3.763184 -68.068504 7.295376
-3.650589 -68.722870 7.313488
-1.118567 -69.392105 10.459007
-3.699707 -69.397575 7.455795
1.967278 -69.916748 13.957344
-0.712940 -69.979607 10.828945
-4.230419 -68.108429 7.380684
-1.354284 -68.816566 10.574310
-4.090738 -68.766518 7.428169
1.431086 -69.424042 13.939610
-1.373503 -69.434105 10.733086
1.578594 -69.957680 14.016533
-4.691801 -68.149101 7.478920
-1.429485 -68.862152 11.052038
-4.577541 -68.809807 7.495422
1.186567 -69.461906 14.168837
-0.834589 -69.472069 11.898058
1.315178 -69.995766 14.222427
-0.423418 -70.040871 12.262924
-5.133669 -68.190948 7.604759
-1.699270 -68.904137 11.305737
-4.991852 -68.854736 7.650211
-5.077456 -69.538544 7.751850
0.303020 -70.054283 13.599579
-5.602747 -68.232285 7.706177
-5.466608 -68.899185 7.743206
-5.578485 -69.586777 7.817116
1.212837 -70.060188 15.097939
-6.154394 -68.271461 7.725498
-6.044405 -68.942917 7.732124
-2.181660 -69.599754 12.046106
-6.279112 -69.637413 7.676949
-0.031527 -70.127037 14.248383
-1.424391 -70.168167 12.758471
-6.845972 -68.307159 7.606934
-6.728025 -68.986374 7.619656
-1.993361 -69.636635 12.776857
0.843704 -70.131241 15.664057
-1.547371 -70.204597 13.150438
-2.269297 -68.495461 12.941248
-2.018904 -69.078430 13.105877
-1.557751 -69.669418 13.745932
0.607994 -70.168297 15.891340
-1.547472 -70.236877 13.664400
-9.533838 -68.346870 6.087772
-2.144247 -69.120216 13.492863
-2.035204 -69.712418 13.766153
-1.961704 -70.282280 13.748739
-3.134604 -68.568825 13.104036
-10.249872 -68.387657 6.008789
-3.035643 -69.157097 13.108932
-5.453535 -69.142891 10.690258
-2.167030 -69.751030 14.138067
-2.242121 -70.323563 13.972286
-11.084219 -68.426811 5.827511
-5.775595 -69.187553 10.929577
-10.959795 -69.164490 5.832870
-2.702114 -69.795685 14.111631
-2.663544 -70.369919 14.058533
-11.895628 -68.467995 5.685722
-3.636408 -69.239807 13.548473
-11.734026 -69.215134 5.724434
-3.218157 -69.840736 14.113144
-1.142324 -70.346413 16.023102
-3.064026 -70.415955 14.170767
-12.712282 -68.510498 5.555256
-12.585424 -69.266876 5.557838
-3.540058 -69.882950 14.306852
-6.382586 -69.934380 11.622543
-1.345673 -70.383469 16.295246
-2.615662 -70.430763 15.092173
-19.361479 -68.442032 0.014935
-6.774981 -69.322128 11.625666
-3.714251 -69.922516 14.640043
-3.697365 -70.502762 14.566389
-20.271990 -68.494286 -0.075710
-19.316698 -69.379654 0.664635
-4.069622 -69.965637 14.805676
-3.610304 -70.530617 15.136988
-21.016394 -68.550728 -0.000027
-20.796438 -69.443588 0.062527
-4.394606 -70.008385 15.002073
-3.753517 -70.567154 15.490078
-7.380754 -70.713364 12.228762
-21.867903 -68.606537 -0.007275
-4.907722 -69.447601 14.878553
-7.584692 -70.116524 12.677549
-21.840723 -70.440811 0.121262
-5.177465 -68.900314 15.219707
-22.670195 -68.664261 0.042946
-5.150488 -69.489090 15.155258
-22.386431 -69.573235 0.153996
-21.968214 -70.498459 0.755436
-7.900156 -70.803101 12.835922
-21.870062 -71.393852 0.706913
-5.341539 -68.942657 15.563223
-20.393324 -68.760376 2.731270
-20.195028 -69.621300 2.773216
-20.351820 -70.512062 2.865437
-21.070921 -68.817421 2.866119
-20.909544 -69.684433 2.874271
-21.096395 -70.582924 2.943909
-21.904093 -68.873787 2.882656
-21.656614 -69.748703 2.959290
-21.804453 -70.653694 3.064083
-21.622972 -71.522827 3.086346
-22.522783 -68.933083 3.086731
-22.289236 -69.812782 3.148819
-21.875837 -70.707314 3.708286
-21.740648 -71.573601 3.692204
-22.522951 -68.997192 3.789936
-22.296537 -69.870667 3.844910
-21.869188 -70.758110 4.406620
-21.726301 -71.617851 4.396618
-22.546156 -69.060196 4.465557
-22.279703 -69.927452 4.550484
-21.309736 -70.791504 5.525578
-21.073305 -71.630951 5.589836
-22.069239 -69.124435 5.515804
-21.842112 -69.977829 5.569778
-21.965643 -70.861153 5.690815
-21.711683 -71.705444 5.765369
-22.736311 -69.183128 5.682842
-22.443884 -70.041374 5.783146
-22.574263 -70.929977 5.900707
-22.350554 -71.780624 5.949265
-23.355841 -69.242645 5.894352
-23.117834 -70.106628 5.950588
-22.989817 -71.856499 6.141525
-24.023932 -69.302765 6.078617
-23.768267 -70.172249 6.144657
-23.669794 -71.935127 6.312824
-24.643679 -69.363586 6.306561
-24.427168 -70.238701 6.341473
-24.244722 -72.008987 6.568668
-25.328775 -69.425133 6.496662
-25.070021 -70.305550 6.558510
-24.925348 -72.089020 6.757324
-25.997896 -69.487389 6.707279
-25.786989 -70.374535 6.732937
-26.446798 -70.443138 6.956364
26.597557 -69.345787 42.876587
26.668139 -69.345612 42.914429
26.603924 -69.345924 42.885956
26.657433 -69.346619 42.913349
26.620554 -69.345306 42.897331
26.629814 -69.348602 42.901592
26.664190 -69.343277 42.921761
26.601980 -69.350639 42.890308
26.600449 -69.346756 42.892948
26.591873 -69.351517 42.888268
26.617367 -69.346077 42.903889
26.635746 -69.348732 42.912216
26.652565 -69.344391 42.922951
26.707132 -69.343979 42.948063
26.615339 -69.346588 42.908302
26.597551 -69.351738 42.899731
26.669111 -69.343826 42.934868
26.623837 -69.350082 42.914310
26.622549 -69.346581 42.916733
26.641199 -69.349022 42.924435
26.658718 -69.347931 42.934250