# This PCD file was generated using the MATLAB® pcwrite function
# from Computer Vision System Toolbox®.
# .PCD v.7 - Point Cloud Data file format
VERSION .7
FIELDS x y z
SIZE 4 4 4
TYPE F F F
COUNT 1 1 1
WIDTH 967
HEIGHT 1
VIEWPOINT 0 0 0 1 0 0 0
POINTS 967
DATA ascii
2.563627 31.838247 -0.856508
3.172984 31.448122 -0.616676
2.503149 31.577845 -1.141891
3.113953 31.218912 -0.927317
2.440787 30.895140 -1.010391
3.050503 30.809233 -1.060162
2.379948 30.231178 -0.883583
2.986280 30.343292 -1.131355
2.320670 29.851402 -1.033560
2.923868 29.934229 -1.254076
2.261672 29.526737 -1.236906
2.860528 29.449255 -1.292536
2.203408 29.035952 -1.262463
2.796376 28.869928 -1.222940
2.146258 28.492491 -1.223223
2.733588 28.307583 -1.160315
2.090090 27.958624 -1.184286
2.670446 27.634144 -0.964464
2.033763 27.547752 -1.272421
2.613041 27.345898 -1.184393
1.978751 27.071318 -1.280741
2.554844 26.963558 -1.296377
1.925746 26.511669 -1.184893
2.495660 26.378841 -1.169310
1.873058 26.007568 -1.142607
2.438260 25.901794 -1.156498
1.818569 25.653767 -1.270311
2.381922 25.503746 -1.229939
1.766275 25.210794 -1.286053
2.326050 25.030354 -1.205925
1.716022 24.712914 -1.226452
2.270994 24.584352 -1.207205
1.664163 24.317410 -1.285883
2.216870 24.090601 -1.140305
1.613535 23.898129 -1.309242
2.162657 23.777666 -1.296268
1.568071 23.334345 -1.137175
2.109530 23.354691 -1.305964
1.517457 22.967686 -1.213371
2.057275 22.915340 -1.286646
1.467278 22.601448 -1.285528
2.005474 22.501774 -1.294268
1.420292 22.165211 -1.256567
1.954973 22.048796 -1.240316
1.372136 21.777582 -1.287523
1.903857 21.679432 -1.295031
1.325564 21.368149 -1.281334
1.854048 21.270765 -1.288233
1.279664 20.960451 -1.270393
1.804911 20.863838 -1.276684
1.235291 20.537773 -1.229870
1.755719 20.486559 -1.301929
2.251277 20.174059 -1.274654
1.189595 20.155985 -1.242720
1.707228 20.104904 -1.314615
2.200452 19.794128 -1.284462
2.716388 19.740646 -1.352388
1.143227 19.797285 -1.284819
1.660004 19.702847 -1.289431
2.150031 19.437031 -1.323738
2.663157 19.351549 -1.340919
1.098625 19.417875 -1.289320
1.613466 19.302729 -1.259624
2.100471 19.043625 -1.299795
2.610476 18.958843 -1.316544
1.060022 18.955084 -1.154007
1.569826 18.846495 -1.131847
2.051366 18.667770 -1.296936
2.558936 18.604473 -1.347431
1.019619 18.537893 -1.081202
1.527392 18.388708 -0.989986
2.003512 18.252153 -1.221340
2.507435 18.209900 -1.305851
0.969776 18.267626 -1.243284
1.477086 18.135048 -1.177084
1.961410 17.580153 -0.701626
2.454011 17.493496 -0.707806
0.926049 17.914696 -1.265268
1.443661 17.525280 -0.758551
1.912104 17.343990 -0.908447
2.406034 17.337364 -1.053173
0.880447 17.592762 -1.335373
1.399086 17.178400 -0.773754
1.866534 16.952709 -0.843761
2.356807 16.926054 -0.953842
0.894550 16.551544 -0.133165
0.844116 17.162546 -1.211000
1.348007 16.960251 -1.011623
1.817839 16.699800 -1.019348
2.308424 16.599985 -0.998489
0.809970 16.721249 -1.055347
1.300382 16.676399 -1.134230
1.770177 16.411665 -1.131346
2.260221 16.345833 -1.171679
0.764250 16.422443 -1.148897
1.258817 16.296503 -1.078419
1.724662 16.066387 -1.134766
2.212590 15.986851 -1.148384
0.725465 16.052763 -1.107346
1.215771 15.951603 -1.080166
1.680357 15.703775 -1.099068
2.165252 15.661758 -1.183306
0.688695 15.671158 -1.035170
1.181298 15.492720 -0.856522
1.638196 15.306569 -0.988188
2.118954 15.282871 -1.107935
0.644578 15.369299 -1.109926
1.135885 15.201983 -0.948006
1.594394 14.966145 -0.980053
2.072834 14.942101 -1.099941
0.605600 15.022617 -1.092442
1.095578 14.848479 -0.911480
1.548470 14.679763 -1.076080
2.026569 14.637637 -1.160276
0.570162 14.651032 -1.017464
1.048586 14.584249 -1.050846
1.501799 14.410113 -1.205500
1.980974 14.316050 -1.181524
0.521522 14.398351 -1.181585
1.000515 14.331604 -1.214979
1.461108 14.037545 -1.115263
1.936643 13.961410 -1.126995
0.481835 14.071901 -1.189884
0.961787 13.975943 -1.159626
1.420107 13.684265 -1.057274
1.891962 13.641936 -1.141451
0.445831 13.721438 -1.140387
0.920449 13.655436 -1.173206
1.378636 13.349375 -1.031986
1.848765 13.290738 -1.079590
0.415972 13.332100 -0.996035
0.882858 13.303245 -1.110533
1.337682 13.015944 -1.003214
1.805599 12.957576 -1.050652
0.376749 13.018278 -1.011967
0.844169 12.969089 -1.080751
1.294852 12.715411 -1.044527
1.763598 12.610281 -0.981438
0.334423 12.728693 -1.079870
0.802894 12.663763 -1.111885
1.253581 12.399753 -1.046030
1.720651 12.299599 -0.991657
0.294111 12.427376 -1.117424
0.763783 12.343573 -1.103130
1.212727 12.085021 -1.044378
1.676968 12.012169 -1.054409
0.258977 12.096275 -1.078108
0.727939 12.002019 -1.035589
1.168222 11.815468 -1.151068
1.632511 11.742909 -1.160982
0.214428 11.825658 -1.183840
0.683513 11.732151 -1.141029
1.126641 11.516129 -1.180811
1.590732 11.429666 -1.153196
0.176965 11.514512 -1.184797
0.647141 11.404035 -1.094919
1.088302 11.188966 -1.132879
1.551197 11.089388 -1.067396
0.143140 11.186638 -1.136007
0.607221 11.105602 -1.120287
1.051630 10.853162 -1.053467
1.508447 10.806249 -1.128309
0.104561 10.887964 -1.158833
0.567100 10.810999 -1.152187
1.010086 10.566637 -1.102312
1.496114 10.124992 -0.065519
0.063611 10.603148 -1.216393
0.528350 10.509993 -1.162483
1.052182 9.604322 0.795723
1.471636 9.652142 0.458534
0.031815 10.275577 -1.148832
0.494347 10.183555 -1.094379
1.003375 9.414564 0.521212
1.440573 9.284533 0.704151
-0.002216 9.962736 -1.115761
0.526692 9.487587 0.084534
0.980445 9.030658 0.826887
1.392377 9.113994 0.364687
0.036943 9.334010 -0.112923
0.514321 9.072655 0.475557
0.920972 8.910666 0.327906
1.349410 8.880972 0.207117
0.048715 8.850618 0.499075
0.485721 8.755536 0.585897
0.853631 8.826976 -0.314224
1.305722 8.651772 0.032295
0.025554 8.525810 0.640629
0.443334 8.511281 0.470472
0.824813 8.488952 -0.143698
1.260573 8.431616 -0.179062
-0.060035 8.444544 -0.016821
0.386235 8.333958 0.127495
0.791970 8.182405 -0.065531
1.218640 8.180769 -0.292765
-0.110361 8.219079 -0.215254
0.348603 8.062927 0.092361
0.759668 7.877849 0.015680
1.177809 7.920530 -0.375465
-0.098699 7.775119 0.355892
0.327836 7.722258 0.309645
0.711652 7.659134 -0.208490
1.138937 7.646465 -0.407658
-0.127857 7.482771 0.412802
0.291009 7.453438 0.280022
0.669616 7.406689 -0.315149
1.100690 7.369917 -0.427687
-0.166181 7.222333 0.356842
0.226491 7.290170 -0.152737
0.631888 7.133348 -0.342230
1.071806 7.037612 -0.222288
-0.203524 6.959031 0.312851
0.178771 7.056815 -0.333174
0.599318 6.838774 -0.279530
1.030715 6.784620 -0.324200
-0.239017 6.690775 0.290577
0.145388 6.771647 -0.308146
0.564430 6.557240 -0.262604
0.993457 6.509995 -0.336382
-0.304525 6.504606 -0.078505
0.115894 6.476140 -0.231871
0.520754 6.311705 -0.398874
0.954307 6.246576 -0.394812
-0.354476 6.270855 -0.261816
0.067589 6.241187 -0.415588
0.488702 6.021987 -0.337994
0.920211 5.959561 -0.343483
-0.393347 6.006993 -0.316700
0.037307 5.951256 -0.353657
0.452932 5.748009 -0.342793
0.883338 5.687991 -0.357948
-0.436450 5.752752 -0.418034
-0.001402 5.686933 -0.406212
0.416227 5.478286 -0.364689
0.849074 5.406977 -0.320959
-0.467945 5.471991 -0.390198
-0.033931 5.406766 -0.378168
0.385343 5.191862 -0.295919
0.814226 5.130713 -0.301003
-0.494566 5.182869 -0.310858
-0.065337 5.125671 -0.337751
0.349853 4.921244 -0.303036
0.778228 4.860473 -0.308023
-0.529852 4.913207 -0.326809
-0.097911 4.849176 -0.314379
0.317853 4.642434 -0.258551
0.744522 4.583804 -0.273233
-0.560263 4.635231 -0.291288
-0.132514 4.578461 -0.317976
0.279665 4.380812 -0.309990
0.709621 4.312863 -0.265491
-0.597822 4.371009 -0.331846
-0.166050 4.306458 -0.309309
0.248320 4.103443 -0.260532
0.674479 4.043899 -0.265184
-0.626648 4.092811 -0.281532
-0.200105 4.036435 -0.308050
0.211230 3.840162 -0.297401
0.637433 3.780926 -0.302010
-0.659898 3.822934 -0.277941
-0.230587 3.761112 -0.264923
0.179171 3.567105 -0.262770
0.605007 3.506971 -0.257366
-0.693850 3.554756 -0.281807
-0.268238 3.498741 -0.308189
0.146047 3.297456 -0.245468
0.570681 3.239051 -0.249866
-0.717678 3.274237 -0.184574
-0.294690 3.219806 -0.220634
0.112506 3.029545 -0.235661
0.536050 2.972680 -0.249891
-0.761995 3.020208 -0.292284
-0.333593 2.959915 -0.278980
0.075596 2.767500 -0.273039
0.499900 2.709767 -0.277338
-0.795196 2.752626 -0.289034
-0.370637 2.697112 -0.315258
0.043296 2.498998 -0.248596
0.466952 2.441664 -0.252810
-0.827117 2.484317 -0.273518
-0.398668 2.424097 -0.250109
0.010548 2.232040 -0.231697
0.433694 2.175087 -0.235838
-0.862890 2.220113 -0.295248
-0.435263 2.161338 -0.281713
-0.019623 1.963059 -0.182629
0.400720 1.908984 -0.216505
-0.888013 1.947460 -0.215551
-0.462608 1.890131 -0.211760
-0.057197 1.702551 -0.230583
0.365480 1.646289 -0.234634
-0.921167 1.682250 -0.212757
-0.498745 1.627498 -0.238701
-0.089920 1.437392 -0.216587
0.332385 1.381493 -0.220583
-0.956215 1.418522 -0.227472
-0.533777 1.363892 -0.253410
-0.120777 1.171449 -0.180349
0.300879 1.115949 -0.184277
-0.991062 1.154650 -0.239876
-0.568609 1.100141 -0.265808
-0.155371 0.908670 -0.191547
0.262964 0.855826 -0.245293
-1.025707 0.890652 -0.249968
-0.603237 0.836264 -0.275894
-0.189761 0.645776 -0.200441
0.231976 0.590898 -0.204346
-1.054631 0.624588 -0.208086
-0.633799 0.570784 -0.243881
-0.228109 0.384357 -0.256838
0.194358 0.329701 -0.260786
-1.094375 0.362361 -0.263206
-0.667969 0.307063 -0.249334
-0.257920 0.119725 -0.211319
0.160368 0.066516 -0.265074
-1.122769 0.097012 -0.216684
-0.701928 0.043278 -0.252480
-0.288263 -0.143956 -0.173452
0.129456 -0.197216 -0.227163
-1.151974 -0.167384 -0.177776
-0.731679 -0.221012 -0.213512
-0.329565 -0.406275 -0.262791
0.093023 -0.459998 -0.266735
-1.180876 -0.431112 -0.136562
-0.765166 -0.484521 -0.212034
-0.362953 -0.669874 -0.260159
0.059674 -0.723287 -0.264105
-1.219895 -0.694517 -0.182447
-0.798434 -0.748034 -0.208250
-0.396122 -0.933469 -0.255219
0.026544 -0.986570 -0.259169
-1.262310 -0.959152 -0.255796
-0.839731 -1.012689 -0.281723
-0.429069 -1.197038 -0.247971
-0.009407 -1.250720 -0.291803
-1.295236 -1.223428 -0.247372
-0.872642 -1.276843 -0.273300
-0.465430 -1.461729 -0.278229
-0.042134 -1.514279 -0.282246
-1.331507 -1.488548 -0.266405
-0.908485 -1.541895 -0.292383
-0.497968 -1.725533 -0.266350
-0.074634 -1.777771 -0.270382
-1.368814 -1.754498 -0.293020
-0.940972 -1.806177 -0.279325
-0.537724 -1.992971 -0.331730
-0.110076 -2.043109 -0.296038
-1.396281 -2.017260 -0.237961
-0.973229 -2.070363 -0.263954
-0.569884 -2.257275 -0.315191
-0.148583 -2.311308 -0.359152
-1.439317 -2.286486 -0.309452
-1.015012 -2.339628 -0.335588
-0.601810 -2.521452 -0.296339
-0.174816 -2.570932 -0.270681
-1.471211 -2.551318 -0.289389
-1.046891 -2.604339 -0.315536
-0.637346 -2.788380 -0.314884
-0.202315 -2.830684 -0.199875
-1.512810 -2.821850 -0.346174
-1.086268 -2.874142 -0.362539
-0.662028 -3.046915 -0.221945
-0.236981 -3.096860 -0.216213
-1.544305 -3.087039 -0.321417
-1.103237 -3.128254 -0.209070
-0.691237 -3.308540 -0.176371
-0.264731 -3.356225 -0.150810
-1.562921 -3.342984 -0.195555
-1.132079 -3.390072 -0.162344
-0.719168 -3.568631 -0.118626
-0.295574 -3.618697 -0.122829
-1.601463 -3.612840 -0.225470
-1.171992 -3.661414 -0.212183
-0.757824 -3.839739 -0.167452
-0.333089 -3.889635 -0.171782
-1.632176 -3.877030 -0.193800
-1.202651 -3.925139 -0.180574
-0.788288 -4.102736 -0.134760
-0.363517 -4.152323 -0.139128
-1.662637 -4.140963 -0.159822
-1.233059 -4.188608 -0.146654
-0.822591 -4.370431 -0.139250
-0.397232 -4.419778 -0.143705
-1.698057 -4.409612 -0.162882
-1.267875 -4.456864 -0.149837
-0.856718 -4.638526 -0.141346
-0.430771 -4.687634 -0.145887
-1.733299 -4.678649 -0.163534
-1.302514 -4.725510 -0.150620
-0.890666 -4.906999 -0.141043
-0.464132 -4.955867 -0.145678
-1.752488 -4.931013 -0.044060
-1.326306 -4.981580 -0.060570
-0.924432 -5.175830 -0.138330
-0.538429 -5.292665 -0.585957
-1.803234 -5.217803 -0.157606
-1.370049 -5.262358 -0.135147
-1.004713 -5.514689 -0.565140
-0.574622 -5.570245 -0.609766
-1.837922 -5.487876 -0.151011
-1.420981 -5.554482 -0.265850
-1.042804 -5.794605 -0.596138
-0.600419 -5.830094 -0.523098
-1.880524 -5.768312 -0.200579
-1.496255 -5.883187 -0.589304
-1.076453 -6.068474 -0.585413
-0.640944 -6.117217 -0.590973
-1.966578 -6.106422 -0.559494
-1.531617 -6.159241 -0.586994
-1.105545 -6.335248 -0.533148
-0.670002 -6.383684 -0.538769
-2.010675 -6.394008 -0.612974
-1.564331 -6.431990 -0.562685
-1.138755 -6.609285 -0.517559
-0.706468 -6.665250 -0.562338
-2.039529 -6.661767 -0.556871
-1.603028 -6.714548 -0.584581
-1.181730 -6.901630 -0.587097
-0.742802 -6.947718 -0.583292
-2.080592 -6.947202 -0.585693
-1.642839 -7.000028 -0.613567
-1.213489 -7.174757 -0.556679
-0.775084 -7.222617 -0.562719
-2.107564 -7.212661 -0.515074
-1.666159 -7.258994 -0.513880
-1.246143 -7.450069 -0.533506
-0.811105 -7.506476 -0.578489
-2.153912 -7.508034 -0.577347
-1.713216 -7.558639 -0.595779
-1.287658 -7.743641 -0.585241
-0.846980 -7.791165 -0.591608
-2.187470 -7.784639 -0.550030
-1.747479 -7.837403 -0.578226
-1.319947 -8.019914 -0.556921
-0.878685 -8.067202 -0.563408
-2.232191 -8.080193 -0.597122
-1.785393 -8.123569 -0.587008
-1.356621 -8.306019 -0.564621
-0.914222 -8.353140 -0.571276
-2.265370 -8.357682 -0.564615
-1.817975 -8.400680 -0.554678
-1.393136 -8.592880 -0.569633
-0.949602 -8.639835 -0.576460
-2.302640 -8.642808 -0.558294
-1.859447 -8.695640 -0.586920
-1.424813 -8.870078 -0.533606
-0.980695 -8.916798 -0.540562
-2.341177 -8.931087 -0.558851
-1.898182 -8.986573 -0.597195
-1.460966 -9.158044 -0.533306
-1.015713 -9.204597 -0.540438
-2.386829 -9.233503 -0.604298
-1.935445 -9.275659 -0.595161
-1.501691 -9.457755 -0.568430
-1.054750 -9.504211 -0.575785
-2.417737 -9.509700 -0.551796
-1.971206 -9.562623 -0.580885
-1.537531 -9.747392 -0.562576
-1.088400 -9.790818 -0.560593
-2.463119 -9.814253 -0.591509
-2.004102 -9.844318 -0.544947
-1.568384 -10.025933 -0.516037
-1.123982 -10.083787 -0.561701
-2.493584 -10.090878 -0.533764
-2.044829 -10.143864 -0.563162
-1.608668 -10.328531 -0.542622
-1.158324 -10.374495 -0.550531
-2.537187 -10.394444 -0.558264
-2.081363 -10.435383 -0.550156
-1.653699 -10.644756 -0.603941
-1.201117 -10.690693 -0.612133
-2.582160 -10.702332 -0.589153
-2.123144 -10.739949 -0.571985
-1.688858 -10.937418 -0.586813
-1.230792 -10.970408 -0.557547
-2.617984 -10.992475 -0.560808
-2.159323 -11.032900 -0.553299
-1.722584 -11.227345 -0.557522
-1.272254 -11.286050 -0.603626
-2.655105 -11.286231 -0.539047
-2.202177 -11.342782 -0.578541
-1.758577 -11.524291 -0.544172
-1.302595 -11.569741 -0.552948
-2.696581 -11.590511 -0.542374
-2.242137 -11.647234 -0.582043
-1.466044 -10.921421 1.921190
-1.796875 -11.828721 -0.546576
-1.340456 -11.877502 -0.564911
-1.787698 -9.763201 5.222532
-2.742476 -11.906022 -0.570499
-1.876046 -10.946171 2.128313
-2.281933 -11.952631 -0.582535
-1.837518 -12.141094 -0.564528
-1.378167 -12.186359 -0.573803
-1.678448 -9.685557 6.083136
-2.788246 -12.222935 -0.595409
-1.281917 -9.634263 6.303585
-1.896759 -11.186494 2.232645
-2.318764 -12.251889 -0.561499
-1.389197 -11.066989 3.000086
-1.875493 -12.447522 -0.560831
-1.415721 -12.496282 -0.579603
-1.617062 -9.708518 6.645643
-2.816919 -12.501725 -0.515831
-1.307551 -9.859738 6.340448
-1.709270 -10.891783 3.703571
-2.352582 -12.544494 -0.519115
-0.940241 -9.946357 6.505743
-1.915833 -12.762157 -0.572525
-0.952699 -11.179226 3.496367
-1.447453 -12.788824 -0.536167
-1.680169 -10.019722 6.463614
-2.870088 -12.838816 -0.580477
-1.320290 -10.052110 6.462126
-2.393223 -12.855759 -0.519875
-0.958374 -10.151758 6.591009
-1.954741 -13.074213 -0.571850
-0.933245 -11.278802 3.914190
-1.485781 -13.104150 -0.545107
-1.678054 -10.177322 6.669128
-2.909177 -13.144258 -0.559269
-1.315683 -10.197885 6.695173
-1.739902 -11.324875 3.958384
-2.442206 -13.190629 -0.572428
-0.978814 -10.364084 6.659763
-1.306332 -11.339914 4.326742
-1.994761 -13.391069 -0.577177
-0.645934 -10.476392 6.466011
-1.527390 -13.432144 -0.578325
-1.705198 -10.404891 6.702566
-2.164822 -11.531131 4.026018
-2.951187 -13.458000 -0.553251
-1.314867 -10.351912 6.901560
-1.766824 -11.572075 4.010914
-2.485393 -13.512020 -0.584942
-0.992562 -10.556456 6.776009
-2.034615 -13.709029 -0.579283
-0.659063 -10.666183 6.592026
-1.561957 -13.738182 -0.553362
-1.694475 -10.538813 6.955860
-2.997726 -13.784397 -0.571272
-1.316475 -10.510974 7.090639
-1.009898 -10.759547 6.866581
-1.203307 -11.353458 5.513819
-2.070405 -14.016102 -0.550905
-0.659112 -10.810543 6.819534
-1.661166 -10.613257 7.336109
-3.045694 -14.116155 -0.594919
-1.317670 -10.667530 7.280689
-1.037406 -10.994386 6.886578
-2.107283 -14.327806 -0.528522
-0.731021 -11.204831 6.486383
-1.636288 -14.372424 -0.539598
-1.690509 -10.844610 7.355911
-1.954960 -11.524069 5.853479
-3.080854 -14.416856 -0.543100
-1.312673 -10.805227 7.507730
-2.615450 -14.487623 -0.611559
-1.024101 -11.101232 7.188105
-2.154444 -14.673352 -0.575058
-0.697697 -11.231269 6.970007
-1.674933 -14.697197 -0.541399
-1.700612 -11.026670 7.485554
-1.346431 -11.052250 7.493080
-2.652179 -14.797214 -0.574780
-1.084024 -11.440121 6.987429
-0.735500 -11.508731 6.904427
-1.712225 -15.018866 -0.530853
-1.705608 -11.194624 7.643383
-3.167975 -15.065315 -0.528818
-1.415093 -11.402217 7.266577
-1.079216 -11.572619 7.228596
-2.239158 -15.340058 -0.594357
-0.723449 -11.606852 7.217518
-1.756440 -15.367384 -0.570644
-1.788785 -11.571549 7.367117
-2.335333 -13.039104 4.337980
-3.224876 -15.427644 -0.592140
-1.413614 -11.549526 7.471659
-2.749850 -15.491296 -0.643225
-1.100543 -11.789357 7.292435
-0.778783 -11.950927 7.023035
-1.794569 -15.695769 -0.562132
-1.806247 -11.774536 7.458448
-2.309859 -13.145906 4.690306
-3.270421 -15.761590 -0.589508
-1.470570 -11.870122 7.323183
-2.784507 -15.799172 -0.587633
-1.139021 -12.063793 7.243250
-0.794703 -12.151664 7.125378
-1.185377 -13.609825 4.235958
-1.831308 -16.020714 -0.541332
-1.862211 -12.083830 7.340288
-1.514299 -12.153903 7.258026
-2.829248 -16.138624 -0.590727
-1.119700 -12.145053 7.576057
-1.597660 -13.758933 4.439095
-0.887430 -12.642729 6.664789
-1.873857 -16.369249 -0.561281
-2.055991 -12.781641 6.480974
-3.359328 -16.428400 -0.564878
-1.605450 -12.585472 6.915230
-1.997084 -13.787794 4.597765
-2.869359 -16.465694 -0.563860
-1.178007 -12.488820 7.399765
-2.403812 -16.679527 -0.572906
-1.127092 -13.702599 5.148529
-1.922301 -16.742496 -0.621357
-2.110868 -13.098753 6.382574
-3.405918 -16.770260 -0.560371
-1.586712 -12.681273 7.224911
-2.037983 -14.084450 4.577581
-2.919674 -16.825968 -0.594759
-1.248600 -12.878771 7.149271
-1.653550 -14.280110 4.539221
-1.210518 -14.178397 4.785690
-1.954827 -17.056902 -0.563576
-3.453948 -17.118017 -0.560877
-1.591345 -12.847946 7.395298
-2.068287 -14.349570 4.621538
-2.960871 -17.159819 -0.569483
-1.326183 -13.297860 6.860519
-2.489041 -17.370153 -0.566908
-0.965574 -13.375854 6.769251
-1.418902 -15.149079 3.542137
-1.994420 -17.400263 -0.554821
-1.987922 -13.064484 7.423794
-2.500737 -14.555845 4.720137
-3.503427 -17.471863 -0.566248
-1.630132 -13.122634 7.367811
-3.001847 -17.494535 -0.540691
-1.315227 -13.408456 7.139322
-2.538875 -17.743942 -0.605864
-0.965872 -13.520613 6.987957
-1.994268 -13.238503 7.580027
-1.638686 -13.301610 7.515617
-3.051631 -17.859238 -0.560028
-1.373700 -13.765824 6.979591
-2.583081 -18.100098 -0.606174
-0.964511 -13.657644 7.215994
-2.001922 -13.415716 7.728991
-3.603474 -18.188728 -0.573870
-1.730057 -13.750389 7.193689
-3.090663 -18.191099 -0.515324
-1.271168 -13.543268 7.825533
-2.620209 -18.432684 -0.559795
-1.024640 -14.042021 7.016232
-2.114440 -18.447144 -0.523478
-2.030756 -13.656220 7.768723
-3.649073 -18.536846 -0.550468
-1.709418 -13.835153 7.508568
-3.149166 -18.588684 -0.577915
-1.313919 -13.843769 7.763369
-2.675045 -18.831688 -0.620575
-1.012732 -14.136247 7.315853
-1.338579 -15.467334 5.082821
-2.159414 -18.820454 -0.542376
-2.089277 -13.988235 7.658665
-3.701083 -18.906239 -0.557140
-1.698900 -13.951054 7.763771
-3.198413 -18.958275 -0.584984
-1.296958 -13.925448 8.068844
-2.707563 -19.150967 -0.541214
-0.937868 -13.968579 8.039181
-1.191386 -15.014996 6.318239
-2.031227 -13.963505 8.141848
-3.739579 -19.236086 -0.492329
-1.687925 -14.063558 8.019218
-2.759271 -19.543283 -0.576488
-1.246942 -15.394573 6.169235
-2.062638 -14.212879 8.170818
-3.806185 -19.654896 -0.566353
-1.642784 -14.057578 8.459314
-3.291720 -19.686432 -0.561476
-1.943256 -16.655354 4.592579
-2.802432 -19.905983 -0.556957
-1.133824 -15.067404 7.148655
-2.293241 -19.950674 -0.573620
-2.080467 -14.420538 8.269062
-2.824147 -16.767502 4.574160
-3.854245 -20.018358 -0.543781
-1.692295 -14.373869 8.380636
-2.388720 -16.776844 4.604183
-1.991622 -17.006416 4.537022
-2.856576 -20.312719 -0.600012
-1.150838 -15.283354 7.253231
-1.557751 -17.014179 4.568630
-2.334928 -20.319944 -0.558784
-2.086272 -14.590065 8.427176
-3.910467 -20.409760 -0.558540
-3.390299 -20.441143 -0.554859
-1.457541 -15.111138 7.912701
-2.904930 -20.700022 -0.605139
-1.088932 -15.160858 7.873758
-2.239975 -15.235892 7.862684
-3.959753 -20.781260 -0.535849
-1.853005 -15.231771 7.905481
-3.438488 -20.817991 -0.540993
-1.451545 -15.233091 8.149971
-2.940371 -21.039448 -0.531740
-1.042723 -15.100465 8.383142
-1.768357 -18.246967 3.686016
-2.422699 -21.084339 -0.549635
-4.012174 -21.164968 -0.525322
-1.810965 -15.232381 8.323952
-3.480238 -21.174103 -0.490076
-1.439466 -15.329755 8.420355
-2.237927 -18.474350 3.806944
-2.996748 -21.462828 -0.577438
-1.681838 -18.035263 4.490948
-2.470080 -21.485546 -0.563070
-3.329423 -19.130562 3.016819
-4.077908 -21.594717 -0.575411
-1.783868 -15.282778 8.659212
-2.648900 -18.392876 4.132332
-3.549716 -21.631626 -0.581808
-1.446819 -15.501918 8.576885
-2.173909 -18.393162 4.414379
-3.044429 -21.854750 -0.569242
-1.373774 -16.836802 6.690302
-1.703228 -18.292309 4.597973
-2.519815 -21.899929 -0.588083
-2.235216 -15.680645 8.458281
-4.134980 -21.998768 -0.579880
-1.782777 -15.424784 8.856049
-2.658017 -18.602804 4.316641
-1.438178 -15.609618 8.823622
-1.798544 -17.056267 6.779545
-2.174578 -18.565811 4.646593
-1.404052 -17.120987 6.722151
-2.566776 -22.304932 -0.591969
-2.421800 -16.458908 7.767624
-4.179914 -22.364571 -0.523397
-1.878309 -15.920135 8.555166
-2.651104 -18.753580 4.583015
-3.649165 -22.412970 -0.547005
-1.541974 -16.171492 8.436321
-1.747682 -17.005043 7.280260
-3.144786 -22.666243 -0.571318
-1.772195 -18.926815 4.650793
-2.609637 -22.694271 -0.566971
-2.371783 -16.446047 8.197691
-3.395414 -19.918453 3.412867
-1.989671 -16.480001 8.181555
-3.705570 -22.831846 -0.558773
-1.624507 -16.653442 8.177006
-1.804403 -19.236670 4.694622
-2.418633 -16.760784 8.174112
-2.030477 -16.783209 8.173414
-1.626680 -16.809174 8.368307
-2.268800 -19.459158 4.826252
-3.247063 -23.496382 -0.570038
-1.405319 -17.573526 7.376554
-1.770151 -19.244020 5.146654
-2.419056 -16.917192 8.366892
-4.367777 -23.655851 -0.581285
-2.071117 -17.087830 8.168934
-2.909724 -20.250813 3.974331
-3.816111 -23.669449 -0.559309
-2.371702 -20.057606 4.499147
-1.399306 -17.693333 7.630505
-1.835526 -19.708036 4.989826
-2.754845 -23.953953 -0.575304
-2.465495 -17.233400 8.349644
-4.418489 -24.050510 -0.537975
-2.083142 -17.285561 8.309097
-3.874960 -24.105968 -0.571613
-1.759910 -17.660400 8.050373
-3.346897 -24.327374 -0.541077
-1.774176 -19.586226 5.598690
-2.804494 -24.385567 -0.578434
-2.480785 -17.442068 8.476032
-2.745868 -18.375961 7.280552
-4.480955 -24.488716 -0.544415
-3.928815 -24.526295 -0.555252
-2.236147 -19.828245 5.703167
-3.408715 -24.797371 -0.585144
-1.832527 -20.021202 5.488089
-2.848651 -24.794472 -0.545231
-1.969698 -15.779498 10.955462
-3.349574 -20.685352 4.788733
-2.244344 -18.212742 7.922813
-1.888625 -18.509209 7.779078
-2.273163 -20.152891 5.736301
-3.451446 -25.189384 -0.523073
-1.460132 -18.419783 7.915487
-2.899081 -25.235769 -0.545797
-2.707487 -18.563532 7.862244
-3.340030 -20.832706 5.061111
-4.615484 -25.408249 -0.587074
-2.333668 -18.717615 7.697309
-2.799735 -20.539705 5.450607
-2.421929 -20.961271 5.183968
-1.488189 -18.701149 7.966988
-2.954508 -25.704128 -0.571615
-2.874626 -19.328657 7.332277
-3.241717 -20.657274 5.721554
-2.805542 -20.736456 5.652094
-4.107817 -25.872019 -0.567146
-1.837730 -18.593412 8.465551
-2.442669 -21.223211 5.312664
-3.568000 -26.115276 -0.552465
-1.567464 -19.230793 7.724983
-2.999125 -26.124050 -0.530674
-2.844249 -19.382477 7.673956
-4.747254 -26.330561 -0.599110
-2.287091 -18.847631 8.333496
-2.809361 -20.924915 5.862659
-4.166941 -26.324579 -0.560001
-1.849535 -18.795132 8.611172
-2.077420 -19.794048 7.434805
-3.624414 -26.575138 -0.550917
-1.612346 -19.599178 7.686991
-3.056655 -26.609428 -0.560236
-2.743869 -19.175810 8.314137
-4.810114 -26.785269 -0.585232
-2.295910 -19.038038 8.496891
-2.532742 -19.988010 7.386999
-4.228974 -26.791866 -0.562239
-1.825889 -18.840471 8.938261
-3.690787 -27.082275 -0.596016
-1.650421 -19.937263 7.691242
-2.024806 -16.664137 11.585518
-4.870931 -27.235332 -0.558283
-2.371726 -19.499384 8.349369
-4.292320 -27.267725 -0.566044
-1.907386 -19.352026 8.729757
-1.572696 -19.706837 8.346800
-2.818208 -19.771755 8.406048
-4.941888 -27.726204 -0.569981
-2.355902 -19.591455 8.629232
-1.946215 -19.677284 8.742338
-2.150472 -20.594633 7.718203
-3.802164 -28.012617 -0.563280
-1.359800 -18.798271 9.741806
-2.022891 -16.928032 11.941048
-2.593930 -19.084740 9.550352
-2.922233 -20.324680 8.175882
-2.362177 -19.772728 8.806427
-2.622788 -20.844248 7.619698
-1.759583 -18.984201 9.877289
-2.132033 -20.670216 8.028091
-1.500511 -19.643826 9.171625
-2.034579 -17.107183 12.065716
-2.599470 -19.258242 9.723333
-2.772545 -21.628716 7.161247
-4.486979 -28.734659 -0.570240
-1.869824 -19.631832 9.533737
-1.431577 -19.441917 9.754883
-2.637953 -19.557928 9.761095
-2.230061 -19.530426 9.806719
-2.775523 -21.809290 7.370810
-2.052458 -20.619711 8.847788
-1.367389 -19.258549 10.304081
-1.584292 -20.361401 9.137432
-2.091739 -22.941526 6.408047
-2.151824 -17.829296 11.935097
-2.728802 -20.062038 9.588596
-2.285189 -19.912226 9.761477
-2.779732 -21.994669 7.574596
-1.945344 -20.277643 9.575142
-2.344781 -22.128319 7.650190
-2.565211 -23.149622 6.587904
-1.703649 -21.121384 8.713209
-2.264276 -23.993303 5.728218
-2.206698 -18.180367 11.891426
-2.763343 -20.351528 9.649752
-1.755878 -17.816967 12.279446
-2.306134 -20.152096 9.870214
-1.837546 -19.924431 10.294710
-1.426727 -19.845097 10.389456
-1.661822 -21.058372 9.150429
-3.261752 -22.466061 7.863697
-2.339745 -20.447039 9.925392
-2.618475 -21.639027 8.717138
-2.128191 -21.437422 9.121473
-1.401529 -19.856167 10.721849
-1.661203 -21.206175 9.367245
-2.843926 -20.980728 9.733965
-3.303315 -22.800629 7.920399
-2.330902 -20.560783 10.165237
-3.182732 -24.231455 6.509686
-1.790846 -19.994583 10.911261
-2.194929 -21.909452 9.022238
-1.444629 -20.222809 10.698080
-2.208089 -18.599115 12.422894
-2.949891 -21.560368 9.523788
-2.422401 -21.109175 9.977636
-1.839033 -20.368252 10.884304
-2.198991 -22.086634 9.218773
-1.445679 -20.370749 10.892990
-2.995744 -21.904123 9.554306
-2.564160 -21.882961 9.586233
-1.869122 -20.657991 10.944284
-1.957051 -23.229811 8.506861
-2.758850 -21.104324 10.670906
-3.145478 -22.671127 9.190451
-2.264704 -20.721268 11.042866
-3.146998 -24.609217 7.371111
-3.436754 -25.886072 6.165255
-1.933222 -21.114319 10.852493
-1.556315 -21.247219 10.737865
-2.796824 -21.411947 10.726954
-2.339078 -21.199245 10.933725
-2.834410 -23.398010 8.893705
-2.062763 -21.894154 10.472847
-1.576777 -21.503773 10.840603
-2.777924 -21.487499 10.999132
-2.586103 -22.453655 10.127058
-2.843769 -23.605738 9.076962
-3.191129 -25.158865 7.661316
-2.096607 -22.212599 10.529631
-1.607774 -21.818991 10.893236
-3.496599 -24.616947 8.532661
-5.942283 -34.748356 -0.542889
-2.576938 -22.569914 10.374441
-2.016546 -21.969589 11.089188
-1.650689 -22.201643 10.890759
-3.006394 -22.744946 10.561045
-2.601694 -22.839127 10.485451
-2.913649 -24.254011 9.240910
-2.040722 -22.240265 11.188139
-1.772074 -23.019274 10.516069
-2.910342 -22.499620 11.119137
-3.278899 -24.048374 9.780504
-2.487204 -22.473614 11.147911
-2.289121 -23.637545 10.325876
-1.792738 -23.288149 10.631021
-3.459144 -24.977177 9.352825
-2.635498 -23.309214 10.774519
-2.148033 -23.084137 11.141356
-1.905520 -24.072447 10.315662
-3.037905 -23.353014 11.076593
-2.669062 -23.622677 10.856638
-2.139805 -23.196712 11.385075
-1.711982 -23.145218 11.431952
-2.038471 -24.978628 9.918013
-3.006303 -23.375551 11.398006
-2.651552 -23.699871 11.136501
-2.209171 -23.706060 11.305382
-1.750623 -23.516043 11.463137
-2.294726 -24.303654 11.165451
-1.833869 -24.143806 11.295702
-2.349964 -24.749784 11.156454
-1.877311 -24.550011 11.314907
-2.551895 -25.966299 10.563583
-1.988519 -25.350548 11.038046
-2.394864 -25.308651 11.413664
-2.604943 -26.413696 10.580156
-1.945437 -25.264063 11.447945
-2.110285 -26.221083 10.726118
2.277959 -0.749871 29.947289
2.270443 -0.776289 29.934132
2.271176 -0.793116 29.922752
2.265987 -0.803583 29.921619
2.267138 -0.820650 29.910496
2.271240 -0.796997 29.928658
2.272024 -0.772662 29.946678
2.278056 -0.756237 29.956884
2.272052 -0.773766 29.948458
2.278081 -0.757249 29.958515
2.266109 -0.808772 29.929901
2.272689 -0.792228 29.939760
2.266148 -0.810025 29.931997
2.271371 -0.801931 29.936684
2.273642 -0.768419 29.958788
2.274116 -0.785953 29.948612
2.278208 -0.761156 29.965122