# This PCD file was generated using the MATLAB® pcwrite function
# from Computer Vision System Toolbox®.
# .PCD v.7 - Point Cloud Data file format
VERSION .7
FIELDS x y z
SIZE 4 4 4
TYPE F F F
COUNT 1 1 1
WIDTH 769
HEIGHT 1
VIEWPOINT 0 0 0 1 0 0 0
POINTS 769
DATA ascii
-8.685062 -5.002203 -0.701365
-8.408880 -4.841139 -0.573974
-8.523658 -4.675515 -0.581156
-8.329451 -4.790909 -0.657363
-8.336332 -4.567528 -0.546551
-8.094094 -4.653193 -0.564455
-8.206720 -4.490663 -0.572047
-7.922360 -4.551376 -0.538349
-8.052430 -4.400697 -0.567374
-7.831049 -4.494750 -0.602337
-7.911190 -4.317847 -0.574621
-7.654608 -4.390553 -0.564399
-7.758196 -4.228854 -0.565377
-7.515346 -4.307289 -0.567217
-7.624159 -4.150102 -0.575575
-7.370682 -4.221121 -0.560641
-7.466479 -4.058901 -0.554561
-7.250268 -4.148592 -0.581409
-7.351451 -3.990490 -0.582751
-7.100914 -4.060041 -0.563291
-7.201106 -3.903457 -0.564766
-6.958172 -3.975295 -0.550402
-7.080867 -3.832494 -0.581970
-6.844815 -3.906988 -0.573144
-6.943520 -3.752600 -0.574849
-6.720312 -3.832580 -0.579113
-6.824052 -3.682256 -0.588535
-6.585016 -3.752292 -0.567978
-6.710599 -3.615172 -0.608225
-6.461525 -3.678648 -0.570304
-6.541070 -3.518748 -0.549197
-6.349515 -3.611444 -0.586435
-6.439810 -3.458287 -0.580809
-6.226879 -3.538460 -0.585382
-6.327552 -3.392141 -0.595463
-6.088592 -3.456954 -0.558943
-6.204656 -3.320536 -0.592842
-5.972495 -3.387777 -0.562222
-6.071489 -3.243700 -0.572631
-5.856824 -3.318926 -0.563900
-5.971138 -3.184048 -0.598424
-5.741595 -3.250407 -0.563988
-5.839191 -3.108088 -0.574702
-5.626824 -3.182231 -0.562496
-5.718499 -3.038092 -0.565269
-5.507436 -3.111623 -0.551287
-5.603559 -2.971182 -0.562304
-5.398714 -3.046937 -0.554809
-5.514602 -2.917753 -0.598737
-5.305275 -2.990664 -0.581618
-5.395309 -2.848792 -0.584665
-5.197145 -2.926456 -0.582396
-5.281631 -2.782829 -0.577243
-5.074889 -2.854659 -0.556707
-5.153738 -2.709716 -0.543270
-5.219370 -2.553688 -0.598012
-5.280974 -2.400766 -0.555639
-4.948645 -2.780813 -0.520916
-5.055880 -2.652058 -0.557810
-4.861091 -2.728030 -0.550839
-4.967787 -2.599435 -0.587991
-4.993546 -2.425652 -0.574604
-5.079064 -2.285859 -0.574173
-4.787455 -2.682815 -0.605183
-4.856004 -2.534854 -0.574737
-4.867200 -2.355476 -0.535157
-4.976082 -2.227657 -0.577292
-4.667462 -2.612622 -0.573470
-4.754136 -2.475399 -0.577042
-4.779444 -2.303681 -0.562295
-4.859129 -2.163431 -0.553504
-4.566442 -2.552757 -0.574393
-4.652613 -2.416207 -0.578047
-4.682383 -2.247566 -0.571232
-4.752324 -2.103818 -0.545309
-4.456850 -2.488364 -0.556787
-4.546914 -2.355008 -0.569145
-4.576410 -2.187369 -0.561707
-4.659940 -2.050607 -0.561612
-4.343484 -2.422046 -0.529059
-4.468543 -2.307599 -0.610831
-4.479961 -2.131729 -0.568166
-4.544784 -1.987633 -0.533471
-4.248236 -2.365530 -0.534627
-4.350245 -2.240282 -0.573347
-4.379327 -2.074238 -0.564721
-4.461998 -1.938748 -0.564778
-4.166068 -2.316066 -0.565266
-4.250228 -2.182212 -0.569235
-4.261576 -2.008963 -0.524971
-4.339059 -1.872755 -0.516384
-4.054342 -2.250896 -0.533442
-4.150617 -2.124438 -0.563862
-4.174955 -1.958161 -0.545249
-4.274159 -1.831617 -0.580647
-3.984831 -2.208275 -0.588449
-4.072477 -2.077367 -0.601381
-4.079870 -1.903547 -0.546841
-4.139563 -1.761055 -0.502955
-3.870008 -2.141636 -0.545178
-3.956802 -2.011843 -0.558242
-3.980904 -1.847266 -0.538393
-4.078717 -1.721670 -0.574262
-3.752147 -2.073514 -0.491440
-3.854331 -1.952955 -0.540274
-3.882384 -1.791302 -0.528714
-3.975281 -1.664503 -0.555905
-3.659053 -2.018596 -0.489799
-3.744422 -1.890550 -0.503105
-3.796466 -1.741117 -0.544702
-3.876551 -1.609437 -0.545201
-3.593408 -1.978198 -0.549957
-3.694550 -1.857496 -0.599288
-3.702650 -1.687463 -0.541705
-3.782339 -1.556357 -0.542274
-3.496706 -1.921494 -0.537291
-3.573741 -1.789995 -0.532734
-3.601352 -1.630589 -0.519506
-3.696434 -1.506761 -0.556275
-3.396749 -1.863172 -0.514359
-3.496135 -1.743529 -0.564208
-3.508369 -1.577530 -0.514187
-3.583207 -1.446239 -0.505838
-3.319451 -1.816775 -0.544775
-3.399634 -1.688017 -0.549365
-3.427084 -1.529700 -0.535082
-3.505645 -1.400193 -0.535844
-3.220356 -1.759065 -0.519544
-3.310986 -1.636365 -0.551606
-3.334635 -1.477053 -0.527648
-3.409018 -1.346627 -0.519339
-3.139589 -1.710962 -0.538931
-3.218973 -1.583189 -0.543644
-3.246209 -1.426254 -0.528293
-3.324041 -1.297771 -0.529180
-3.048399 -1.657512 -0.529808
-3.145032 -1.538652 -0.580599
-3.154467 -1.374121 -0.518698
-3.231899 -1.246212 -0.519650
-2.954210 -1.602594 -0.510355
-3.046523 -1.482568 -0.552142
-3.070132 -1.325253 -0.526513
-3.165163 -1.204513 -0.573712
-2.880534 -1.558304 -0.545398
-2.982683 -1.442829 -0.615165
-2.996233 -1.280850 -0.561219
-3.069845 -1.151912 -0.552974
-2.780511 -1.500549 -0.505239
-2.871539 -1.381052 -0.547400
-2.911967 -1.232109 -0.567236
-2.985386 -1.103542 -0.559009
-2.719599 -1.462853 -0.575876
-2.804026 -1.339647 -0.599516
-2.834437 -1.186228 -0.590997
-2.894349 -1.052820 -0.545431
-2.617316 -1.404114 -0.524220
-2.710453 -1.286248 -0.576089
-2.737442 -1.132385 -0.557703
-2.813629 -1.006005 -0.558889
-2.534329 -1.355271 -0.527657
-2.620581 -1.234662 -0.560937
-2.660094 -1.086699 -0.579651
-2.732934 -0.959247 -0.571475
-2.460448 -1.311071 -0.558451
-2.534209 -1.184768 -0.554157
-2.561058 -1.032327 -0.534762
-2.630207 -0.904736 -0.517218
-2.377598 -1.262394 -0.560122
-2.471977 -1.145802 -0.622013
-2.499055 -0.992869 -0.602189
-2.556242 -0.860549 -0.546768
-2.289260 -1.211038 -0.541903
-2.362430 -1.085682 -0.537655
-2.400956 -0.939141 -0.555226
-2.473009 -0.813167 -0.547126
-2.215227 -1.166873 -0.570215
-2.285546 -1.040256 -0.556465
-2.315244 -0.890436 -0.545136
-2.387034 -0.764955 -0.537062
-2.130191 -1.117292 -0.559623
-2.205814 -0.993610 -0.564937
-2.241071 -0.846249 -0.572248
-2.312877 -0.720777 -0.564165
-2.045506 -1.067962 -0.548069
-2.126147 -0.947045 -0.572551
-2.155776 -0.797874 -0.560336
-2.230114 -0.673799 -0.561841
-1.971382 -1.023865 -0.573918
-2.046552 -0.900563 -0.579309
-2.070843 -0.749756 -0.547475
-2.144846 -0.626130 -0.549029
-1.879702 -0.971271 -0.531721
-1.967036 -0.854168 -0.585217
-1.983698 -0.700960 -0.524050
-2.057298 -0.577904 -0.525663
-1.803266 -0.926152 -0.546260
-1.875224 -0.802673 -0.542109
-1.902098 -0.654306 -0.518917
-1.985749 -0.534680 -0.559094
-1.715110 -0.875462 -0.511704
-1.808268 -0.761657 -0.594481
-1.828052 -0.610396 -0.541879
-1.898821 -0.486903 -0.533898
-1.634419 -0.828434 -0.505175
-1.698722 -0.703166 -0.472035
-1.763278 -0.569655 -0.602818
-1.834338 -0.445686 -0.594804
-1.562734 -0.785715 -0.536579
-1.640863 -0.665904 -0.561570
-1.670237 -0.519298 -0.546732
-1.740758 -0.396305 -0.538776
-1.486495 -0.740871 -0.547829
-1.559949 -0.619310 -0.553451
-1.587065 -0.472463 -0.528458
-1.666475 -0.352373 -0.559393
-1.414316 -0.697939 -0.577773
-1.491977 -0.577851 -0.602894
-1.512891 -0.428634 -0.548248
-1.574303 -0.303904 -0.501373
-1.330010 -0.649459 -0.548428
-1.403008 -0.528277 -0.554112
-1.430266 -0.382201 -0.528239
-1.502417 -0.260717 -0.530087
-1.250069 -0.603071 -0.537705
-1.326699 -0.483671 -0.562979
-1.356066 -0.338435 -0.546452
-1.426090 -0.216444 -0.538542
-1.166772 -0.555264 -0.506527
-1.239033 -0.434943 -0.512288
-1.274016 -0.292418 -0.524722
-1.351754 -0.172636 -0.556000
-1.094554 -0.512464 -0.533322
-1.177706 -0.395866 -0.597970
-1.207220 -0.250756 -0.580621
-1.269591 -0.127238 -0.533480
-1.018697 -0.468078 -0.539738
-1.083804 -0.345229 -0.506226
-1.125477 -0.204996 -0.557256
-1.197113 -0.083857 -0.559189
-0.941253 -0.423055 -0.535522
-1.021460 -0.305631 -0.590568
-1.051004 -0.161224 -0.572392
-1.115490 -0.038854 -0.534991
-0.863975 -0.378168 -0.530499
-0.935601 -0.258121 -0.536349
-0.963373 -0.114405 -0.507903
-1.030937 0.006348 -0.490221
-0.782514 -0.331632 -0.495039
-0.865876 -0.215938 -0.579903
-0.889245 -0.070912 -0.521423
-0.966642 0.048519 -0.562917
-0.709943 -0.288815 -0.518032
-0.781111 -0.169147 -0.523932
-0.815003 -0.027388 -0.534194
-0.878096 0.093765 -0.486849
-0.634505 -0.244865 -0.520499
-0.716498 -0.128368 -0.605599
-0.746272 0.015181 -0.585807
-0.817331 0.136012 -0.587826
-0.561567 -0.201907 -0.542020
-0.632557 -0.082135 -0.547949
-0.660870 0.060541 -0.517849
-0.729913 0.180522 -0.510039
-0.486071 -0.157998 -0.542965
-0.559348 -0.038896 -0.568749
-0.591638 0.103328 -0.568000
-0.662299 0.223747 -0.570069
-0.409550 -0.113781 -0.533200
-0.479003 0.005990 -0.529238
-0.512266 0.147394 -0.538046
-0.576335 0.267331 -0.490547
-0.335247 -0.070392 -0.542539
-0.408981 0.048536 -0.578335
-0.433407 0.191123 -0.507264
-0.506917 0.310797 -0.539204
-0.257145 -0.025831 -0.511314
-0.330284 0.092797 -0.547164
-0.363315 0.234300 -0.555239
-0.428013 0.353869 -0.507668
-0.184688 0.016911 -0.539038
-0.256729 0.136089 -0.564957
-0.288724 0.277764 -0.562708
-0.357839 0.397702 -0.554890
-0.111080 0.060035 -0.556076
-0.181253 0.179638 -0.562085
-0.213182 0.321171 -0.559462
-0.279391 0.440434 -0.521791
-0.033034 0.104200 -0.512530
-0.107408 0.223024 -0.578388
-0.136116 0.364280 -0.535515
-0.204982 0.483718 -0.527727
0.040551 0.147237 -0.528053
-0.029163 0.266461 -0.534096
-0.063825 0.408015 -0.570620
-0.130514 0.526999 -0.532913
0.119870 0.191068 -0.442995
0.047139 0.309554 -0.508959
0.010281 0.451621 -0.585046
-0.056719 0.570586 -0.547318
0.189288 0.233609 -0.536905
0.119754 0.352937 -0.542957
0.087481 0.494124 -0.548822
0.018572 0.613537 -0.541031
0.264931 0.276730 -0.510231
0.193808 0.396297 -0.556250
0.162103 0.537383 -0.551754
0.094900 0.655586 -0.514036
0.338199 0.319935 -0.542756
0.268845 0.439368 -0.548816
0.235475 0.581597 -0.583891
0.167822 0.700022 -0.546143
0.412958 0.362969 -0.534560
0.342480 0.483231 -0.580594
0.311447 0.623849 -0.555362
0.243763 0.741773 -0.517632
0.487065 0.406336 -0.555603
0.418067 0.525725 -0.551668
0.386158 0.667049 -0.556037
0.318580 0.784302 -0.508325
0.561696 0.449471 -0.555902
0.491863 0.570428 -0.601934
0.460888 0.710222 -0.555960
0.391634 0.830169 -0.558148
0.636367 0.492343 -0.545450
0.567373 0.611984 -0.551514
0.535629 0.753366 -0.555130
0.466829 0.872110 -0.537358
0.710998 0.535654 -0.554245
0.641949 0.657064 -0.600267
0.610378 0.796477 -0.553548
0.541246 0.916493 -0.555735
0.785531 0.578373 -0.542294
0.716945 0.699889 -0.588311
0.685128 0.839551 -0.551213
0.616102 0.958897 -0.543423
0.859507 0.620236 -0.509616
0.791787 0.742588 -0.575605
0.759873 0.882586 -0.548126
0.690741 0.999675 -0.510421
0.935800 0.665887 -0.576087
0.866887 0.786219 -0.582120
0.834608 0.925579 -0.544289
0.765553 1.044908 -0.536499
1.008898 0.706673 -0.521947
0.942126 0.829892 -0.587873
0.909328 0.968525 -0.539699
0.840440 1.088682 -0.541874
1.085510 0.751935 -0.566890
1.016778 0.872371 -0.572912
0.984025 1.011421 -0.534358
0.914941 1.130734 -0.526570
1.156801 0.791111 -0.491354
1.091255 0.914712 -0.557210
1.058696 1.054266 -0.528266
0.988599 1.170800 -0.490624
1.232803 0.835450 -0.514819
1.162490 0.952692 -0.480994
1.134768 1.099591 -0.551283
1.064220 1.216349 -0.513638
1.307912 0.878739 -0.517578
1.242001 1.001953 -0.563408
1.207932 1.139783 -0.513832
1.139288 1.260080 -0.515985
1.381669 0.920717 -0.499668
1.313576 1.040876 -0.505676
1.284373 1.185246 -0.535301
1.215021 1.304886 -0.527494
1.456840 0.963969 -0.500916
1.391712 1.087631 -0.546659
1.359808 1.228951 -0.536111
1.290372 1.348704 -0.528299
1.530346 1.005730 -0.481529
1.462433 1.125991 -0.487514
1.434558 1.271655 -0.526233
1.365107 1.391400 -0.518423
1.609383 1.052121 -0.520952
1.546532 1.178551 -0.586411
1.512665 1.318531 -0.555232
1.442920 1.438750 -0.547392
1.687043 1.097187 -0.539696
1.618752 1.218518 -0.545623
1.587587 1.361259 -0.543810
1.514388 1.476571 -0.496422
1.758444 1.137130 -0.498225
1.696674 1.264177 -0.563521
1.666455 1.408494 -0.571168
1.592661 1.524109 -0.523799
1.841136 1.186000 -0.554947
1.772746 1.307917 -0.560828
1.740445 1.450041 -0.548320
1.672465 1.573216 -0.560188
1.914743 1.227631 -0.531750
1.856009 1.358198 -0.616572
1.821128 1.498809 -0.583885
1.746425 1.614548 -0.536599
1.992107 1.272124 -0.537408
1.922564 1.393132 -0.533396
1.896322 1.541540 -0.569347
1.827102 1.664076 -0.571291
2.072489 1.318805 -0.561946
2.009367 1.446180 -0.607118
1.976635 1.589446 -0.593361
1.901025 1.705311 -0.546168
2.145965 1.360248 -0.536468
2.077654 1.482853 -0.542263
2.046412 1.626720 -0.538010
1.981240 1.753764 -0.569336
2.230075 1.409480 -0.578958
2.162922 1.534121 -0.594518
2.127111 1.674769 -0.560390
2.056409 1.796368 -0.552478
2.301928 1.449671 -0.542130
2.235078 1.574162 -0.557661
2.208292 1.723052 -0.581880
2.135837 1.843560 -0.564172
2.378479 1.493257 -0.533956
2.319896 1.624681 -0.598311
2.283539 1.765623 -0.563439
2.212526 1.887687 -0.555505
2.460391 1.540614 -0.554272
2.396938 1.668667 -0.589212
2.358659 1.808083 -0.544248
2.287632 1.930139 -0.536315
2.527946 1.577741 -0.495767
2.472215 1.711197 -0.569586
2.440648 1.856708 -0.563182
2.369326 1.979237 -0.555223
2.623674 1.634646 -0.582468
2.554785 1.759490 -0.588067
2.523091 1.905550 -0.581204
2.451473 2.028553 -0.573216
2.702882 1.679839 -0.580676
2.645528 1.814041 -0.644411
2.598388 1.947994 -0.559591
2.526756 2.070988 -0.551608
2.776016 1.720782 -0.549012
2.713248 1.850503 -0.583579
2.681421 1.997090 -0.575850
2.611395 2.122373 -0.577490
2.861734 1.770353 -0.574574
2.803085 1.904042 -0.628328
2.764885 2.046390 -0.591179
2.684763 2.162909 -0.544640
2.941365 1.815667 -0.570260
2.883032 1.949854 -0.623863
2.848774 2.095889 -0.605568
2.770111 2.214613 -0.568697
3.011948 1.854791 -0.526667
2.954207 1.988991 -0.580130
2.915547 2.131040 -0.542320
2.843295 2.254966 -0.534294
3.098637 1.904789 -0.549506
3.041002 2.039849 -0.602798
2.999677 2.180595 -0.555009
2.927129 2.304994 -0.546955
3.178557 1.950146 -0.542670
3.123606 2.087460 -0.605353
3.084208 2.230335 -0.566743
3.004564 2.349148 -0.530081
3.263611 1.998879 -0.554049
3.194247 2.126177 -0.559356
3.152266 2.266675 -0.510950
3.086637 2.397359 -0.531404
3.341300 2.042635 -0.535946
3.284532 2.179301 -0.588728
3.244518 2.322429 -0.549392
3.161716 2.439363 -0.503395
3.410965 2.081046 -0.488604
3.352197 2.215840 -0.531750
3.319702 2.364451 -0.520516
3.246533 2.489781 -0.512424
3.504707 2.135335 -0.525681
3.456469 2.278867 -0.606438
3.405186 2.414562 -0.528597
3.331722 2.540365 -0.520477
3.596446 2.188190 -0.552191
3.512937 2.307333 -0.510226
3.488336 2.462734 -0.526299
3.419902 2.593333 -0.536941
3.683086 2.237605 -0.558812
3.624263 2.375086 -0.601438
3.588317 2.523829 -0.579275
3.503181 2.642014 -0.533638
3.755354 2.277580 -0.517634
3.685471 2.406986 -0.522676
3.652422 2.557123 -0.509579
3.589435 2.693069 -0.538730
3.857410 2.336895 -0.569078
3.792883 2.471598 -0.592699
3.762327 2.625456 -0.588264
3.676029 2.744270 -0.542824
3.932730 2.378765 -0.535514
3.871449 2.515715 -0.568327
3.828946 2.660665 -0.526337
3.762952 2.795614 -0.545914
4.020441 2.428609 -0.538265
3.968447 2.572686 -0.598716
3.913222 2.709254 -0.519296
3.838263 2.837415 -0.511060
4.118155 2.484818 -0.567706
4.047230 2.616838 -0.572510
4.013293 2.769588 -0.557342
3.940811 2.901162 -0.558250
4.200107 2.530811 -0.549928
4.145277 2.674305 -0.600662
4.101453 2.820851 -0.557404
4.013122 2.940449 -0.512427
4.282080 2.576772 -0.531260
4.214347 2.711647 -0.545128
4.189909 2.872234 -0.556437
4.113780 3.002296 -0.548100
4.360626 2.620504 -0.502575
4.303088 2.762529 -0.543738
4.278653 2.923733 -0.554437
4.192434 3.046544 -0.518790
4.463597 2.679739 -0.536732
4.402429 2.820581 -0.568585
4.367675 2.975342 -0.551395
4.277617 3.095898 -0.506777
4.553087 2.730310 -0.533329
4.502461 2.878972 -0.592172
4.456966 3.027056 -0.547311
4.379947 3.158536 -0.538904
4.610023 2.760211 -0.447692
4.553085 2.903683 -0.488255
4.532350 3.068592 -0.506209
4.441429 3.189308 -0.461874
4.732858 2.831753 -0.523379
4.682674 2.981933 -0.581647
4.650767 3.141201 -0.571800
4.558711 3.263201 -0.527534
4.819336 2.880231 -0.507881
4.747149 3.016018 -0.512218
4.730050 3.185413 -0.537650
4.652070 3.318434 -0.529167
4.929031 2.943247 -0.544830
4.863872 3.085255 -0.566882
4.831642 3.245573 -0.555922
4.738446 3.368219 -0.511924
4.988670 2.974757 -0.465071
4.916304 3.111241 -0.469290
4.922419 3.297876 -0.546375
4.843634 3.432204 -0.537826
5.099292 3.038189 -0.499606
5.065577 3.201978 -0.591937
4.993994 3.336470 -0.491786
4.919078 3.473545 -0.492038
5.214855 3.104593 -0.541437
5.125395 3.232857 -0.510361
5.120406 3.413861 -0.559057
5.029106 3.540876 -0.524200
5.310812 3.158656 -0.537982
5.261357 3.314328 -0.594368
5.212064 3.466506 -0.546096
5.116321 3.590934 -0.502644
5.402905 3.210242 -0.524653
5.341294 3.358483 -0.554633
5.303908 3.519205 -0.532043
5.223653 3.655905 -0.523376
5.495178 3.261879 -0.510233
5.467067 3.432864 -0.609219
5.379326 3.560342 -0.482402
5.315375 3.709123 -0.508206
5.617877 3.332308 -0.554992
5.526021 3.463078 -0.524292
5.504977 3.636490 -0.534955
5.415554 3.768500 -0.509076
5.715332 3.386995 -0.546626
5.648862 3.535283 -0.567402
5.597579 3.689456 -0.517418
5.499306 3.815679 -0.474556
5.808615 3.439035 -0.528539
5.733312 3.582183 -0.532118
5.707717 3.754489 -0.532722
5.629985 3.897171 -0.532393
5.902038 3.491102 -0.509339
5.857686 3.655122 -0.572141
5.800862 3.807649 -0.512773
5.701189 3.935015 -0.470207
6.027674 3.562929 -0.548019
5.933439 3.696218 -0.517723
5.912037 3.873144 -0.525279
5.815933 4.004524 -0.491240
6.112503 3.609565 -0.509485
6.050004 3.763834 -0.537951
6.005678 3.926471 -0.502892
5.926965 4.071158 -0.502336
6.234880 3.679187 -0.536681
6.158034 3.825784 -0.539913
6.117842 3.992399 -0.512570
6.034079 4.134804 -0.503623
6.339018 3.737528 -0.529024
6.285372 3.900123 -0.573575
6.230609 4.058600 -0.520722
6.146266 4.201959 -0.511727
6.443497 3.796000 -0.520032
6.346899 3.931818 -0.490167
6.325036 4.112195 -0.494535
6.245056 4.259364 -0.493715
6.543402 3.851603 -0.501513
6.494620 4.019073 -0.553578
6.457893 4.191786 -0.532409
6.353490 4.323564 -0.490744
6.638532 3.904229 -0.473608
6.575240 4.062986 -0.500899
6.533519 4.232471 -0.471123
6.447999 4.377728 -0.462040
6.778964 3.984367 -0.517315
6.710083 4.141664 -0.536254
6.648054 4.299409 -0.473479
6.561954 4.445620 -0.464350
6.890019 4.046516 -0.510742
6.810816 4.198341 -0.513426
6.763121 4.366577 -0.474263
6.681351 4.517212 -0.473075
6.986022 4.099445 -0.478751
6.916785 4.258292 -0.497307
6.898879 4.447505 -0.505242
6.811334 4.596102 -0.495988
7.118530 4.174440 -0.501093
7.038447 4.328168 -0.503580
6.994794 4.501568 -0.471076
6.932118 4.668325 -0.501224
7.267717 4.259412 -0.545139
7.171135 4.404943 -0.523890
7.132029 4.583172 -0.498436
7.043323 4.733675 -0.489089
7.359441 4.309510 -0.500906
7.278340 4.465383 -0.503185
7.228418 4.637372 -0.461487
7.170339 4.809960 -0.498775
7.440239 4.352964 -0.440068
7.385768 4.525883 -0.481083
7.340639 4.702042 -0.446538
7.256338 4.857485 -0.444857
7.613354 4.452037 -0.509459
7.536480 4.613706 -0.519225
7.506626 4.802278 -0.506799
7.400071 4.945125 -0.474289
7.727453 4.515404 -0.491901
7.666562 4.688315 -0.524462
7.625472 4.871054 -0.495866
7.534156 5.025849 -0.486305
7.852992 4.585569 -0.488009
7.780787 4.752793 -0.505044
7.722877 4.925552 -0.453043
7.642045 5.088276 -0.458570
7.984678 4.659327 -0.489892
7.923099 4.834871 -0.521771
7.858849 5.005420 -0.461536
7.766442 5.162001 -0.451893
8.122669 4.736760 -0.497367
8.049399 4.906735 -0.513936
8.012279 5.096614 -0.490354
7.896836 5.239712 -0.450872
8.226902 4.793853 -0.458266
8.170506 4.975226 -0.496890
8.144217 5.173500 -0.487249
8.050078 5.332948 -0.477459
8.389165 4.885607 -0.491512
8.309163 5.054616 -0.500249
8.276724 5.250620 -0.482226
8.187483 5.415110 -0.479697
8.517404 4.956878 -0.478395
8.454282 5.137918 -0.508867
8.415529 5.331723 -0.482537
8.314195 5.489798 -0.465364
8.663816 5.038902 -0.485207
8.559241 5.195985 -0.464604
8.560783 5.416885 -0.487996
8.475728 5.588089 -0.492412
8.763207 5.092763 -0.432325
8.681870 5.265010 -0.440544
8.700912 5.498546 -0.484111
8.603595 5.663244 -0.474060
8.928726 5.185959 -0.456616
8.822654 5.345249 -0.436138
8.835727 5.576605 -0.471053
8.766908 5.762329 -0.496339
9.107443 5.286863 -0.492461
9.054224 5.481830 -0.535563
9.024745 5.689716 -0.519239
8.895845 5.837905 -0.473925
9.226029 5.351867 -0.455425
9.142390 5.529049 -0.463047
9.148925 5.760563 -0.487737
9.060844 5.937727 -0.491377
9.412823 5.457286 -0.493127
9.321949 5.632923 -0.493587
9.321943 5.862899 -0.509683
9.220805 6.033929 -0.499313
9.507245 5.507753 -0.424649
9.416236 5.683790 -0.425016
9.453092 5.937993 -0.481011
9.327058 6.093778 -0.443278
9.708364 5.621386 -0.470901
9.653416 5.823000 -0.511954
9.615443 6.033088 -0.484308
9.524869 6.215075 -0.487336
9.860126 5.705624 -0.459850
9.767056 5.885619 -0.459907
9.722451 6.092391 -0.424693
9.656276 6.291560 -0.454378
10.038059 5.805216 -0.473256
9.981956 6.010628 -0.513244
9.948770 6.228294 -0.489908
9.850099 6.409694 -0.485869
10.165329 5.874732 -0.430875
10.070748 6.057714 -0.430654
10.075417 6.299958 -0.446008
9.976213 6.482337 -0.441865
10.396770 6.005626 -0.491592
10.332787 6.211355 -0.523930
10.253287 6.404335 -0.452409
10.178264 6.605504 -0.474121
10.505391 6.063910 -0.425107
10.441384 6.270411 -0.457004
10.406281 6.492608 -0.430166
10.337012 6.699577 -0.457920
10.686429 6.164773 -0.427867
10.667394 6.401457 -0.504196
10.585698 6.597609 -0.431100
10.509157 6.802379 -0.451984
10.894931 6.281642 -0.453170
10.796157 6.472660 -0.452301
10.792108 6.719626 -0.454387
10.688499 6.909756 -0.449596
11.071126 6.379343 -0.443597
10.951482 6.560032 -0.423720
10.979940 6.829579 -0.455497
10.868640 7.017451 -0.444301
11.248007 6.477304 -0.431247
11.187407 6.696552 -0.467353
11.155362 6.931443 -0.441197
11.049547 7.125446 -0.436083
11.304683 7.016566 -0.399673
11.198119 7.211906 -0.394433
11.548505 7.161460 -0.440412
11.440196 7.359816 -0.434946
11.753169 7.281281 -0.441129
11.643540 7.481931 -0.435480
11.910970 7.371264 -0.397164
11.847810 7.604413 -0.432615
12.151487 7.513323 -0.420691
12.059765 7.731696 -0.432154
12.358723 7.634133 -0.411300
12.272664 7.859348 -0.428116
12.573740 7.759628 -0.404144
12.486466 7.987347 -0.420485
12.782619 7.881044 -0.387767
0.813155 0.360210 9.198480
12.721945 8.129243 -0.426060
12.972473 8.280664 -0.438643
0.850181 0.383998 9.174369
0.823071 0.366210 9.197892
0.861569 0.386377 9.172821
0.838254 0.375906 9.188957
0.853590 0.385675 9.180326
0.834836 0.369388 9.197664
0.847507 0.381566 9.187500
0.835807 0.369861 9.199458
0.819637 0.363399 9.209805
0.866131 0.388602 9.181173
0.820514 0.363825 9.211459
0.845089 0.375370 9.198129
0.828689 0.368951 9.208180
0.860897 0.385050 9.190285
0.844277 0.378834 9.200199
0.882165 0.403017 9.178166