# This PCD file was generated using the MATLAB® pcwrite function
# from Computer Vision System Toolbox®.
# .PCD v.7 - Point Cloud Data file format
VERSION .7
FIELDS x y z
SIZE 4 4 4
TYPE F F F
COUNT 1 1 1
WIDTH 774
HEIGHT 1
VIEWPOINT 0 0 0 1 0 0 0
POINTS 774
DATA ascii
63.001305 -69.698059 0.729084
62.950310 -70.496712 0.810120
62.387146 -69.756714 0.732761
62.330994 -70.551331 0.823227
61.769836 -69.817169 0.751751
61.761909 -70.596375 0.780067
61.172989 -69.873863 0.754135
61.194679 -70.641830 0.743477
60.617828 -70.690193 0.729561
60.038483 -69.975998 0.707085
59.454735 -70.032494 0.721897
59.437252 -70.795578 0.770817
58.912529 -70.079697 0.686104
58.901260 -70.837639 0.727879
58.350189 -70.132805 0.689423
58.339462 -70.886299 0.732265
57.790276 -70.186279 0.699188
57.823410 -70.925407 0.676575
57.275482 -70.229103 0.648571
57.287315 -70.969849 0.659973
56.672714 -70.295654 0.746300
56.732121 -71.019592 0.682999
56.063538 -70.365257 0.868073
56.096443 -71.089409 0.847637
55.555733 -70.409111 0.835865
55.547752 -71.139778 0.884003
55.029373 -70.458786 0.843296
52.413727 -71.820984 5.310768
51.456345 -71.348373 6.131207
51.516586 -71.967720 6.060883
51.019997 -71.386330 6.108120
51.123901 -71.991890 5.960281
51.084854 -71.283104 5.188728
50.793861 -72.000511 5.750786
50.974445 -71.226860 4.561169
50.253212 -72.063194 5.927715
52.469383 -70.701065 0.897236
50.015976 -72.048172 5.550423
50.048393 -71.316536 4.603382
50.035316 -71.964462 4.672581
49.593014 -71.360420 4.623180
49.648411 -71.986954 4.560627
49.095425 -71.418037 4.736538
49.473991 -71.951805 4.026047
48.644890 -71.462402 4.766460
50.576622 -71.561737 0.859810
48.226322 -71.497643 4.738583
50.102623 -71.602104 0.860424
47.875790 -71.511765 4.571243
49.638733 -71.640358 0.847977
47.359550 -71.579628 4.767727
49.168037 -71.681297 0.858345
46.977142 -71.605026 4.680397
48.719353 -71.716553 0.828236
46.531479 -71.651993 4.742146
46.537117 -72.272881 4.790619
48.220238 -71.767570 0.920963
43.269188 -74.229340 12.014523
42.456055 -72.942253 13.377949
42.497486 -73.415596 13.330500
46.125603 -72.307205 4.784702
42.302956 -73.921974 13.459736
43.111412 -74.212097 11.588863
45.401711 -73.674736 6.145458
42.211998 -72.943993 13.188017
42.154671 -73.449173 13.378958
42.063995 -73.924965 13.262274
42.353539 -74.337097 12.609934
41.891510 -72.972412 13.183811
41.962543 -73.435783 13.062712
41.671291 -73.970848 13.445271
41.688660 -74.443504 13.456797
45.286224 -73.569847 4.469433
41.474068 -73.036476 13.431904
41.449322 -73.525017 13.551306
41.336960 -74.001266 13.493704
41.430630 -74.452744 13.310736
41.218010 -73.042938 13.277534
41.404633 -73.463043 12.850367
41.113842 -73.999908 13.257290
41.708961 -74.326851 11.751637
41.019115 -73.027534 12.967314
41.209564 -73.448509 12.519932
41.425262 -73.838890 11.566765
40.370483 -74.610565 14.482227
40.825882 -73.008682 12.630188
40.809387 -73.503052 12.741161
41.338959 -73.321686 11.285049
41.270531 -73.812386 11.085300
40.042892 -74.640434 14.562843
40.673882 -72.972168 12.163086
40.795021 -73.424370 11.890083
43.349190 -72.531174 4.670490
40.596165 -73.945274 12.068943
43.176701 -73.145302 4.687851
39.747238 -74.662491 14.562265
40.570702 -74.442757 12.212025
40.530708 -72.929794 11.649261
40.647114 -73.389351 11.384319
42.921501 -72.576714 4.771576
40.352905 -73.946732 11.846710
40.377373 -74.432816 11.848782
39.827438 -73.114861 12.791153
39.867901 -73.582687 12.744074
39.002758 -74.305862 14.970684
39.934513 -74.491295 12.224140
39.416912 -73.184776 13.103146
38.941776 -73.839134 14.644127
39.738846 -73.541252 12.187309
38.722115 -74.326660 14.951183
39.262451 -74.147797 13.264639
38.923340 -74.713295 14.397448
39.572220 -74.528831 12.377094
39.116699 -73.209793 13.088709
38.589714 -73.887413 14.842800
39.144516 -73.675140 13.080208
38.781460 -74.232613 13.841629
39.154182 -74.583649 12.724136
38.291481 -73.467102 14.804037
38.785294 -73.249046 13.181477
38.331810 -73.900444 14.750761
38.190857 -74.358879 14.824800
38.207306 -74.797729 14.850054
38.676788 -74.658035 13.295389
38.004791 -73.492958 14.809416
38.078674 -73.911476 14.641884
37.910763 -74.380295 14.812923
37.980831 -74.801949 14.656713
37.906677 -73.431633 14.159327
37.807964 -73.929558 14.592461
37.652802 -74.394012 14.727041
37.670292 -74.831963 14.752684
38.134254 -74.687012 13.113220
37.855885 -73.343391 13.298233
37.560944 -73.937752 14.459274
37.388790 -74.409950 14.662584
37.391048 -74.852783 14.746059
37.287674 -73.503685 14.324181
37.299458 -73.951851 14.376099
37.157280 -74.413422 14.475340
37.094547 -74.879654 14.809473
37.034481 -73.512947 14.204628
37.037186 -73.966209 14.295181
36.807983 -74.462944 14.743223
36.792419 -74.909134 14.904757
36.746452 -73.539955 14.222006
36.742992 -73.995232 14.341915
36.572842 -74.467888 14.570187
36.571022 -74.911362 14.683662
36.390358 -73.604362 14.531658
36.505745 -73.997910 14.159477
36.310188 -74.483772 14.505547
36.291355 -74.933746 14.696938
36.128937 -73.619171 14.458317
36.118893 -74.073410 14.618187
36.040409 -74.502762 14.472324
36.038994 -74.946472 14.596186
35.841248 -73.649010 14.503542
35.864944 -74.085228 14.518373
35.715721 -74.546700 14.694439
35.800301 -74.953796 14.429386
35.612209 -73.644653 14.279572
35.593349 -74.106026 14.498499
35.513008 -74.535706 14.354622
35.579613 -74.953415 14.166893
35.305271 -73.687088 14.427006
35.321945 -74.127022 14.481068
35.240814 -74.556297 14.338278
35.276779 -74.985558 14.296938
35.037083 -73.706451 14.392298
35.128139 -74.104080 14.065866
35.028236 -74.547165 14.011362
35.012203 -75.002609 14.243904
34.786694 -73.713943 14.262320
34.846481 -74.129974 14.091728
34.766171 -74.561821 13.930790
34.768566 -75.010406 14.075478
34.534504 -73.721756 14.134398
34.567482 -74.154953 14.110384
34.511597 -74.572128 13.803385
34.515671 -75.021721 13.948280
34.343670 -73.683182 13.626537
34.346336 -74.143005 13.788260
34.260044 -74.580002 13.648592
34.336678 -74.996735 13.360750
34.015610 -73.745522 13.943651
34.086014 -74.154793 13.683771
33.997147 -74.593719 13.554893
34.088417 -75.002785 13.158258
33.778912 -73.737671 13.684568
33.824291 -74.166893 13.581467
33.754429 -74.594139 13.315577
33.831287 -75.012337 12.997181
33.543522 -73.725594 13.387905
33.552948 -74.185547 13.540466
33.497200 -74.602226 13.157068
33.582561 -75.016167 12.759163
33.336464 -73.683533 12.836905
33.296711 -74.192001 13.383480
33.257648 -74.596390 12.842571
33.284496 -75.047676 12.879141
33.099918 -73.662193 12.454716
33.066895 -74.174118 12.991606
32.984924 -74.612442 12.767246
33.007755 -75.067238 12.843468
32.804131 -73.697304 12.548000
33.065327 -73.421860 10.208599
32.829453 -74.157928 12.611225
32.719879 -74.621727 12.615038
32.773357 -75.058044 12.423626
32.559063 -73.677002 12.169712
32.774380 -73.431931 10.074966
32.560005 -74.167847 12.479923
32.449505 -74.634018 12.494762
32.502766 -75.070946 12.293186
32.291889 -73.676918 11.961361
32.308327 -74.156891 12.142895
32.197323 -74.627525 12.158504
32.244911 -75.072517 12.006126
32.138470 -73.518372 10.379269
32.092041 -74.098320 11.331982
33.033195 -72.990898 0.408230
31.928038 -74.633751 11.963196
31.977333 -75.078995 11.780739
31.813253 -73.579239 10.689358
31.834215 -74.076950 10.879448
32.643784 -73.023537 0.413437
31.655602 -74.640419 11.770103
31.688910 -75.102478 11.786289
31.521835 -73.592422 10.586170
31.491144 -74.169456 11.560570
31.406622 -74.612694 11.171623
31.412701 -75.113350 11.615231
31.202061 -73.657654 10.941772
31.216633 -74.167656 11.301460
31.353212 -73.941010 9.016735
31.116516 -74.632355 11.122135
31.240665 -74.445946 8.923512
31.140030 -75.116898 11.336945
30.837690 -73.837692 12.322662
30.931345 -73.626534 10.446831
30.909918 -74.220245 11.591251
30.822418 -74.658150 11.144833
30.934498 -74.460663 8.795780
30.850061 -75.139175 11.319958
30.580641 -73.790642 11.691711
30.688938 -73.496353 9.060333
30.597536 -74.297920 12.142418
30.729450 -73.992683 9.020073
30.554508 -74.629333 10.512886
30.611546 -74.507317 9.049072
30.562767 -75.156837 11.235725
30.336523 -73.662971 10.327641
30.411573 -74.037193 9.214840
30.292580 -74.555496 9.325207
30.272913 -75.177567 11.193859
30.061867 -73.569206 9.253387
30.094545 -74.092201 9.521919
29.945171 -74.730873 11.158646
29.978792 -74.602699 9.594246
29.994862 -75.161293 10.605923
29.738808 -73.696236 10.179028
29.792414 -74.090866 9.244591
29.676430 -74.607666 9.347832
29.693649 -75.209091 10.958069
29.713318 -75.113861 9.541409
29.434855 -73.772377 10.650391
29.447536 -73.547104 8.582661
29.487423 -74.065582 8.711021
29.373280 -74.544991 8.256775
29.409082 -75.122566 9.297386
29.421095 -74.967941 6.972546
29.139153 -73.844849 11.094643
29.173689 -74.073158 8.518551
29.055742 -74.562050 8.145157
29.019358 -73.943268 0.389889
29.093122 -74.991989 6.930607
29.070078 -74.564575 0.434689
28.849810 -73.903000 11.412251
28.819313 -73.614410 8.727890
28.883072 -74.323158 10.917397
28.857365 -74.087761 8.398502
28.739382 -74.597626 8.265575
28.633194 -73.971794 0.350990
28.776827 -75.081947 7.899315
28.685919 -74.599426 0.485554
28.560659 -73.932259 11.463959
28.506287 -73.643478 8.759876
28.537472 -74.095383 8.201569
28.387175 -73.359558 0.267029
28.418745 -74.610619 8.099701
28.459438 -75.115509 8.012657
28.266401 -73.939514 11.309437
28.192970 -73.669571 8.764767
28.218834 -74.119110 8.176670
28.096756 -74.627968 7.986481
28.139582 -75.139633 7.979122
27.965693 -73.936745 11.058132
27.869638 -73.667625 8.504070
27.903736 -74.153107 8.264027
27.774345 -74.648788 7.915947
27.820652 -75.166565 7.988281
27.544016 -73.671509 8.295933
27.580242 -74.167389 8.135231
27.456917 -74.679832 7.977715
27.500423 -75.191864 7.970318
27.202648 -73.653236 7.872211
27.246933 -74.169594 7.870068
27.133102 -74.701263 7.912823
27.179253 -75.216827 7.945183
26.878527 -73.675819 7.838806
26.923862 -74.193726 7.846516
26.810682 -74.726021 7.890587
26.856903 -75.241478 7.912910
26.563086 -73.711937 7.937241
26.605949 -74.225182 7.905289
26.490721 -74.754013 7.910973
26.535334 -75.267624 7.903393
26.233883 -73.728973 7.849976
26.279371 -74.246346 7.847649
26.170969 -74.782227 7.934143
26.215904 -75.295815 7.926544
25.909256 -73.753418 7.835011
25.955160 -74.271317 7.832603
25.840469 -74.802017 7.840927
25.888577 -75.318985 7.863003
25.584185 -73.778152 7.822914
25.631474 -74.297424 7.830334
25.520172 -74.830772 7.869774
25.569851 -75.348267 7.901730
25.257626 -73.802185 7.803787
25.306484 -74.322952 7.821003
25.195805 -74.856926 7.861752
25.246197 -75.374916 7.893600
24.932808 -73.828468 7.807323
24.985670 -74.352127 7.854137
24.871056 -74.883369 7.856598
24.922161 -75.401848 7.888336
24.605312 -73.853081 7.793972
24.654114 -74.374031 7.801067
24.545948 -74.910080 7.854317
24.602764 -75.431259 7.925560
24.279957 -73.879913 7.803257
24.327930 -74.400406 7.800381
24.219162 -74.936394 7.845028
24.273039 -75.456543 7.886406
23.947388 -73.902237 7.766144
24.001427 -74.427071 7.802578
23.889029 -74.961655 7.818893
23.936630 -75.480034 7.810688
23.619837 -73.928688 7.771393
23.670168 -74.451584 7.778103
23.562658 -74.989235 7.825321
23.622688 -75.512344 7.895996
23.292019 -73.955406 7.779552
23.341274 -74.478020 7.776299
23.229612 -75.014458 7.795246
23.284369 -75.536514 7.826256
22.957279 -73.978683 7.751362
23.015287 -74.506325 7.797081
22.895651 -75.040024 7.768192
22.949486 -75.562614 7.789165
22.621641 -74.002304 7.726204
22.671804 -74.527054 7.722599
22.566132 -75.067848 7.773628
22.617071 -75.590065 7.774788
22.292498 -74.029907 7.743233
22.335747 -74.552078 7.700306
22.195299 -75.082039 7.566307
22.252510 -75.609451 7.596561
21.916941 -74.036057 7.528702
21.970100 -74.565941 7.534302
21.911922 -75.126213 7.822720
21.969559 -75.650787 7.853062
21.617655 -74.078751 7.708065
21.687145 -74.612999 7.791897
21.583731 -75.155479 7.846745
21.633989 -75.678635 7.837788
21.287426 -74.107231 7.734043
21.341396 -74.635918 7.739586
21.230028 -75.177727 7.756657
21.289217 -75.704941 7.786526
20.948387 -74.132454 7.724102
21.002892 -74.662201 7.729435
20.900650 -75.207619 7.786777
20.960541 -75.735321 7.816463
20.619953 -74.162361 7.765770
20.672680 -74.691742 7.761250
20.552929 -75.233055 7.742115
20.622719 -75.764160 7.810436
20.279900 -74.188202 7.761948
20.335415 -74.719376 7.766930
20.222813 -75.263535 7.778290
20.284204 -75.793327 7.807514
19.939171 -74.214363 7.761257
19.992792 -74.745895 7.756348
19.892712 -75.294273 7.817440
19.945024 -75.822815 7.807709
19.577631 -74.234100 7.686584
19.634293 -74.768509 7.691013
19.552485 -75.323013 7.820923
19.605207 -75.852631 7.811039
19.245382 -74.264336 7.730831
19.312908 -74.802048 7.773621
19.214275 -75.352631 7.837189
19.264782 -75.882774 7.817509
18.899775 -74.290688 7.730080
18.968172 -74.829559 7.772537
18.859406 -75.379280 7.798901
18.923779 -75.913239 7.827126
18.558985 -74.319016 7.751698
18.614426 -74.855377 7.745907
18.517113 -75.409027 7.811947
18.582228 -75.944023 7.839912
18.214977 -74.346832 7.766903
18.259480 -74.881584 7.722649
18.162796 -75.436974 7.789917
18.251610 -75.976685 7.894165
17.858713 -74.371773 7.747208
17.915079 -74.910828 7.740936
17.819164 -75.467392 7.809437
18.086166 -76.030907 8.486115
17.501316 -74.397102 7.730923
17.558163 -74.937782 7.724377
17.462906 -75.496086 7.794109
17.590923 -76.042747 8.011623
17.152130 -74.425171 7.746483
17.249647 -74.975433 7.863037
17.193029 -75.539200 8.047817
17.260910 -76.076141 8.074833
16.869305 -74.469818 7.963711
16.939528 -75.012550 7.994823
16.811281 -75.564476 7.962925
16.867264 -76.102707 7.951649
16.510921 -74.496063 7.957020
16.568916 -75.037872 7.950001
16.466652 -75.596077 7.995087
16.523037 -76.135384 7.983627
16.138123 -74.519669 7.916225
16.199978 -75.064278 7.918274
16.094715 -75.624199 7.955265
16.165037 -76.167030 7.981190
15.791162 -74.549706 7.954041
15.853531 -75.095375 7.955826
15.748784 -75.656494 7.994148
15.806073 -76.199059 7.982220
15.415791 -74.574158 7.920456
15.496280 -75.124985 7.968597
15.374304 -75.685455 7.961536
15.446178 -76.231468 7.986748
15.038861 -74.599060 7.890629
15.116768 -75.151421 7.928921
15.027196 -75.718437 8.007179
15.085388 -76.264259 7.994789
14.675118 -74.627296 7.901665
14.739235 -75.178909 7.902367
14.650312 -75.748230 7.981865
14.709000 -76.296242 7.969181
14.295507 -74.653069 7.879299
14.371456 -75.208557 7.907364
14.166213 -75.766518 7.701347
14.225737 -76.320595 7.688091
13.837674 -74.665298 7.676609
13.922325 -75.226830 7.722359
13.815023 -75.800819 7.758301
13.890326 -76.357086 7.781750
13.457522 -74.692856 7.671753
13.523609 -75.253609 7.671017
13.400740 -75.828888 7.671650
13.480881 -76.388680 7.703789
13.072166 -74.720169 7.661579
13.138838 -75.283081 7.660439
13.015961 -75.860748 7.662636
13.092993 -76.422417 7.685146
12.685482 -74.747925 7.655315
12.748674 -75.312477 7.644657
12.629871 -75.893059 7.657532
12.724052 -76.457878 7.716099
12.280886 -74.773483 7.616703
12.344620 -75.340767 7.605621
12.242510 -75.925819 7.656361
12.304516 -76.490814 7.641636
11.874407 -74.799568 7.582333
11.942909 -75.370094 7.579872
11.836905 -75.957542 7.622982
11.916418 -76.526199 7.644123
11.466093 -74.826180 7.552235
11.565350 -75.402946 7.612389
11.429478 -75.989784 7.593884
11.527128 -76.562035 7.650593
11.086744 -74.857735 7.589172
11.160793 -75.433228 7.594837
11.037918 -76.023956 7.604958
11.136686 -76.598305 7.661060
10.657557 -74.882828 7.531757
10.745724 -75.463036 7.563667
10.627298 -76.057205 7.584347
10.709324 -76.633408 7.604031
10.248787 -74.911583 7.523426
10.356018 -75.496231 7.590317
10.214991 -76.090973 7.568096
10.279652 -76.669098 7.551662
9.833887 -74.940231 7.510563
9.905424 -75.523804 7.505783
9.763897 -76.122688 7.485432
9.778261 -76.702652 7.371075
9.356237 -74.961685 7.387650
9.390974 -75.546135 7.311657
9.309982 -76.155075 7.407825
9.455942 -76.743835 7.540462
8.961061 -74.994415 7.427994
9.072046 -75.588097 7.492359
8.973196 -76.195679 7.554565
9.053812 -76.782364 7.563404
8.579702 -75.029282 7.498573
8.667587 -75.622322 7.518543
8.554672 -76.231499 7.556007
8.655493 -76.821503 7.599300
8.138903 -75.057739 7.468815
8.227657 -75.654022 7.488113
8.090160 -76.265289 7.483772
8.216833 -76.859924 7.569786
7.736130 -75.091217 7.513023
7.805681 -75.687973 7.497143
7.708275 -76.304398 7.563759
7.776159 -76.898941 7.545128
7.291922 -75.120773 7.492680
7.367107 -75.721222 7.484894
7.224270 -76.338615 7.475620
7.333521 -76.938545 7.525368
6.845787 -75.150917 7.477264
6.916458 -75.754242 7.460354
6.819920 -76.377609 7.529999
6.909609 -76.979187 7.544792
6.397772 -75.181648 7.466797
6.489883 -75.789795 7.483459
6.330954 -76.413155 7.452473
6.442558 -77.019508 7.500664
5.947935 -75.212959 7.461334
7.422831 -75.922432 9.689243
6.009127 -75.822098 7.426441
5.924128 -76.453156 7.516094
6.042110 -77.061707 7.572048
7.013090 -75.387070 9.833977
7.109360 -75.962997 9.861542
5.473576 -76.491806 7.516666
5.565895 -77.103134 7.529633
6.716669 -75.429070 10.034676
5.015741 -75.274864 7.423649
6.721096 -75.998726 9.919319
5.021328 -76.531036 7.522297
5.114517 -77.145615 7.534637
7.852917 -75.596542 12.393166
4.621159 -75.313301 7.525108
6.370811 -76.037277 10.039585
4.716583 -75.933594 7.539024
6.578066 -76.644142 10.554413
6.109432 -77.205246 9.728214
4.639387 -77.188416 7.511391
7.399851 -75.620895 12.321781
5.463413 -75.456863 9.459106
5.976271 -76.073418 10.097034
4.210978 -75.967392 7.478237
6.328293 -76.686996 10.817566
7.185297 -77.260582 11.967949
4.195679 -77.232193 7.543358
7.318089 -75.676575 12.798704
6.644791 -76.171158 11.707664
6.149605 -76.731956 11.181236
6.194559 -77.295052 11.130402
6.910097 -75.705299 12.800426
5.750643 -75.613625 11.148865
6.949913 -76.244080 12.747206
5.791412 -76.771088 11.283813
5.859468 -77.335991 11.265614
5.890385 -75.687981 11.953583
-2.942095 -75.013573 -0.398441
6.917561 -76.296371 13.282450
6.064871 -76.251518 12.085869
6.574923 -76.842178 12.983013
6.588636 -77.381317 12.893324
5.437843 -77.376816 11.282097
5.742418 -75.738792 12.341518
6.810652 -76.343750 13.702621
5.689262 -76.287415 12.157494
6.537252 -76.887817 13.503096
6.432449 -77.421211 13.252354
4.691259 -77.417496 10.858639
7.444420 -75.920433 15.217337
5.468538 -75.779884 12.553028
7.220335 -76.415108 14.813639
6.190784 -76.925232 13.596138
6.548655 -77.460869 13.973330
7.382254 -75.971001 15.661245
7.058556 -76.457306 15.132498
6.683016 -76.981155 14.801149
4.987408 -76.944397 12.560688
6.284239 -77.499771 14.170986
7.283556 -76.018143 16.048595
6.065506 -75.937561 14.464336
4.177530 -75.812660 12.008743
6.633160 -76.487595 15.102806
7.206600 -77.034798 16.011120
6.819441 -77.536369 15.409941
6.389307 -76.013786 15.412590
6.402382 -76.526642 15.330526
6.379360 -77.061378 15.463142
6.746132 -77.573219 15.833715
6.080223 -76.048340 15.540218
6.354185 -76.572739 15.787085
5.315937 -76.532013 14.479689
6.152514 -77.099754 15.693184
6.373373 -77.611420 15.873180
6.256388 -76.111786 16.268631
4.695236 -76.019485 14.343872
6.142527 -76.611893 16.032379
5.036396 -76.570786 14.664026
5.833361 -77.136742 15.808594
6.056295 -77.649635 15.986919
5.826340 -76.138779 16.244287
5.939787 -76.651199 16.286917
4.790051 -76.610779 14.889572
5.661119 -77.175827 16.104605
5.809488 -77.687477 16.188898
5.741352 -76.185394 16.638468
5.206984 -76.672722 15.906651
4.179951 -76.638641 14.680260
1.727909 -76.557266 11.752243
5.131590 -77.210831 15.973106
5.384480 -77.727295 16.178558
5.206799 -76.207649 16.500313
5.056049 -76.714302 16.229443
4.962448 -77.250084 16.273903
4.925106 -77.768135 16.135481
4.845274 -76.239799 16.572906
3.644575 -76.179230 15.193216
4.732058 -76.750412 16.348783
3.592163 -76.716927 15.034588
4.533834 -77.287178 16.274044
4.548521 -77.808517 16.196396
3.462757 -76.222977 15.497391
4.593618 -76.791901 16.681522
3.402653 -76.759125 15.332253
4.395498 -77.326569 16.608620
3.360035 -77.320595 15.441837
4.297081 -77.847443 16.404055
3.250870 -76.264977 15.765402
3.557158 -76.809906 16.010366
4.261129 -77.365662 16.943483
3.860109 -77.889519 16.405869
3.298447 -76.318283 16.314861
3.512381 -76.854446 16.454819
3.853306 -77.403725 16.976698
3.036388 -77.939117 15.992872
3.033119 -76.357101 16.517862
3.214642 -76.892662 16.619686
3.123226 -77.441994 16.671642
3.444408 -77.966614 16.923468
2.790045 -76.396835 16.745102
1.922815 -76.361633 15.831717
2.587978 -76.924301 16.439026
2.916769 -77.481537 16.935087
3.955990 -77.990303 17.939127
2.972130 -78.010567 16.901575
2.417013 -76.431480 16.837872
2.566605 -76.968605 16.901020
2.427774 -77.521545 16.905460
2.497591 -78.055244 16.885851
1.132637 -76.432907 16.008249
1.683537 -76.997368 16.475599
1.374956 -77.564217 16.312328
2.146940 -78.097717 17.004757
1.168055 -76.484375 16.534767
1.362980 -77.036949 16.637091
-1.129013 -76.998230 14.137215
1.838957 -77.601929 17.261126
2.220345 -78.130173 17.552143
0.839727 -76.522644 16.694176
2.218098 -77.093147 17.960426
0.829573 -77.073784 16.591444
2.067392 -77.639145 17.954674
2.785822 -78.149269 18.573029
1.202454 -76.583023 17.523920
1.600323 -77.127663 17.819433
1.312172 -77.682587 17.684553
2.525990 -78.188690 18.768848
1.461428 -76.638184 18.235167
1.340200 -77.167236 18.032003
1.087538 -77.722717 17.934475
-0.103077 -77.733421 16.806683
1.571873 -78.247787 18.306053
-0.031269 -76.642097 17.296347
1.140127 -77.207436 18.301762
0.044991 -77.197205 17.276789
1.143293 -77.759956 18.445217
1.009691 -78.297203 18.233303
0.034895 -76.691635 17.827322
-1.004251 -76.663940 16.874687
1.170822 -77.249352 18.782877
0.022680 -77.240326 17.726807
-0.033684 -77.810829 17.819021
0.731472 -78.338814 18.432062
-0.374744 -76.728233 17.920113
1.066816 -77.289627 19.134092
-0.446522 -77.279945 17.766129
-0.360931 -77.853203 17.986902
-0.065006 -78.397003 18.164951
-1.256546 -76.754242 17.600475
-0.431232 -77.322632 18.243288
-1.167015 -77.902657 17.734749
-0.711063 -78.451637 18.049046
-1.142782 -76.804039 18.167015
-4.054510 -76.740204 15.633766
-0.771496 -77.363342 18.402521
-1.919199 -77.952766 17.547094
-1.813511 -78.522758 17.548449
-2.305874 -76.826675 17.631523
-4.806292 -76.775681 15.493898
-2.424286 -77.401520 17.439360
-5.817087 -77.394196 14.529085
-2.167170 -77.995750 17.805355
-3.612490 -78.019958 16.572285
-2.159742 -78.569397 17.721666
-3.093817 -78.602119 16.922083
-5.463400 -76.814377 15.448545
-6.810888 -76.788918 14.316633
-6.672686 -77.441544 14.331131
-2.481941 -78.039993 18.008108
-3.868906 -78.064934 16.845440
-2.505259 -78.616325 17.898905
-5.776762 -76.860191 15.698851
-6.417490 -77.489853 15.070662
-2.687460 -78.082375 18.303341
-2.695915 -78.657806 18.207521
-5.107641 -78.747559 16.214430
-4.414648 -77.533463 17.217211
-5.351225 -78.793640 16.513908
-4.720793 -77.578529 17.453600
-28.504320 -79.801437 -0.647282
-29.533857 -79.903725 -0.637459
-30.655123 -80.011337 -0.679352
-22.816050 -77.001015 6.000408
-31.644972 -80.114838 -0.603775
-24.177122 -77.129875 6.407303
-24.907236 -77.195267 6.589733
-35.179947 -80.459526 -0.678402
-36.357033 -80.577698 -0.661270
-39.173470 -80.841766 -0.874073
-35.632004 -78.755470 4.555122
-34.482430 -79.805702 5.502663
-34.714134 -79.877655 6.119656
-35.548965 -80.962502 5.474033
-33.896576 -79.970367 8.087448
-33.965111 -80.034035 8.775528
28.949669 -77.482628 44.450443
28.985769 -77.484718 44.468010
28.956343 -77.482811 44.459595
29.046730 -77.481255 44.502483
28.973339 -77.482224 44.470417
29.018888 -77.483200 44.491322
29.017757 -77.480240 44.493397
28.999916 -77.484604 44.484806
28.989584 -77.481850 44.482994
28.980818 -77.486053 44.478615
29.043615 -77.479271 44.509033
29.025595 -77.483261 44.500793
29.006182 -77.481392 44.494968
28.988144 -77.485954 44.486843
29.005384 -77.481621 44.496891
28.996490 -77.485580 44.492771
28.977196 -77.487099 44.487247
29.013126 -77.481575 44.504429
28.994883 -77.486061 44.496796
28.994104 -77.486305 44.498821