# This PCD file was generated using the MATLAB® pcwrite function
# from Computer Vision System Toolbox®.
# .PCD v.7 - Point Cloud Data file format
VERSION .7
FIELDS x y z
SIZE 4 4 4
TYPE F F F
COUNT 1 1 1
WIDTH 768
HEIGHT 1
VIEWPOINT 0 0 0 1 0 0 0
POINTS 768
DATA ascii
-7.143671 -4.485215 -0.494544
-7.244439 -4.343446 -0.507640
-7.011533 -4.406337 -0.498794
-7.105071 -4.262185 -0.505208
-6.873711 -4.324065 -0.494110
-6.978902 -4.188533 -0.514390
-6.736545 -4.242200 -0.487272
-6.853183 -4.115167 -0.521667
-6.581731 -4.149758 -0.457238
-6.690849 -4.020819 -0.484951
-6.488493 -4.094284 -0.495495
-6.578652 -3.955270 -0.502233
-6.359216 -4.017193 -0.489655
-6.466749 -3.889913 -0.517892
-6.272213 -3.965494 -0.532241
-6.355157 -3.824756 -0.531932
-6.137947 -3.885436 -0.515610
-6.225994 -3.749553 -0.522580
-6.021980 -3.816376 -0.518863
-6.132965 -3.695081 -0.555192
-5.889130 -3.737188 -0.498264
-6.010686 -3.623875 -0.549666
-5.808660 -3.689472 -0.542565
-5.889003 -3.553036 -0.542317
-5.699657 -3.624632 -0.548388
-5.802396 -3.502302 -0.578143
-5.591060 -3.560048 -0.552644
-5.675931 -3.428776 -0.559981
-5.449528 -3.475681 -0.509676
-5.538969 -3.349274 -0.524696
-5.369643 -3.428373 -0.548826
-5.458744 -3.302252 -0.563971
-5.240635 -3.351549 -0.517489
-5.306700 -3.214185 -0.501867
-5.139491 -3.291483 -0.523073
-5.226991 -3.167497 -0.538466
-5.006750 -3.212423 -0.480251
-5.077005 -3.080674 -0.472270
-4.922510 -3.162543 -0.506363
-5.029902 -3.052646 -0.553545
-4.853935 -3.122103 -0.555229
-4.918651 -2.987997 -0.539219
-4.738710 -3.053602 -0.531407
-4.844582 -2.944593 -0.579249
-4.624265 -2.985575 -0.505896
-4.713579 -2.868720 -0.529927
-4.525701 -2.927113 -0.502998
-4.650014 -2.831339 -0.583870
-4.477251 -2.898849 -0.580218
-4.535666 -2.765016 -0.555695
-4.359358 -2.828763 -0.542330
-4.442049 -2.710533 -0.558654
-4.271490 -2.776774 -0.552185
-4.343863 -2.653468 -0.552124
-4.448813 -2.383980 -0.563977
-4.198199 -2.733585 -0.585791
-4.275270 -2.613275 -0.594038
-4.068158 -2.656177 -0.518421
-4.148953 -2.540235 -0.535070
-4.197261 -2.404596 -0.574322
-4.271760 -2.284137 -0.579348
-4.009335 -2.621736 -0.574953
-4.094789 -2.508281 -0.600099
-4.095221 -2.346694 -0.555022
-4.173952 -2.229606 -0.568524
-3.917875 -2.567614 -0.571855
-3.974726 -2.438853 -0.546515
-4.012636 -2.299236 -0.568170
-4.090977 -2.182566 -0.581769
-3.826819 -2.513741 -0.567554
-3.906420 -2.398880 -0.584512
-3.930205 -2.251881 -0.580302
-3.979922 -2.121509 -0.542973
-3.704927 -2.441243 -0.502329
-3.778935 -2.325288 -0.510857
-3.815930 -2.187574 -0.531551
-3.893007 -2.072590 -0.545366
-3.641563 -2.404109 -0.546785
-3.742317 -2.303343 -0.606830
-3.729779 -2.138306 -0.532751
-3.783511 -2.012472 -0.503691
-3.590866 -2.374654 -0.616464
-3.647308 -2.248243 -0.590613
-3.652828 -2.093956 -0.550148
-3.729120 -1.979806 -0.564149
-3.471123 -2.303452 -0.547113
-3.565898 -2.200881 -0.599127
-3.567183 -2.045009 -0.549266
-3.616333 -1.918188 -0.511273
-3.399005 -2.261062 -0.571783
-3.471857 -2.146371 -0.580520
-3.486184 -1.998552 -0.556039
-3.561620 -1.885357 -0.570229
-3.306135 -2.206116 -0.551878
-3.399462 -2.104155 -0.604424
-3.422381 -1.961215 -0.596912
-3.471806 -1.835202 -0.558572
-3.222021 -2.156476 -0.548327
-3.298014 -2.045488 -0.565959
-3.312287 -1.899428 -0.540202
-3.399472 -1.793685 -0.581006
-3.166311 -2.124061 -0.605561
-3.242299 -2.012747 -0.623282
-3.244485 -1.860013 -0.570474
-3.310369 -1.743969 -0.567231
-3.043055 -2.050692 -0.511435
-3.101798 -1.932021 -0.493745
-3.168427 -1.816255 -0.582234
-3.238233 -1.702591 -0.587883
-2.991225 -2.020655 -0.575929
-3.081848 -1.919538 -0.629487
-3.100440 -1.776754 -0.610976
-3.149879 -1.653336 -0.572011
-2.904454 -1.969420 -0.559431
-2.970981 -1.855635 -0.559504
-3.008828 -1.724872 -0.585160
-3.077973 -1.612115 -0.590900
-2.829425 -1.925321 -0.568799
-2.903345 -1.816194 -0.586866
-2.940950 -1.685457 -0.612219
-3.009970 -1.572789 -0.617994
-2.761867 -1.885775 -0.595356
-2.828088 -1.772459 -0.595444
-2.854053 -1.636117 -0.593318
-2.918759 -1.522294 -0.590100
-2.672564 -1.833006 -0.566787
-2.745624 -1.724670 -0.585017
-2.771415 -1.589040 -0.582409
-2.835788 -1.475831 -0.579202
-2.601621 -1.791416 -0.582579
-2.656371 -1.673072 -0.555367
-2.707397 -1.551677 -0.616091
-2.764365 -1.434936 -0.594645
-2.530694 -1.749846 -0.597580
-2.617314 -1.649786 -0.652525
-2.614559 -1.499368 -0.575881
-2.674766 -1.385415 -0.563535
-2.463187 -1.710372 -0.620968
-2.528513 -1.598473 -0.621081
-2.536582 -1.454811 -0.571226
-2.621586 -1.353216 -0.623161
-2.372285 -1.656622 -0.579175
-2.464210 -1.560971 -0.652967
-2.472643 -1.417527 -0.602548
-2.536238 -1.305803 -0.599356
-2.295281 -1.611355 -0.573166
-2.363065 -1.502759 -0.582531
-2.384932 -1.368007 -0.568421
-2.461780 -1.263573 -0.602264
-2.231349 -1.574090 -0.603345
-2.305565 -1.469107 -0.631301
-2.317719 -1.329066 -0.588928
-2.367341 -1.212057 -0.548604
-2.139132 -1.519512 -0.549109
-2.222055 -1.420852 -0.605090
-2.240753 -1.285140 -0.580758
-2.310138 -1.177948 -0.596228
-2.078425 -1.484241 -0.587049
-2.157866 -1.383459 -0.633886
-2.176736 -1.247852 -0.609106
-2.239552 -1.137613 -0.605932
-2.011406 -1.445115 -0.605665
-2.066040 -1.330582 -0.577699
-2.087856 -1.197922 -0.561732
-2.150131 -1.088661 -0.558583
-1.921072 -1.391663 -0.548372
-2.010982 -1.298326 -0.633125
-2.036019 -1.166834 -0.626199
-2.098583 -1.057095 -0.623028
-1.860152 -1.356299 -0.584197
-1.926243 -1.249464 -0.593780
-1.959898 -1.123442 -0.614709
-2.010166 -1.008747 -0.573792
-1.787837 -1.313929 -0.581601
-1.864967 -1.213741 -0.629052
-1.895618 -1.086041 -0.640226
-1.946184 -0.971519 -0.599191
-1.721136 -1.275029 -0.597162
-1.786778 -1.168579 -0.606811
-1.808776 -1.037337 -0.589106
-1.870548 -0.929075 -0.585963
-1.649148 -1.232870 -0.592994
-1.725257 -1.132734 -0.640730
-1.744686 -1.000067 -0.613105
-1.809264 -0.893049 -0.619481
-1.582503 -1.194022 -0.607101
-1.658170 -1.093789 -0.654973
-1.680414 -0.962700 -0.636459
-1.739489 -0.853257 -0.623760
-1.510868 -1.152088 -0.601374
-1.575766 -1.046335 -0.611117
-1.605643 -0.920142 -0.620854
-1.669825 -0.813540 -0.627285
-1.441897 -1.111809 -0.604441
-1.509043 -1.007623 -0.623803
-1.531278 -0.877830 -0.604400
-1.602854 -0.775011 -0.639661
-1.366050 -1.067250 -0.577917
-1.447098 -0.971570 -0.655022
-1.476807 -0.845289 -0.664111
-1.528347 -0.733272 -0.622470
-1.313355 -1.037136 -0.646894
-1.370870 -0.927607 -0.627804
-1.402693 -0.803142 -0.646165
-1.473713 -0.700000 -0.681607
-1.235726 -0.991463 -0.609178
-1.313259 -0.893965 -0.677000
-1.338163 -0.765675 -0.666072
-1.390034 -0.654495 -0.624259
-1.169384 -0.952849 -0.618960
-1.233224 -0.847935 -0.628838
-1.255750 -0.719623 -0.607784
-1.325657 -0.617126 -0.643424
-1.094880 -0.909108 -0.589233
-1.175164 -0.814052 -0.676777
-1.200079 -0.686424 -0.665076
-1.252283 -0.576083 -0.623096
-1.032764 -0.873166 -0.617003
-1.096152 -0.768636 -0.626929
-1.127123 -0.644987 -0.644004
-1.187912 -0.538736 -0.640878
-0.962792 -0.832274 -0.605184
-1.033736 -0.732367 -0.654117
-1.054618 -0.603822 -0.622124
-1.117208 -0.498877 -0.628759
-0.902226 -0.797349 -0.641424
-0.967261 -0.693875 -0.661161
-0.997952 -0.570074 -0.677624
-1.050800 -0.460751 -0.635414
-0.834254 -0.757737 -0.637957
-0.897173 -0.653419 -0.647950
-0.925781 -0.529121 -0.654292
-0.978659 -0.420461 -0.612020
-0.763111 -0.716093 -0.614165
-0.830889 -0.615057 -0.653582
-0.854081 -0.488450 -0.630167
-0.914366 -0.383197 -0.627058
-0.698834 -0.678843 -0.628861
-0.764635 -0.576721 -0.658529
-0.789660 -0.451121 -0.644557
-0.842878 -0.343304 -0.602159
-0.625302 -0.635631 -0.583901
-0.695229 -0.536689 -0.643123
-0.723502 -0.413017 -0.648457
-0.783743 -0.307900 -0.645344
-0.564149 -0.600413 -0.616905
-0.629199 -0.498502 -0.646672
-0.660492 -0.376303 -0.671385
-0.715951 -0.269402 -0.638710
-0.497096 -0.561380 -0.609862
-0.560326 -0.458796 -0.629811
-0.589846 -0.336280 -0.644342
-0.649903 -0.231541 -0.641236
-0.432845 -0.524182 -0.621871
-0.500024 -0.423708 -0.671487
-0.525312 -0.298923 -0.656070
-0.579493 -0.192309 -0.613442
-0.358697 -0.480446 -0.554101
-0.426226 -0.381405 -0.613675
-0.455375 -0.259330 -0.627563
-0.515180 -0.155090 -0.624465
-0.301770 -0.448120 -0.624137
-0.368037 -0.347440 -0.673884
-0.395978 -0.224083 -0.677574
-0.450783 -0.117830 -0.634841
-0.239559 -0.412335 -0.654007
-0.297556 -0.306959 -0.634405
-0.320584 -0.182450 -0.598070
-0.391296 -0.081896 -0.684230
-0.172966 -0.373614 -0.643566
-0.238459 -0.272486 -0.693430
-0.261910 -0.147421 -0.656744
-0.317062 -0.042013 -0.613936
-0.110305 -0.337587 -0.672178
-0.168578 -0.232370 -0.652539
-0.192134 -0.108176 -0.615470
-0.257130 -0.005840 -0.662066
-0.043872 -0.298977 -0.660394
-0.108589 -0.197400 -0.710358
-0.132575 -0.072653 -0.672945
-0.188352 0.032394 -0.630058
0.021547 -0.261064 -0.657876
-0.039329 -0.157661 -0.668067
-0.063426 -0.033788 -0.630280
-0.124853 0.069469 -0.647099
0.085471 -0.224231 -0.674618
0.021532 -0.122206 -0.724668
-0.002999 0.002218 -0.686534
-0.059404 0.106902 -0.643583
0.150850 -0.186360 -0.670783
0.092931 -0.081480 -0.641110
0.065503 0.040691 -0.642493
0.001164 0.143787 -0.699209
0.217226 -0.147715 -0.646329
0.151865 -0.046925 -0.736353
0.126778 0.077169 -0.697511
0.069746 0.181490 -0.654505
0.280345 -0.111581 -0.681079
0.219821 -0.007975 -0.691301
0.194612 0.115237 -0.652105
0.133737 0.218813 -0.668971
0.344752 -0.074506 -0.695236
0.282371 0.028420 -0.745409
0.256717 0.152177 -0.705870
0.199056 0.256135 -0.662825
0.411286 -0.035589 -0.648803
0.349644 0.066957 -0.698997
0.321735 0.189695 -0.709070
0.261779 0.293848 -0.705957
0.477092 0.002899 -0.601683
0.414281 0.104308 -0.711858
0.386779 0.227219 -0.711611
0.328488 0.330814 -0.668538
0.540440 0.038921 -0.653851
0.479578 0.141917 -0.704076
0.453214 0.264445 -0.663519
0.394957 0.367253 -0.620453
0.605532 0.076978 -0.605409
0.545076 0.179517 -0.675638
0.516923 0.302273 -0.714731
0.457734 0.405729 -0.681635
0.669580 0.112971 -0.696294
0.609586 0.216883 -0.706537
0.582629 0.339060 -0.665316
0.523549 0.441773 -0.632237
0.734402 0.150543 -0.676543
0.674526 0.254602 -0.756783
0.647110 0.377315 -0.715226
0.587559 0.480183 -0.672137
0.798925 0.187935 -0.656140
0.739386 0.291464 -0.666380
0.712066 0.413652 -0.664506
0.652383 0.517156 -0.661411
0.862939 0.225127 -0.625090
0.804782 0.329428 -0.715314
0.777300 0.452323 -0.713101
0.717119 0.554829 -0.670021
0.930144 0.262799 -0.723348
0.869660 0.366740 -0.703599
0.841487 0.488199 -0.661089
0.781888 0.592131 -0.667984
0.991720 0.299297 -0.621041
0.934948 0.404395 -0.711223
0.907454 0.527274 -0.708354
0.846643 0.629417 -0.665296
1.059112 0.337370 -0.687973
0.999647 0.441586 -0.698204
0.972505 0.564721 -0.704997
0.912422 0.668801 -0.701885
1.124496 0.374900 -0.694283
1.066801 0.480526 -0.744451
1.039155 0.603954 -0.740913
0.977436 0.706218 -0.697875
1.188838 0.412029 -0.679969
1.129549 0.516347 -0.690191
1.102530 0.639544 -0.696320
1.044068 0.746075 -0.733100
1.256948 0.450696 -0.724863
1.198577 0.556462 -0.755026
1.169722 0.679070 -0.730880
1.107373 0.780972 -0.687891
1.320640 0.487536 -0.699261
1.261982 0.592758 -0.719434
1.234949 0.716582 -0.724879
1.174536 0.821116 -0.721756
1.383988 0.524170 -0.673032
1.327852 0.630693 -0.723074
1.300132 0.754059 -0.718221
1.237155 0.855600 -0.675292
1.450527 0.562216 -0.685993
1.393012 0.668153 -0.716087
1.365266 0.791500 -0.710907
1.304828 0.896019 -0.707787
1.515397 0.599500 -0.678380
1.463462 0.708991 -0.768110
1.433779 0.831749 -0.742688
1.369895 0.933412 -0.699820
1.580210 0.636742 -0.670114
1.522206 0.742340 -0.690215
1.499101 0.869279 -0.734025
1.437495 0.973391 -0.720970
1.649403 0.676080 -0.700892
1.594405 0.784223 -0.750743
1.568393 0.909957 -0.764372
1.503603 1.011744 -0.721575
1.716759 0.714559 -0.711103
1.660895 0.822469 -0.750986
1.629549 0.944199 -0.714727
1.567766 1.048210 -0.701698
1.781825 0.751919 -0.700813
1.727464 0.860750 -0.750546
1.699297 0.985121 -0.743667
1.638236 1.090570 -0.740528
1.852153 0.791881 -0.729420
1.796636 0.900634 -0.769201
1.764633 1.022622 -0.732329
1.703559 1.128064 -0.729192
1.917360 0.829304 -0.717768
1.860814 0.937407 -0.747618
1.835116 1.063947 -0.759798
1.773749 1.169865 -0.756648
1.986933 0.868916 -0.735042
1.927586 0.975777 -0.745127
1.904724 1.104541 -0.776644
1.843135 1.210814 -0.773487
2.050626 0.905554 -0.712190
2.004842 1.020567 -0.810872
1.971771 1.143216 -0.773066
1.904550 1.244895 -0.730575
2.117340 0.943711 -0.708373
2.051911 1.046847 -0.679099
2.043461 1.185205 -0.798260
1.975649 1.287189 -0.755823
2.180685 0.980130 -0.684242
2.136415 1.096011 -0.782598
2.109217 1.222900 -0.783446
2.041095 1.324707 -0.741078
2.261595 1.025598 -0.757456
2.202042 1.133628 -0.767469
2.174862 1.260523 -0.767970
2.112871 1.367370 -0.764805
2.323310 1.061165 -0.722133
2.276490 1.176591 -0.800577
2.247408 1.302975 -0.790907
2.178388 1.404909 -0.748673
2.398123 1.103522 -0.754546
2.340395 1.213142 -0.774276
2.313113 1.340612 -0.774039
2.250817 1.447927 -0.770866
2.467539 1.143080 -0.756890
2.407898 1.251866 -0.766838
2.378692 1.378168 -0.756508
2.309056 1.479750 -0.714435
2.528811 1.178365 -0.719613
2.471404 1.288168 -0.739256
2.452041 1.421051 -0.777155
2.387533 1.527361 -0.764270
2.602562 1.220187 -0.739961
2.555447 1.336831 -0.808062
2.525842 1.464183 -0.796976
2.455031 1.566379 -0.755049
2.670089 1.258734 -0.730448
2.627741 1.378391 -0.817752
2.591599 1.501812 -0.777299
2.528690 1.610063 -0.774113
2.742214 1.299705 -0.739546
2.691417 1.414762 -0.788022
2.665989 1.545262 -0.795534
2.594287 1.647591 -0.753779
2.819370 1.343346 -0.767117
2.759398 1.453712 -0.776942
2.731739 1.582867 -0.774444
2.659731 1.685022 -0.732788
2.882439 1.379512 -0.736140
2.841617 1.501168 -0.822812
2.806694 1.626620 -0.791077
2.743186 1.735815 -0.787875
2.950234 1.418174 -0.723723
2.890434 1.528637 -0.733489
2.862758 1.657774 -0.730284
2.799517 1.766478 -0.727102
3.012833 1.454051 -0.691480
2.983422 1.582483 -0.815936
2.947907 1.708230 -0.783581
2.884092 1.817893 -0.780375
3.080438 1.492585 -0.677702
3.020808 1.603145 -0.687410
3.013572 1.745747 -0.759650
2.952232 1.857210 -0.765963
3.172613 1.544274 -0.748785
3.125696 1.664025 -0.805997
3.089579 1.790062 -0.773029
3.015217 1.892800 -0.731863
3.240800 1.583120 -0.733350
3.183313 1.696738 -0.752473
3.155167 1.827515 -0.747671
3.093665 1.939528 -0.753924
3.311819 1.623478 -0.726655
3.257159 1.739096 -0.755170
3.242756 1.879325 -0.797139
3.178047 1.990406 -0.793910
3.400624 1.673404 -0.775724
3.336999 1.784996 -0.775880
3.319911 1.924265 -0.807858
3.246584 2.029909 -0.776411
3.442055 1.697807 -0.673378
3.411454 1.827680 -0.776854
3.385768 1.961841 -0.780171
3.323599 2.075402 -0.786313
3.531599 1.748135 -0.720664
3.468000 1.859741 -0.720809
3.475317 2.014739 -0.826592
3.400975 2.121089 -0.795310
3.622069 1.798981 -0.766802
3.585763 1.928039 -0.850931
3.541319 2.052377 -0.797337
3.475715 2.164876 -0.794088
3.697292 1.841591 -0.765280
3.639285 1.958288 -0.784017
3.619616 2.097927 -0.804550
3.553718 2.210900 -0.801291
3.769415 1.882516 -0.753639
3.737291 2.014830 -0.846447
3.698250 2.143658 -0.810840
3.632058 2.257107 -0.807575
3.868573 1.938098 -0.815085
3.806740 2.054474 -0.824444
3.764138 2.181199 -0.779337
3.697933 2.294641 -0.776079
3.937913 1.977508 -0.792391
3.899708 2.107988 -0.866117
3.856499 2.235647 -0.820632
3.789719 2.350046 -0.817351
4.014176 2.020669 -0.787300
3.952232 2.137625 -0.796581
3.922465 2.273211 -0.787531
3.859009 2.389894 -0.793401
4.069121 2.052225 -0.726553
4.042593 2.189563 -0.827103
4.016001 2.328307 -0.826663
3.948632 2.443655 -0.823368
4.174512 2.111221 -0.792695
4.112179 2.229242 -0.801892
4.096201 2.374876 -0.828254
4.018109 2.483588 -0.797736
4.266284 2.162816 -0.821145
4.218152 2.290326 -0.866532
4.162230 2.412443 -0.792736
4.094553 2.528258 -0.789440
4.351175 2.210663 -0.830369
4.288178 2.330233 -0.839478
4.272194 2.477780 -0.864563
4.189207 2.585241 -0.825244
4.397916 2.237686 -0.748723
4.350494 2.365600 -0.793720
4.338501 2.515483 -0.827263
4.269954 2.632730 -0.823943
4.482944 2.285589 -0.756246
4.420109 2.405251 -0.765264
4.415987 2.560230 -0.816070
4.354713 2.682883 -0.830586
4.588331 2.344616 -0.807248
4.544502 2.477054 -0.860745
4.516915 2.619696 -0.857280
4.436046 2.730682 -0.827291
4.682600 2.397574 -0.830196
4.614763 2.517050 -0.830256
4.583172 2.657336 -0.817512
4.513741 2.776007 -0.814171
4.756882 2.439595 -0.807794
4.717323 2.575979 -0.869618
4.697387 2.725032 -0.882709
4.611293 2.834580 -0.844140
4.860483 2.497659 -0.846047
4.796038 2.620903 -0.854874
4.763841 2.762760 -0.841117
4.689520 2.880184 -0.828993
4.922375 2.532876 -0.795473
4.891606 2.675687 -0.874179
4.846600 2.810680 -0.833732
4.780084 2.933972 -0.839077
5.005450 2.579686 -0.787815
4.928185 2.695904 -0.770447
4.929568 2.858707 -0.825342
4.862823 2.982511 -0.830637
5.097516 2.631418 -0.796461
5.041334 2.760950 -0.822444
5.029882 2.917516 -0.850464
4.945764 3.031151 -0.821187
5.198958 2.688292 -0.821142
5.146823 2.821482 -0.855598
5.113505 2.965890 -0.839869
5.041739 3.088371 -0.836471
5.292064 2.740590 -0.827318
5.262059 2.887687 -0.904418
5.214976 3.025330 -0.862420
5.125249 3.137310 -0.824850
5.399371 2.800683 -0.857853
5.315119 2.917516 -0.832284
5.299213 3.074027 -0.849594
5.244216 3.209542 -0.880144
5.488883 2.851000 -0.853000
5.449938 2.995116 -0.912308
5.401794 3.134071 -0.869531
5.310678 3.247189 -0.832307
5.588114 2.906651 -0.863874
5.521265 3.035594 -0.872279
5.486603 3.183066 -0.854444
5.394935 3.296514 -0.817405
5.668756 2.952075 -0.839901
5.611199 3.086926 -0.865010
5.571553 3.232129 -0.838314
5.520758 3.372993 -0.876629
5.778468 3.013479 -0.864976
5.691848 3.132823 -0.839933
5.675582 3.292953 -0.854362
5.601197 3.419726 -0.850901
5.869315 3.064499 -0.855379
5.811201 3.201282 -0.880178
5.761042 3.342278 -0.835934
5.667445 3.457200 -0.799450
5.935558 3.101964 -0.803449
5.862944 3.230288 -0.803383
5.885510 3.415621 -0.882120
5.790802 3.531839 -0.845804
6.041663 3.161363 -0.816343
6.008215 3.313808 -0.881750
5.971682 3.465321 -0.861171
5.876430 3.581873 -0.825055
6.163645 3.229504 -0.852175
6.074676 3.351369 -0.827682
6.057945 3.515059 -0.839153
6.001473 3.657437 -0.868072
6.255646 3.281123 -0.837723
6.217026 3.433123 -0.894211
6.164480 3.577233 -0.848286
6.092744 3.711041 -0.852827
6.363495 3.341467 -0.846189
6.288733 3.473709 -0.846077
6.271573 3.639708 -0.855929
6.174131 3.758229 -0.820394
6.450788 3.390469 -0.821236
6.391390 3.532299 -0.845054
6.358536 3.689799 -0.830259
6.280950 3.821817 -0.826728
6.554149 3.448319 -0.818984
6.505002 3.597241 -0.858484
6.487383 3.765532 -0.866693
6.429569 3.912281 -0.894719
6.690302 3.524251 -0.862564
6.656562 3.684228 -0.925406
6.596069 3.828862 -0.869796
6.496168 3.949841 -0.834857
6.772989 3.570678 -0.825883
6.685646 3.699966 -0.810085
6.705257 3.892461 -0.871366
6.630929 4.031216 -0.875568
6.894193 3.638350 -0.842568
6.849643 3.794125 -0.888985
6.814932 3.956319 -0.871393
6.713398 4.078941 -0.836866
7.038416 3.718722 -0.888327
6.965736 3.860407 -0.895849
6.925077 4.020427 -0.869868
6.855104 4.164617 -0.881611
7.138736 3.774848 -0.870630
7.093542 3.933466 -0.916352
7.035680 4.084776 -0.866782
6.954336 4.223007 -0.863159
7.244963 3.834224 -0.859190
7.149041 3.964510 -0.836182
7.169053 4.162969 -0.892395
7.086847 4.302635 -0.888746
7.357258 3.896939 -0.853830
7.323115 4.064381 -0.913923
7.258194 4.214166 -0.855890
7.175691 4.354306 -0.852242
7.516423 3.985539 -0.906749
7.441488 4.131883 -0.913988
7.392861 4.293053 -0.877874
7.315121 4.438217 -0.881651
7.583089 4.023020 -0.838354
7.542990 4.189572 -0.890066
7.545634 4.382895 -0.919975
7.444146 4.515413 -0.894099
7.761707 4.122354 -0.909244
7.662204 4.257514 -0.886871
7.647288 4.441606 -0.893631
7.568146 4.589344 -0.897253
7.888148 4.192843 -0.911463
7.823245 4.349680 -0.933091
7.772536 4.514620 -0.895008
7.663761 4.645179 -0.862194
7.972949 4.240300 -0.861093
7.872247 4.376870 -0.839046
7.898351 4.587934 -0.894517
7.817877 4.738125 -0.897986
8.148817 4.338091 -0.917492
8.076814 4.494196 -0.931538
8.024711 4.661538 -0.892149
7.914052 4.794240 -0.859786
8.227857 4.382330 -0.857029
8.149767 4.535230 -0.863811
8.169684 4.746378 -0.909172
8.093620 4.903154 -0.919567
8.399457 4.477740 -0.901615
8.357022 4.654029 -0.950699
8.303324 4.824299 -0.909863
8.214551 4.974844 -0.906059
8.509833 4.539277 -0.873411
8.436413 4.698749 -0.887036
8.400743 4.880256 -0.866705
8.341928 5.050562 -0.897730
8.664474 4.625282 -0.892245
8.590213 4.786524 -0.905725
8.541423 4.962360 -0.870597
8.445301 5.111072 -0.859870
8.794584 4.697702 -0.881145
8.694617 4.845682 -0.866976
8.664040 5.033499 -0.851779
8.598064 5.202717 -0.875302
8.944350 4.780982 -0.888549
8.862412 4.941488 -0.894925
8.843621 5.139011 -0.892160
8.751676 5.294816 -0.888287
9.114216 4.875369 -0.913868
9.012082 5.026775 -0.899913
8.992715 5.226044 -0.895990
8.937475 5.407106 -0.932362
9.259065 4.955896 -0.909723
9.181777 5.123605 -0.922611
9.129714 5.305729 -0.884170
9.042364 5.468384 -0.886905
9.404491 5.036727 -0.903348
9.320006 5.202209 -0.909466
9.305853 5.408973 -0.909753
9.217335 5.573692 -0.912389
9.550474 5.117847 -0.894735
9.491394 5.299943 -0.926978
9.444067 5.489295 -0.893325
9.348379 5.651322 -0.889364
9.730285 5.217672 -0.916307
9.617582 5.371525 -0.896300
9.628517 5.597423 -0.919933
9.531539 5.761608 -0.915937
9.844022 5.280907 -0.870747
9.757262 5.450874 -0.876600
9.787679 5.690259 -0.917932
9.689693 5.856119 -0.913912
10.065859 5.403957 -0.925235
9.990963 5.584482 -0.943698
9.967434 5.795433 -0.932331
9.874801 5.967445 -0.934595
10.141426 5.897077 -0.937508
10.034451 6.062745 -0.927186
10.289270 5.982947 -0.915110
10.194715 6.158362 -0.917195
10.539279 6.130143 -0.982081
10.415987 6.292040 -0.959600
10.633939 6.183971 -0.905654
10.564291 6.380034 -0.931714
10.886376 6.332467 -0.965391
10.780994 6.510660 -0.961190
11.036659 6.419594 -0.932124
10.937264 6.603493 -0.933812
11.242969 6.540267 -0.943159
11.114600 6.709401 -0.921419
11.422207 6.644650 -0.927636
0.875406 0.329535 7.737622
11.320315 6.832910 -0.929123
11.686690 6.800033 -0.977441
11.596807 7.000364 -0.990174
0.849644 0.313356 7.763956
0.889142 0.333151 7.739869
0.865816 0.323266 7.756355
0.832510 0.299241 7.785115
0.852548 0.314961 7.768979
0.891454 0.334426 7.743981
0.867879 0.324404 7.760026
0.863362 0.317595 7.767062
0.847186 0.311510 7.777625
0.893702 0.335665 7.748139
0.877161 0.330016 7.758564
0.872648 0.323048 7.765542
0.856241 0.316996 7.775808
0.858769 0.314723 7.777477
0.871838 0.326583 7.767489
0.887574 0.336247 7.759481