# This PCD file was generated using the MATLAB® pcwrite function
# from Computer Vision System Toolbox®.
# .PCD v.7 - Point Cloud Data file format
VERSION .7
FIELDS x y z
SIZE 4 4 4
TYPE F F F
COUNT 1 1 1
WIDTH 804
HEIGHT 1
VIEWPOINT 0 0 0 1 0 0 0
POINTS 804
DATA ascii
63.221207 -67.379105 0.438824
63.179268 -68.178719 0.512779
62.525215 -67.452713 0.532017
62.551216 -68.232719 0.521481
61.936424 -67.504951 0.500389
61.944229 -68.283646 0.514187
61.367699 -67.553703 0.451973
61.303848 -68.341698 0.561718
60.753502 -67.612968 0.473881
60.737999 -68.386459 0.521355
60.113098 -67.678886 0.543270
60.097958 -68.446251 0.591938
59.568756 -67.724792 0.491402
59.577309 -68.483742 0.508732
59.003212 -67.776085 0.478184
59.012009 -68.530579 0.496346
58.462399 -67.822624 0.438831
58.403839 -68.586723 0.555958
57.878883 -67.879570 0.471336
57.865913 -68.629646 0.524075
57.232529 -67.951889 0.609932
57.329788 -68.672874 0.498253
56.655846 -68.009323 0.656685
56.665421 -68.743225 0.678349
56.082260 -68.067009 0.710186
56.113441 -68.791435 0.699200
55.574989 -68.109901 0.669453
53.058895 -69.368690 4.727253
52.553078 -68.758987 4.736050
52.599300 -69.405083 4.697960
52.125778 -68.791199 4.660439
52.130875 -69.443939 4.690716
51.643623 -68.837379 4.683315
51.664230 -69.483032 4.688637
51.193527 -68.876320 4.660038
51.199409 -69.522362 4.691692
50.730190 -68.919220 4.667522
50.760971 -69.556412 4.656620
50.268787 -68.962341 4.680088
50.318886 -69.591805 4.634884
49.870934 -68.989655 4.584328
49.878178 -69.627434 4.617855
49.393921 -69.038147 4.641457
49.420208 -69.667656 4.640602
48.974590 -69.072098 4.598263
48.982704 -69.703728 4.633072
48.538143 -69.111183 4.594757
48.546722 -69.740013 4.630169
48.085548 -69.155365 4.631386
48.094547 -69.780830 4.667446
47.652596 -69.194855 4.637218
47.679504 -69.813210 4.638134
47.238373 -69.229698 4.611755
47.248367 -69.850113 4.648945
46.858772 -69.255096 4.518532
46.966087 -69.849754 4.348930
46.615997 -70.519241 4.710548
46.652687 -71.125412 4.691975
46.413208 -69.300049 4.573463
46.407761 -69.920235 4.647915
46.238861 -70.542702 4.624233
46.255157 -71.151680 4.651249
45.970074 -69.345161 4.633167
46.001793 -69.952400 4.626629
45.801384 -70.580261 4.678158
45.814037 -71.186798 4.714764
45.561047 -69.380836 4.624748
45.588943 -69.986900 4.627663
45.393814 -70.611542 4.672691
45.410954 -71.215042 4.700584
45.153263 -69.416718 4.620449
45.165833 -70.024765 4.660351
45.002945 -70.639366 4.634605
45.020584 -71.241165 4.662876
44.746765 -69.452797 4.620266
44.763687 -70.057541 4.651485
41.353065 -71.453102 12.552328
44.605183 -70.669243 4.618767
44.615734 -71.270607 4.665867
44.356445 -69.484322 4.587334
44.370155 -70.088417 4.628185
40.964954 -71.972443 12.780996
43.937782 -69.525528 4.632126
39.782257 -71.320107 15.259504
44.006668 -70.111168 4.534725
39.785065 -71.734650 14.936529
40.533485 -71.547897 13.015621
40.637363 -71.997864 12.811131
39.386726 -70.937500 15.475546
39.480286 -71.347633 15.290022
39.533989 -71.746964 14.828020
40.290009 -72.027962 12.900517
39.153648 -70.944725 15.332706
39.245918 -71.355621 15.146605
39.275002 -71.761307 14.740355
39.958664 -71.584351 12.890572
40.177216 -72.007568 12.367085
38.905380 -70.956886 15.229084
38.965698 -71.377266 15.126589
39.032207 -71.771416 14.608114
39.585068 -71.625565 13.071018
39.132851 -72.192657 14.394239
39.663761 -72.074852 12.921434
38.669376 -70.964630 15.090139
38.712540 -71.390862 15.034243
39.133308 -71.688881 13.490662
38.830956 -72.216362 14.423372
38.428547 -70.973801 14.962502
38.526569 -71.383232 14.746571
39.251617 -71.154427 12.639549
38.638466 -71.766029 14.066730
38.559368 -72.233505 14.370564
38.148582 -70.997101 14.949923
38.418392 -71.349579 14.214619
38.351379 -71.787582 14.053205
38.450687 -72.212517 13.827938
37.964062 -70.984863 14.647045
38.710251 -71.181953 12.423782
38.140896 -71.787514 13.805248
38.073883 -72.254448 14.091988
37.837524 -70.948997 14.146126
37.934372 -71.365875 13.918367
37.719761 -71.848480 14.224575
37.744049 -72.286064 14.227016
36.936016 -71.216263 16.163630
37.581413 -70.961716 14.044298
37.618454 -71.399025 14.006290
37.424618 -71.873840 14.257868
37.437538 -72.312630 14.298691
36.635609 -71.253159 16.279327
37.299187 -71.434227 14.116514
37.197800 -71.878738 14.064501
37.242313 -72.311264 14.000120
36.378819 -71.273079 16.254835
37.045578 -71.446609 14.010006
37.160614 -71.823502 13.192039
37.034424 -72.312485 13.731482
36.124905 -71.292038 16.223129
36.073868 -71.726044 16.494999
36.822681 -71.447380 13.790552
40.279373 -70.746323 0.706387
40.319519 -71.374779 0.697762
36.091209 -71.214684 15.368000
35.886913 -71.719872 16.226048
36.488628 -71.489822 13.976465
36.331169 -71.951881 14.140196
36.361740 -72.383667 14.124050
35.981258 -71.166283 14.751892
35.688396 -71.717041 15.987154
36.136112 -71.541000 14.252634
36.069920 -71.967842 14.071142
36.093224 -72.401711 14.084030
35.674606 -71.205376 14.887871
35.875580 -71.557007 14.184984
35.767769 -71.998146 14.168911
35.850845 -72.412315 13.939859
35.403240 -71.228973 14.891638
35.477692 -71.630310 14.690681
35.504532 -72.015274 14.114475
35.562893 -72.436279 13.982086
35.143639 -71.247192 14.849478
35.167435 -71.669518 14.861582
35.367008 -72.432381 13.628197
38.343945 -71.515343 0.543877
34.879585 -71.267792 14.829039
34.948837 -71.669441 14.637173
34.998154 -72.041962 13.915169
34.948414 -72.498009 14.269676
34.669079 -71.260208 14.558098
34.596828 -71.729698 15.027857
35.513535 -71.748741 10.120552
34.658039 -72.524818 14.359484
35.554043 -70.646812 8.841457
34.378819 -71.729103 14.798044
34.463699 -72.079308 13.841734
34.430450 -72.531036 14.148794
34.318222 -71.198906 13.591042
35.214027 -70.685326 8.944393
34.310661 -71.652748 13.778124
34.159050 -72.114227 14.004417
34.158482 -72.552155 14.155437
34.168575 -71.146759 12.903341
34.887173 -70.717438 8.991909
34.055195 -71.665573 13.677452
33.935886 -72.114212 13.738529
33.958595 -72.547241 13.771864
33.826015 -71.208725 13.254112
33.872513 -71.638702 13.157240
33.698399 -72.119377 13.533192
33.733757 -72.550056 13.497665
33.566448 -71.220528 13.147451
33.566620 -71.677223 13.325418
33.449745 -72.128838 13.378883
33.522354 -72.546265 13.116764
33.310078 -71.229431 13.013493
33.295128 -71.697342 13.299860
33.218571 -72.128540 13.098494
33.252712 -72.564720 13.072533
33.005276 -71.272247 13.196461
33.044117 -71.704880 13.138802
33.037357 -72.099487 12.444864
33.033245 -72.561310 12.685024
32.689041 -71.326469 13.490753
32.794830 -71.710037 12.950184
32.783169 -72.106506 12.246483
32.708290 -72.604111 13.020792
32.488514 -71.291222 12.940004
32.844673 -71.002647 10.198051
32.555550 -71.706589 12.664808
32.450260 -72.159370 12.643602
32.526890 -72.579849 12.290697
32.229721 -71.299103 12.795252
32.508125 -71.058670 10.494473
32.294754 -71.716148 12.519636
32.267899 -72.120232 11.836037
32.222881 -72.613609 12.483101
32.455185 -72.493561 10.540623
32.232555 -71.063194 10.299942
32.479755 -70.834450 8.095516
32.021687 -71.734032 12.465702
32.221027 -71.576126 10.703964
31.872698 -72.218628 12.843269
32.109848 -72.056175 10.682301
32.181881 -72.504196 10.337048
31.888521 -71.133385 10.740940
32.149143 -70.873405 8.217655
32.953499 -70.071037 0.430092
31.906115 -71.617355 10.898304
31.791790 -72.097183 10.917976
31.905359 -72.515251 10.135704
31.594620 -71.157578 10.739704
32.561947 -70.109901 0.498505
31.606279 -71.648018 10.976616
31.485472 -72.132202 11.077217
31.577497 -72.557602 10.453468
31.228836 -71.267532 11.583652
31.364883 -71.621437 10.402584
31.277447 -72.083656 10.096283
31.246233 -72.606178 10.883793
31.359512 -72.526894 9.540894
30.926870 -71.312531 11.796577
31.080843 -71.110435 9.792622
31.013943 -71.706940 11.111546
30.980650 -72.106377 10.081268
30.930260 -72.648552 11.217804
30.650488 -71.325607 11.694630
30.773432 -71.144699 9.887825
30.714787 -71.742935 11.257538
30.585646 -72.236282 11.561798
30.637651 -72.675728 11.295811
30.398451 -71.295532 11.157967
30.491470 -71.139511 9.588444
30.377607 -71.836624 12.082571
30.284258 -72.280304 11.861565
30.376715 -72.673439 10.858139
30.134724 -71.271240 10.672897
30.221554 -71.101555 8.953430
30.081211 -71.886436 12.403503
30.005604 -72.298897 11.805435
30.038481 -72.751595 11.838585
30.132452 -72.644409 9.933914
29.795464 -71.405602 11.800793
29.925785 -71.099693 8.678448
29.838341 -71.842400 11.612133
29.732046 -72.307327 11.602188
29.773813 -72.751534 11.435688
29.524319 -71.396378 11.469822
29.557709 -71.858444 11.529705
29.436974 -72.356712 11.989597
29.485725 -72.780663 11.553917
29.235945 -71.433899 11.618752
29.268204 -71.899437 11.748596
29.156927 -72.380592 12.010643
29.202135 -72.804398 11.574875
28.945198 -71.502869 12.098694
28.976515 -71.309219 10.078194
28.989088 -71.908508 11.581429
28.879213 -72.395187 11.894463
28.916994 -72.835754 11.738098
28.666298 -71.523994 12.083525
28.685883 -71.248405 9.186668
28.708403 -71.905045 11.257195
28.725748 -71.726387 9.054497
28.600201 -72.400795 11.641010
28.634949 -72.865479 11.873875
28.645842 -72.765312 9.976547
28.387085 -71.539673 12.011059
28.381401 -71.267982 9.133862
28.422468 -71.934273 11.334091
28.420311 -71.730698 8.802261
28.318911 -72.440544 11.898865
28.354559 -72.881660 11.752472
28.349640 -72.795303 10.094730
28.073917 -71.269165 8.884590
27.982853 -70.472282 0.382347
28.142607 -72.002495 11.901917
28.111002 -71.739525 8.602528
28.040367 -72.470978 12.019482
28.012508 -72.328812 9.844299
28.071859 -72.897163 11.613548
28.056002 -72.827370 10.255436
27.761145 -71.266258 8.588245
27.600462 -70.497620 0.325478
27.798058 -71.748039 8.395538
27.759647 -72.488518 11.942978
27.713902 -72.351120 9.817905
27.761925 -72.851295 10.258930
27.442078 -71.260300 8.254848
27.218769 -70.528801 0.331676
27.481506 -71.757050 8.191303
27.417549 -72.379402 9.883900
27.361126 -72.260109 8.018566
27.469067 -72.877403 10.304924
27.401382 -72.761139 7.978809
27.124155 -71.272346 8.113380
27.163513 -71.771194 8.049656
27.126205 -72.414085 10.052200
27.046532 -72.284782 8.007835
27.175474 -72.901672 10.313538
27.087540 -72.787079 7.988022
26.805082 -71.287506 8.004570
26.845671 -71.790344 7.970596
26.815393 -72.419418 9.754429
26.730745 -72.308434 7.979912
26.873625 -72.917397 10.145126
26.774733 -72.814178 8.019928
26.488377 -71.310219 7.978149
26.531155 -71.816643 7.983952
26.418896 -72.337257 8.034489
26.460751 -72.840012 8.024639
26.173632 -71.336739 7.994274
26.214931 -71.840874 7.970200
26.102703 -72.361351 8.012085
26.145477 -72.865105 8.012161
25.854053 -71.357269 7.943600
25.900471 -71.867569 7.989067
25.788940 -72.388084 8.032284
25.832035 -72.891815 8.032337
25.538261 -71.383339 7.955330
25.586199 -71.894455 8.010677
25.468801 -72.410263 7.975639
25.515553 -72.916893 8.015427
25.216297 -71.403534 7.900368
25.266005 -71.916420 7.965485
25.151140 -72.435081 7.961609
25.195013 -72.940422 7.961510
24.897087 -71.427475 7.887932
24.942911 -71.937233 7.903294
24.829056 -72.457825 7.910648
24.877279 -72.966011 7.950222
24.577450 -71.451653 7.878319
24.622725 -71.961212 7.883671
24.513441 -72.484871 7.932041
24.563414 -72.993568 7.981476
24.262003 -71.479454 7.911129
24.304237 -71.986862 7.886703
24.195618 -72.510986 7.936371
24.239431 -73.017479 7.926159
23.936996 -71.500732 7.867577
23.983101 -72.011337 7.872749
23.871323 -72.534538 7.893978
23.920439 -73.043793 7.923325
23.616230 -71.525627 7.866463
23.664057 -72.037445 7.881432
23.556732 -72.562775 7.933666
23.602436 -73.070747 7.933228
23.295137 -71.550758 7.868195
23.337879 -72.060356 7.843536
23.236805 -72.589020 7.936562
23.277208 -73.095917 7.896484
22.973743 -71.576126 7.872768
23.022568 -72.088966 7.887516
22.910532 -72.613373 7.902824
22.963020 -73.124527 7.941711
22.652073 -71.601723 7.880207
22.701397 -72.115074 7.894840
22.589706 -72.640114 7.911469
22.642902 -73.151764 7.950222
22.328489 -71.626747 7.880676
22.379974 -72.141411 7.905022
22.266956 -72.666565 7.913124
22.322546 -73.179230 7.961582
21.994009 -71.647278 7.825161
22.044411 -72.162766 7.839455
21.931423 -72.689697 7.848869
21.987898 -73.203957 7.897102
21.670979 -71.673622 7.841320
21.721878 -72.189629 7.855480
21.609188 -72.717194 7.866234
21.642469 -73.227234 7.786621
21.347778 -71.700195 7.860367
21.397261 -72.216072 7.864601
21.242128 -72.733574 7.661148
21.290798 -73.250237 7.659817
20.962231 -71.703239 7.579529
21.022434 -72.227074 7.632164
20.950068 -72.769463 7.841148
21.006979 -73.285805 7.879013
20.667498 -71.741882 7.751125
20.728371 -72.264114 7.803738
20.626831 -72.797676 7.867290
20.676043 -73.313164 7.865902
20.351280 -71.772247 7.818058
20.412941 -72.294403 7.870502
20.294722 -72.824242 7.857346
20.361826 -73.343445 7.933849
20.035675 -71.802773 7.887749
20.080120 -72.320030 7.862221
19.961878 -72.851089 7.850456
20.030069 -73.371307 7.926666
19.683170 -71.821709 7.805111
19.737234 -72.343552 7.818184
19.637794 -72.880028 7.885456
19.697603 -73.399452 7.922543
19.360218 -71.850487 7.851616
19.412340 -72.372116 7.854862
19.303904 -72.907410 7.884628
19.364460 -73.427879 7.921490
19.012299 -71.872292 7.804482
19.077442 -72.398582 7.855801
18.979502 -72.936806 7.925545
19.030661 -73.456581 7.923519
18.686296 -71.900841 7.847340
18.741905 -72.425323 7.859840
18.634197 -72.962997 7.892242
18.685810 -73.484413 7.890038
18.338898 -71.923996 7.816273
18.405766 -72.452347 7.866985
18.298441 -72.991211 7.900707
18.361225 -73.514816 7.936859
18.023449 -71.955795 7.903526
18.069046 -72.479645 7.877254
17.973267 -73.021332 7.950676
18.025642 -73.544350 7.948196
17.666042 -71.977478 7.850124
17.720423 -72.505035 7.852356
17.625263 -73.048454 7.927013
17.678091 -73.573105 7.924343
17.315750 -72.001587 7.828819
17.370613 -72.530769 7.830807
17.276085 -73.075905 7.906685
17.329369 -73.602196 7.903824
16.976370 -72.028694 7.848919
17.034676 -72.559479 7.860226
16.937912 -73.105240 7.927795
17.003695 -73.633591 7.962887
16.621037 -72.052788 7.824764
16.692270 -72.587402 7.873764
16.586819 -73.133339 7.914101
16.687557 -73.665894 8.053413
16.283537 -72.081123 7.860802
16.352440 -72.616119 7.900002
16.337082 -73.173523 8.206730
16.391293 -73.699715 8.203571
16.017616 -72.123802 8.107460
16.077278 -72.655144 8.118282
15.973364 -73.200584 8.161190
16.028069 -73.728958 8.157791
15.704910 -72.156868 8.214981
15.765004 -72.688164 8.225658
15.621430 -73.229439 8.156918
15.676584 -73.759453 8.153313
15.310898 -72.175102 8.100273
15.371676 -72.709686 8.110508
15.268511 -73.258629 8.156071
15.324113 -73.790276 8.152264
14.970114 -72.203712 8.139221
15.017408 -72.737450 8.111774
14.900524 -73.286819 8.121269
14.956621 -73.820656 8.117207
14.600321 -72.227730 8.106869
14.647884 -72.763680 8.079197
14.545408 -73.316704 8.127449
14.616343 -73.852905 8.160488
14.210621 -72.249168 8.031830
14.287796 -72.791679 8.078220
14.159882 -73.344391 8.062798
14.246397 -73.884010 8.132614
13.856127 -72.276962 8.053368
13.919196 -72.819130 8.062283
13.798613 -73.374687 8.066956
13.874951 -73.915512 8.108490
13.481802 -72.302177 8.032261
13.556928 -72.847832 8.068504
13.444071 -73.405922 8.093140
13.502046 -73.947403 8.088131
13.117781 -72.329491 8.042507
13.185896 -72.876015 8.059929
12.990615 -73.430260 7.893036
13.065001 -73.977303 7.924400
12.668983 -72.345360 7.864204
12.733967 -72.896126 7.871838
12.612817 -73.460930 7.881245
12.688012 -74.010124 7.912205
12.289268 -72.371887 7.855076
9.002481 -71.926254 0.498222
12.367023 -72.926064 7.889729
12.254133 -73.493340 7.918915
12.309681 -74.043335 7.903862
11.895784 -72.397171 7.822590
8.387234 -71.938141 0.149139
11.953678 -72.951889 7.811256
11.836557 -73.522392 7.832916
11.896784 -74.075958 7.826645
11.513241 -72.424507 7.821350
8.191826 -72.005127 0.721012
11.571554 -72.981407 7.809711
11.471537 -73.555275 7.869110
11.532206 -74.110474 7.862598
7.470484 -72.006317 0.175957
11.205391 -73.012863 7.848171
11.053991 -73.585556 7.800789
11.149769 -74.144882 7.866104
7.001461 -72.040039 0.178425
10.803633 -73.041618 7.818409
10.686882 -73.619171 7.844711
10.766151 -74.179680 7.873547
7.937746 -72.233971 2.999622
10.422367 -73.072662 7.837646
10.301319 -73.652206 7.856556
10.363503 -74.214516 7.849186
7.617455 -72.279724 3.248669
10.017473 -73.102280 7.816257
7.614765 -72.911873 3.096008
9.878172 -73.683884 7.801224
9.959129 -74.249809 7.829121
7.226049 -72.317612 3.358517
9.610880 -73.132355 7.799191
7.157970 -72.946075 3.082096
9.471277 -73.716927 7.785965
9.553080 -74.285553 7.813389
6.835018 -72.355743 3.472111
9.207323 -73.163216 7.795303
6.722839 -72.982483 3.117195
9.081612 -73.751205 7.810333
9.164207 -74.321983 7.837307
6.391882 -72.388947 3.492928
8.816603 -73.195511 7.822067
6.248638 -73.016640 3.086491
8.595146 -73.782089 7.663261
8.621424 -74.357201 7.584198
5.976618 -72.425346 3.570793
5.815866 -73.054260 3.139668
8.182583 -73.816589 7.661674
8.364151 -74.395805 7.862362
5.570938 -72.462990 3.670212
5.406967 -73.093826 3.240803
7.847618 -73.854256 7.803604
7.932720 -74.433144 7.829079
5.155323 -72.500031 3.756351
4.973194 -73.132164 3.302685
7.433323 -73.889496 7.810249
4.678228 -73.801201 3.062439
7.519258 -74.471092 7.835224
4.719212 -72.535660 3.812263
4.538797 -73.170883 3.369045
7.022722 -73.925331 7.830006
4.251953 -73.842865 3.149231
7.129797 -74.509544 7.888927
4.292656 -72.572533 3.889847
4.103823 -73.209976 3.439907
6.585073 -73.960876 7.811390
3.768587 -73.883308 3.146214
6.667545 -74.548294 7.826740
3.343067 -72.568237 3.120289
3.402288 -73.235344 3.080391
1.448673 -73.877731 0.168327
6.254944 -74.587593 7.855125
6.782852 -72.903496 9.402843
2.744049 -72.594154 2.948639
0.936659 -72.455727 0.060341
1.079237 -73.180527 0.143040
0.919928 -73.922134 0.166618
5.766977 -74.627525 7.769302
6.621950 -72.951820 9.810001
0.415211 -72.493683 0.080204
7.124363 -73.537621 10.487411
0.553862 -73.221687 0.153431
0.410717 -73.967590 0.204525
6.872829 -74.660889 10.193398
6.281324 -72.986557 9.932529
7.051018 -73.584602 11.008549
7.279383 -74.155594 11.563778
-0.138098 -74.012833 0.189381
6.580191 -74.698288 10.381939
7.420479 -73.122795 12.290876
6.522333 -73.610786 10.827721
-0.568455 -73.302856 0.091667
7.131121 -74.194069 11.948269
-0.694778 -74.058624 0.172165
6.338921 -74.735359 10.648071
7.413443 -73.176079 12.871061
7.172291 -73.686592 12.411940
6.117317 -73.643143 10.844379
-1.100023 -73.345848 0.120270
6.948711 -74.231544 12.274940
-1.259470 -74.104996 0.153084
7.185961 -74.762146 12.523855
6.123020 -74.772095 10.949032
6.740931 -73.185745 12.469196
7.260099 -73.736366 13.124830
6.957767 -74.271294 12.873999
6.179831 -74.260735 11.746346
6.913589 -74.797714 12.709663
6.174595 -73.203789 12.240370
6.860605 -73.766609 13.120743
6.647882 -74.306290 13.004162
3.433859 -74.268440 8.430679
6.826458 -74.831047 13.159937
7.205215 -73.316833 14.264156
6.113638 -73.252800 12.734859
6.592787 -73.801964 13.308661
6.268818 -74.340752 13.039810
7.314713 -74.855934 14.407089
6.535639 -73.327980 13.882837
6.971979 -73.858528 14.389465
7.119932 -74.385841 14.768579
6.053707 -74.376984 13.305984
7.235090 -74.887405 14.834452
6.589354 -73.380066 14.498993
7.083315 -73.904274 15.075214
6.848913 -74.419762 14.930529
6.893614 -74.922813 14.899265
3.639883 -74.977112 10.502541
6.694252 -73.433372 15.167828
6.736425 -73.935341 15.133331
6.784149 -74.454788 15.366228
6.816483 -74.953751 15.319225
5.585882 -73.424675 14.238871
4.758211 -73.383469 13.160511
6.662378 -73.974129 15.552649
6.676533 -74.489098 15.737471
6.404154 -74.990776 15.294067
5.302977 -73.458885 14.406061
6.446520 -74.008675 15.781780
5.303625 -73.979881 14.314617
5.876799 -74.521713 15.218952
4.889978 -74.519905 13.959520
5.811296 -75.032043 15.045424
5.992044 -73.537521 15.796286
5.760841 -74.032112 15.417107
6.045494 -74.556351 15.939634
5.243637 -75.073692 14.844107
5.451662 -73.558640 15.626348
6.153791 -74.080421 16.408260
5.752239 -74.590309 16.072960
4.466372 -74.591850 14.489248
4.897305 -75.111061 14.930315
5.485254 -73.604805 16.165667
5.756018 -74.110756 16.409260
5.172972 -74.625198 15.862411
5.002165 -75.137672 15.568283
5.263073 -73.639664 16.388260
5.189831 -74.138535 16.215683
4.981049 -74.659492 16.126686
5.360439 -75.156952 16.493359
5.094984 -73.676453 16.673454
3.147623 -73.602531 14.392597
4.657505 -74.167938 16.075581
4.857004 -74.693283 16.468153
4.804779 -75.199455 16.322470
4.425228 -73.694801 16.378428
3.448227 -73.659492 15.254009
4.356733 -74.201736 16.214756
4.605759 -74.727654 16.658890
4.572289 -75.233688 16.536644
4.205585 -73.730103 16.609766
3.218842 -73.696198 15.493843
4.169033 -74.237221 16.484589
3.128799 -74.772202 15.467667
4.652960 -75.258804 17.104887
3.018517 -73.733727 15.765240
1.955235 -73.699051 14.583574
2.087830 -74.250046 14.641649
-4.302477 -74.174164 7.518230
2.922316 -74.807892 15.733116
-0.219284 -74.838028 12.250942
4.093124 -75.302719 16.948606
2.571213 -73.763405 15.765152
2.703386 -74.296364 15.823963
3.286613 -74.837280 16.618786
3.920355 -75.335236 17.227829
3.014862 -73.819748 16.728992
2.650074 -74.334152 16.253355
0.220455 -74.312599 13.637753
3.302530 -74.869377 17.108688
3.457615 -75.377121 17.193443
2.190264 -75.418396 15.832666
2.338280 -73.842865 16.485806
2.705322 -74.372169 16.790571
3.090816 -74.903915 17.349831
2.050533 -74.917900 16.255432
2.284168 -75.443474 16.417713
1.961042 -73.875122 16.568964
2.164885 -74.405762 16.697687
2.137564 -74.949310 16.823574
2.191923 -75.474365 16.797499
1.492264 -73.905533 16.563858
0.133503 -73.872391 15.179560
1.641926 -74.440277 16.633619
1.425861 -74.992645 16.568520
1.467178 -75.527618 16.527466
-0.528204 -75.598953 14.493782
1.360592 -73.944298 16.904432
1.306429 -74.476166 16.767939
1.160641 -75.029510 16.776043
0.757036 -75.581413 16.289272
1.304090 -73.984291 17.315374
0.213680 -73.961044 16.242357
0.892988 -74.512154 16.828775
0.868467 -75.066963 16.958117
0.617830 -75.614647 16.629463
0.203320 -74.002983 16.710394
0.808775 -74.548775 17.215061
0.433489 -75.107338 17.004408
0.719526 -75.638405 17.199369
0.184475 -74.044037 17.162754
0.019886 -74.585533 16.924553
0.229492 -75.143456 17.276382
0.387104 -75.678825 17.345278
-0.208607 -74.078072 17.258463
-0.090094 -74.622307 17.288469
-0.227938 -75.185020 17.311344
0.442230 -75.703728 17.856680
-0.808374 -74.109299 17.169666
-0.666700 -74.660301 17.218767
-0.885954 -75.231674 17.169981
-2.419876 -75.266640 15.765612
0.607168 -75.723564 18.459763
-1.107382 -74.145729 17.363918
-1.194710 -74.698914 17.204075
-1.459322 -75.277267 17.118349
-3.100338 -75.907784 15.555819
-5.580469 -74.129059 13.859934
-5.297152 -74.758987 14.020327
-3.511354 -75.360512 15.770056
-0.862654 -75.839630 18.033195
-3.569616 -75.957520 15.632603
-6.218168 -74.167480 13.827593
-5.021425 -74.797676 14.781532
-6.158487 -74.805641 13.787992
-3.709494 -75.399406 16.088305
-0.762236 -75.862030 18.571712
-1.877392 -75.911613 17.599928
-4.062498 -76.008781 15.695755
-6.600649 -74.209412 14.025183
-4.765398 -74.835236 15.509636
-4.360735 -75.450493 16.018415
-2.127424 -75.950401 17.845472
-20.420649 -74.133461 2.924522
-5.095446 -74.877068 15.728134
-7.969267 -74.903969 13.303675
-2.541414 -75.433083 18.033062
-5.544077 -75.517380 15.514469
-2.031334 -75.973289 18.382931
-20.675436 -74.194008 3.432568
-5.493456 -74.919800 15.892822
-8.357389 -74.949898 13.518927
-20.382833 -75.076279 3.551128
-5.797251 -75.559143 15.804768
-2.059193 -76.001511 18.808500
-20.676634 -74.255798 4.143665
-5.898848 -74.962936 16.056009
-20.452662 -75.132370 4.203983
-19.949926 -74.320282 5.425404
-19.718393 -75.177544 5.492195
-20.590128 -74.376862 5.606064
-20.364965 -75.239456 5.664818
-21.238699 -74.434067 5.788883
-21.012098 -75.302032 5.845825
-21.075472 -76.197441 6.021648
-21.823912 -74.492020 6.028358
-21.556124 -75.363602 6.113777
-21.745523 -76.267136 6.195164
-22.537119 -74.550438 6.179798
-22.267580 -75.428452 6.262951
-23.251421 -74.609650 6.340816
-22.939791 -75.493362 6.451202
-23.869116 -74.669441 6.581280
-23.620611 -75.559128 6.642513
-24.568293 -74.730049 6.772190
-24.301905 -75.625587 6.842884
-25.202169 -74.791107 7.017906
-25.016462 -75.693443 7.029583
-25.673788 -75.760788 7.265289
-26.355932 -75.829330 7.493050
-34.763237 -78.453690 6.612244
28.247839 -74.576256 43.920300
28.210474 -74.579025 43.905636
28.199076 -74.576225 43.905701
28.181515 -74.581329 43.896645
28.216049 -74.575516 43.916515
28.207388 -74.579735 43.911953
28.233189 -74.574768 43.927021
28.224464 -74.578720 43.922558
28.232325 -74.574974 43.928917
28.250776 -74.577034 43.937016
28.195000 -74.577202 43.914532
28.213573 -74.579796 43.922432
28.194029 -74.577446 43.916759
28.203533 -74.580673 43.920498
28.202267 -74.577164 43.922909
28.220964 -74.579590 43.930500
28.210926 -74.580475 43.928665