# This PCD file was generated using the MATLAB® pcwrite function
# from Computer Vision System Toolbox®.
# .PCD v.7 - Point Cloud Data file format
VERSION .7
FIELDS x y z
SIZE 4 4 4
TYPE F F F
COUNT 1 1 1
WIDTH 910
HEIGHT 1
VIEWPOINT 0 0 0 1 0 0 0
POINTS 910
DATA ascii
8.423943 30.975451 -0.611423
9.046603 30.975533 -0.683743
8.347195 30.274408 -0.463516
8.968225 30.331699 -0.592306
8.312657 29.988142 -0.714031
8.909156 29.846973 -0.646830
8.237381 29.300695 -0.556992
8.849394 29.356709 -0.688076
8.128984 28.285139 -0.046404
8.783081 28.812679 -0.665735
8.074751 27.803617 -0.069424
8.647057 27.694845 -0.029289
8.057145 27.685209 -0.472359
8.592760 27.250004 -0.082245
8.010391 27.278349 -0.567041
8.567233 27.042229 -0.386744
7.975102 26.985750 -0.782761
8.541302 26.831318 -0.689873
7.919022 26.486174 -0.764372
8.470034 26.247179 -0.573736
7.865190 26.008728 -0.762131
8.418320 25.824244 -0.630171
7.821964 25.637331 -0.875082
8.344704 25.221004 -0.469357
7.758263 25.060299 -0.739613
8.290343 24.776514 -0.483503
7.705186 24.589453 -0.719414
8.255434 24.492437 -0.684414
7.667336 24.272038 -0.879168
8.210414 24.125200 -0.781965
7.617681 23.835451 -0.887503
8.165406 23.758211 -0.875406
7.571866 23.437605 -0.937660
8.114454 23.342358 -0.901913
7.529151 23.071238 -1.022726
8.057766 22.879324 -0.860210
7.475260 22.590796 -0.952477
7.999194 22.400848 -0.788855
7.428121 22.178904 -0.964314
7.930904 21.842295 -0.599266
7.367418 21.627357 -0.777739
7.878160 21.412060 -0.571606
7.320852 21.220373 -0.778648
7.826377 20.989845 -0.546850
7.226728 20.321066 -0.072443
7.784555 20.649956 -0.631355
7.186229 19.974699 -0.133451
7.708488 20.027424 -0.301346
7.167826 19.858576 -0.529579
7.625878 19.350828 0.128176
7.089532 19.117764 0.005323
7.593762 19.091318 -0.048128
7.058832 18.873594 -0.193457
7.121730 19.534029 -1.205374
7.599633 19.145906 -0.707247
8.097306 18.985909 -0.851151
8.606329 18.917389 -0.842793
7.063636 19.004486 -0.978954
7.571788 18.922123 -0.949009
8.055483 18.659449 -0.931995
8.552850 18.532927 -0.830879
7.010723 18.528242 -0.821766
7.520542 18.505020 -0.884666
8.000495 18.244001 -0.865280
8.501396 18.160643 -0.831512
6.975564 18.239613 -0.956221
7.476551 18.147995 -0.908915
7.955005 17.893225 -0.895948
8.446497 17.769241 -0.793848
6.932548 17.867479 -0.951166
7.430811 17.776587 -0.903599
7.912640 17.563763 -0.957090
8.406157 17.461168 -0.888767
6.885914 17.456165 -0.873196
7.385860 17.411800 -0.902714
7.861344 17.174440 -0.911398
8.363119 17.137880 -0.954771
6.843796 17.092779 -0.868118
7.340470 17.043451 -0.889143
7.816947 16.831831 -0.939169
8.319224 16.809931 -1.008785
6.806861 16.785231 -0.954521
7.301807 16.730911 -0.966970
7.774832 16.504732 -0.989388
8.268438 16.443621 -0.989782
6.773020 16.511614 -1.098948
7.266641 16.447483 -1.094019
7.732762 16.178120 -1.036213
8.221277 16.098104 -1.001671
6.728970 16.126659 -1.039276
7.221570 16.082045 -1.069384
7.690743 15.852026 -1.079662
8.170852 15.734919 -0.974705
6.692466 15.824203 -1.124977
7.178966 15.737146 -1.075939
7.643181 15.489353 -1.049107
8.123985 15.392000 -0.979023
6.652163 15.479816 -1.128082
7.138165 15.407295 -1.105362
7.598591 15.146755 -1.050030
8.080569 15.068471 -1.015144
6.606688 15.077351 -1.011950
7.096351 15.069113 -1.113579
7.551418 14.787440 -1.011660
8.030664 14.709809 -0.976669
6.568784 14.758855 -1.051870
7.047135 14.669491 -0.993196
7.503797 14.425611 -0.960388
7.974505 14.317904 -0.862677
6.532098 14.454098 -1.115465
7.007818 14.352188 -1.029631
7.457746 14.074536 -0.923103
7.918730 13.929178 -0.744154
6.492373 14.114799 -1.104021
6.963377 13.992324 -0.972771
7.416470 13.755069 -0.945190
7.885465 13.662306 -0.873810
6.449848 13.742860 -1.016642
6.926305 13.693878 -1.038599
7.377842 13.453072 -1.000275
7.848927 13.377688 -0.964870
6.406201 13.356890 -0.888790
6.886229 13.370495 -1.047047
7.334167 13.118454 -0.979609
7.803073 13.043655 -0.944111
6.374159 13.105227 -1.048296
6.844793 13.035847 -1.024826
7.291281 12.789312 -0.964563
7.623510 12.006930 0.687603
7.761190 12.731081 -0.965504
6.332367 12.739487 -0.949446
6.803529 12.702672 -0.999098
7.134647 11.728679 0.759663
7.250386 12.473324 -0.973604
7.570730 11.642735 0.831570
6.297185 12.451280 -1.021112
6.760564 12.355333 -0.933126
7.090909 11.397736 0.833960
7.567268 11.535602 0.372326
6.261003 12.151299 -1.062408
6.641215 11.369224 0.676771
6.727955 12.094613 -1.066324
7.069362 11.208926 0.570009
7.563650 11.425226 -0.096487
6.164327 11.115513 0.703913
6.218948 11.779891 -0.924959
6.603587 11.065951 0.690958
7.071811 11.171891 -0.082256
7.533172 11.175117 -0.231905
6.129553 10.824415 0.693361
6.584527 10.918324 0.318102
7.043756 10.939850 -0.261574
7.489001 10.855173 -0.188486
6.101243 10.613552 0.480658
6.572052 10.826290 -0.212818
7.015416 10.705621 -0.439091
7.453437 10.579164 -0.253748
6.089658 10.615414 -0.300955
6.546800 10.627487 -0.482489
6.950349 10.240973 0.003410
7.415760 10.292602 -0.288363
6.054605 10.324967 -0.324877
6.505128 10.290926 -0.385031
6.929701 10.055048 -0.300013
7.376746 9.999606 -0.301449
6.017520 10.008011 -0.270721
6.469343 10.003885 -0.415764
6.892535 9.765847 -0.319653
7.335788 9.697412 -0.283421
5.978650 9.666530 -0.137794
6.428151 9.671352 -0.311586
6.855419 9.477140 -0.336514
7.284403 9.345238 -0.111143
5.944946 9.392323 -0.190569
6.390678 9.370166 -0.289124
6.806087 9.113796 -0.123013
7.251674 9.084046 -0.200443
5.912361 9.133628 -0.288298
6.355917 9.091931 -0.330166
6.773336 8.852531 -0.209782
7.216280 8.809967 -0.249411
5.878555 8.858799 -0.336159
6.313293 8.747197 -0.159082
6.738520 8.578659 -0.256104
7.177719 8.521062 -0.248186
5.841187 8.533575 -0.219154
6.283613 8.512145 -0.328093
6.701762 8.293192 -0.261660
7.138005 8.227191 -0.225063
5.808510 8.274420 -0.309416
6.247924 8.226267 -0.332460
6.662724 7.994344 -0.216560
7.097204 7.928878 -0.179907
5.774776 8.000440 -0.349415
6.210674 7.927140 -0.286114
6.624778 7.702416 -0.187740
7.057176 7.634751 -0.141418
5.738729 7.691211 -0.261803
6.174231 7.634899 -0.256077
6.589663 7.427477 -0.213911
7.022004 7.362904 -0.177126
5.705277 7.420963 -0.306139
6.138536 7.349069 -0.242510
6.553246 7.145088 -0.208569
6.984518 7.080960 -0.171721
5.671019 7.137872 -0.299681
6.103531 7.069175 -0.245571
6.517338 6.865894 -0.210249
6.949378 6.809544 -0.202370
5.636841 6.855519 -0.290562
6.068302 6.787411 -0.236320
6.481074 6.584901 -0.199614
6.909790 6.519283 -0.152945
5.602613 6.571553 -0.269077
6.034252 6.515848 -0.263285
6.444898 6.304685 -0.186342
6.872554 6.239599 -0.139601
5.568121 6.281666 -0.215715
5.997838 6.223925 -0.200163
6.408810 6.025271 -0.170448
6.837547 5.969506 -0.162596
5.534261 6.002097 -0.198586
5.961874 5.935848 -0.143978
6.372430 5.744551 -0.142178
6.798355 5.682660 -0.105057
5.501010 5.733981 -0.227703
5.929233 5.676664 -0.212086
6.336542 5.466895 -0.121054
6.761397 5.405453 -0.083887
5.467195 5.453646 -0.195671
5.894185 5.396603 -0.180016
6.303667 5.205805 -0.175737
6.728560 5.144668 -0.138506
5.434319 5.193903 -0.259089
5.861464 5.136961 -0.243410
6.269661 4.938623 -0.198675
6.695655 4.883421 -0.190828
5.400714 4.916718 -0.231825
5.826765 4.860032 -0.216112
6.233940 4.662551 -0.170052
6.658832 4.607544 -0.162216
5.367397 4.645812 -0.231514
5.792769 4.589332 -0.215776
6.199322 4.392540 -0.168419
6.622117 4.332609 -0.131052
5.334173 4.377046 -0.238605
5.759195 4.322435 -0.232695
6.166357 4.131086 -0.213650
6.587351 4.065049 -0.136787
5.300976 4.108571 -0.243271
5.725270 4.052467 -0.227480
6.130849 3.856968 -0.177563
6.554859 3.805382 -0.189486
5.267666 3.832770 -0.196110
5.691062 3.779963 -0.200056
6.097855 3.595458 -0.218082
6.520097 3.538023 -0.190472
5.234617 3.568255 -0.215679
5.657418 3.512582 -0.199835
6.061629 3.318602 -0.147373
6.483658 3.265625 -0.149456
5.201540 3.299685 -0.203175
5.624388 3.250914 -0.236853
6.028650 3.057376 -0.183155
6.450675 3.004364 -0.185246
5.168499 3.038016 -0.237846
5.590772 2.983924 -0.231882
5.993217 2.785119 -0.127314
6.414397 2.733407 -0.139353
5.135411 2.776057 -0.270216
5.557072 2.716164 -0.214594
5.960241 2.524090 -0.158405
6.381011 2.471169 -0.160526
5.102357 2.510535 -0.270464
5.524110 2.455483 -0.254545
5.927468 2.263824 -0.197144
6.348372 2.210850 -0.199265
5.069399 2.243254 -0.248447
5.490983 2.193386 -0.282261
5.894397 2.002214 -0.223646
6.313804 1.945538 -0.185965
5.036463 1.977533 -0.233999
5.457454 1.927425 -0.267838
5.861288 1.740385 -0.247845
6.280734 1.684019 -0.210138
5.003284 1.716494 -0.267008
5.423656 1.658655 -0.211184
5.826440 1.472263 -0.189991
6.246223 1.419324 -0.192142
4.970466 1.450571 -0.237898
5.390549 1.396968 -0.231894
5.793148 1.210073 -0.199554
6.214489 1.160407 -0.251574
4.937323 1.188681 -0.256306
5.357642 1.137713 -0.290215
5.760038 0.948487 -0.216785
6.179673 0.895495 -0.218946
4.904425 0.924899 -0.242464
5.324194 0.872546 -0.256416
5.727079 0.687265 -0.241703
6.146849 0.634221 -0.243862
4.871258 0.662992 -0.256248
5.290902 0.609070 -0.240246
5.693228 0.423672 -0.214375
6.111209 0.369068 -0.176598
4.838067 0.400977 -0.267731
5.257802 0.348349 -0.281694
5.660074 0.161991 -0.224689
6.079280 0.108947 -0.226860
4.804481 0.139839 -0.306889
5.224572 0.086108 -0.290878
5.626900 -0.099767 -0.232702
6.046102 -0.152847 -0.234873
4.771215 -0.122592 -0.313766
5.191322 -0.176201 -0.297752
5.594252 -0.360956 -0.278400
6.011806 -0.415255 -0.200602
4.738373 -0.385517 -0.288342
5.158056 -0.438559 -0.302319
5.560500 -0.623438 -0.241816
5.976528 -0.677220 -0.124033
4.705896 -0.648075 -0.240604
5.124851 -0.701122 -0.264578
5.526480 -0.885196 -0.172922
5.943435 -0.938089 -0.125132
4.671330 -0.910095 -0.320543
5.091632 -0.963128 -0.254528
5.492809 -1.145946 -0.121729
5.910331 -1.198957 -0.123932
4.638910 -1.172043 -0.268196
5.058508 -1.224691 -0.222176
5.459702 -1.406757 -0.118238
5.877220 -1.459803 -0.120441
4.606974 -1.432700 -0.193562
5.025444 -1.485703 -0.187531
5.426590 -1.667526 -0.112453
5.844103 -1.720608 -0.114656
4.573577 -1.694366 -0.196608
4.992253 -1.747050 -0.180582
5.393475 -1.928233 -0.104374
5.810983 -1.981352 -0.106577
4.542067 -1.952798 -0.107430
4.959651 -2.005219 -0.091396
5.360360 -2.188860 -0.094002
5.777864 -2.242014 -0.096203
4.507162 -2.217069 -0.175806
4.925615 -2.270933 -0.189754
5.327247 -2.449385 -0.081339
5.741010 -2.491514 0.116121
4.474896 -2.476090 -0.122028
4.892777 -2.530020 -0.135963
5.294138 -2.709790 -0.066381
5.711633 -2.763015 -0.068581
4.440026 -2.741217 -0.175743
4.859499 -2.791523 -0.129812
5.261143 -2.972888 -0.089035
5.675231 -3.008799 0.148113
4.406805 -3.002389 -0.157284
4.826679 -3.050112 -0.081461
5.228391 -3.253204 -0.318684
5.631741 -3.211176 0.855156
4.373327 -3.264192 -0.146492
4.792778 -3.315394 -0.120548
5.195129 -3.542938 -0.605448
5.610492 -3.531734 0.119492
4.340119 -3.525087 -0.123432
4.752893 -3.619594 -0.575485
5.161460 -3.800096 -0.501236
5.585611 -3.850430 -0.463486
4.293340 -3.831592 -0.565643
4.717997 -3.892149 -0.629345
5.127843 -4.064078 -0.474388
5.552518 -4.118384 -0.476439
4.257251 -4.104579 -0.617079
4.685368 -4.149665 -0.531626
5.094018 -4.336931 -0.524702
5.519357 -4.386784 -0.486994
4.225674 -4.361484 -0.517096
4.651878 -4.412711 -0.491299
5.060357 -4.601092 -0.493132
5.485735 -4.650636 -0.455463
4.189767 -4.634170 -0.553791
4.616784 -4.686566 -0.537949
5.026721 -4.864969 -0.459242
5.452491 -4.919518 -0.461256
4.154400 -4.905126 -0.568190
4.582124 -4.957490 -0.552370
4.992623 -5.139717 -0.502241
5.419496 -5.194438 -0.504232
4.122046 -5.163983 -0.491089
4.549232 -5.216157 -0.475283
4.958669 -5.409581 -0.503172
5.385827 -5.458405 -0.465599
4.084137 -5.445659 -0.569878
4.513000 -5.497928 -0.554106
4.924661 -5.679782 -0.501671
5.352413 -5.728368 -0.464138
4.049291 -5.714852 -0.557203
4.478584 -5.767055 -0.541454
4.890602 -5.950301 -0.497740
5.319124 -6.005332 -0.499683
4.015547 -5.979197 -0.512556
4.444855 -6.031281 -0.496828
4.856493 -6.221116 -0.491369
5.285432 -6.269225 -0.453918
3.978742 -6.257112 -0.544296
4.409173 -6.309220 -0.528599
4.821876 -6.499500 -0.521879
5.252053 -6.554805 -0.523783
3.941806 -6.535971 -0.573463
4.374400 -6.580708 -0.518499
4.788142 -6.763545 -0.471292
5.218362 -6.826589 -0.512438
3.908015 -6.800421 -0.521589
4.339585 -6.852436 -0.505947
4.752804 -7.051068 -0.535959
5.184634 -7.106645 -0.537819
3.870492 -7.082418 -0.555490
4.303322 -7.134476 -0.539885
4.718441 -7.323524 -0.519642
5.150862 -7.370821 -0.482372
3.833686 -7.361288 -0.567202
4.267500 -7.413354 -0.551630
4.684204 -7.594004 -0.491091
5.116975 -7.651950 -0.502676
3.795898 -7.645178 -0.595833
4.230974 -7.697289 -0.580297
4.648935 -7.877965 -0.518560
5.083096 -7.924857 -0.481396
3.760234 -7.918791 -0.573126
4.195879 -7.970857 -0.557621
4.613710 -8.160577 -0.533630
5.048849 -8.216699 -0.535397
3.726395 -8.183179 -0.509079
4.162055 -8.235127 -0.493607
4.579139 -8.434316 -0.507240
5.014828 -8.490539 -0.508987
3.687404 -8.473647 -0.549309
4.124601 -8.525679 -0.533876
4.543736 -8.718149 -0.517075
4.980783 -8.764473 -0.480085
3.651148 -8.750336 -0.528727
4.089053 -8.802341 -0.513329
4.509077 -8.992392 -0.485605
4.946420 -9.048883 -0.487309
3.611384 -9.045381 -0.573120
4.050965 -9.097486 -0.557770
4.472611 -9.288020 -0.528717
4.911953 -9.334012 -0.491850
3.575482 -9.320411 -0.537651
4.015631 -9.372475 -0.522337
4.438069 -9.560256 -0.482437
4.877387 -9.619835 -0.493692
3.538016 -9.603725 -0.528461
3.979149 -9.655801 -0.513191
4.402066 -9.849329 -0.491217
4.843148 -9.894923 -0.454491
3.499421 -9.893207 -0.535753
3.941814 -9.945331 -0.520529
4.366203 -10.136294 -0.487659
4.807964 -10.193460 -0.489244
3.459636 -10.189328 -0.559364
3.903567 -10.241538 -0.544188
4.329184 -10.435875 -0.519518
4.773114 -10.481211 -0.482929
3.418601 -10.492558 -0.599123
3.864346 -10.544889 -0.583998
4.291992 -10.736708 -0.548424
4.738177 -10.769554 -0.473875
3.380170 -10.781754 -0.588383
3.828721 -10.821698 -0.535320
4.258081 -11.000799 -0.460567
4.703156 -11.058464 -0.462067
3.341657 -11.071502 -0.574879
3.790078 -11.120711 -0.550379
4.220980 -11.299822 -0.474386
4.667415 -11.360966 -0.485300
3.303065 -11.361773 -0.558592
3.752175 -11.414205 -0.543612
4.183120 -11.606504 -0.504110
4.632192 -11.651258 -0.467834
3.267349 -11.635882 -0.492470
3.716438 -11.691607 -0.486944
4.145400 -11.911080 -0.521358
4.643801 -11.051344 1.994637
4.596353 -11.952317 -0.475767
3.242486 -11.848206 -0.255007
3.677009 -11.996288 -0.502768
4.194493 -11.295396 1.936909
4.108183 -12.209788 -0.516832
4.618207 -11.191722 2.356256
4.559426 -12.271859 -0.527534
3.238827 -11.938428 0.301737
3.636007 -12.312604 -0.543594
4.175867 -11.405821 2.374987
4.071198 -12.505682 -0.500034
4.524679 -12.550076 -0.464012
3.287285 -11.726678 1.621799
3.141746 -12.563343 -0.558659
3.734538 -11.591874 2.112135
3.595761 -12.623283 -0.562532
4.034126 -12.802143 -0.480352
4.550055 -11.786200 2.243393
3.303149 -11.697700 2.415714
3.101438 -12.863963 -0.546591
3.558312 -12.913116 -0.522593
4.097209 -12.061645 2.119427
4.518064 -12.044839 2.293602
3.230689 -12.178905 1.911383
3.061671 -13.161531 -0.522295
3.659489 -12.170657 2.065166
4.067667 -12.287333 2.255812
4.487230 -12.284287 2.392424
3.201389 -12.410154 2.040453
3.630458 -12.396702 2.202911
4.036782 -12.527081 2.357229
4.456738 -12.518962 2.502550
3.177560 -12.608868 2.244938
3.601086 -12.625142 2.333319
4.004436 -12.781824 2.424076
4.425864 -12.760571 2.596369
3.177631 -12.665800 2.771074
3.590071 -12.716425 2.776810
3.979743 -12.959333 2.666847
4.396389 -12.981098 2.738003
3.184900 -12.678052 3.378088
3.554293 -12.992350 2.791277
3.945992 -13.228530 2.701376
4.363824 -13.249830 2.772282
3.226001 -12.486471 4.409925
3.110833 -13.172537 2.902727
3.615610 -12.542446 4.397648
3.512309 -13.314590 2.708651
3.987293 -12.748995 4.351540
3.917675 -13.443339 2.856369
4.333473 -13.485084 2.881685
2.801180 -15.078513 -0.577089
3.479625 -13.567272 2.783377
3.887410 -13.677836 2.967936
4.350184 -13.030875 4.436680
4.304702 -13.697864 3.038265
3.196905 -12.760382 4.971029
3.073385 -13.502455 3.413158
2.763517 -15.364071 -0.495035
3.563817 -12.945116 4.688726
3.410136 -14.095313 2.284081
3.228827 -15.452288 -0.552866
3.895279 -13.536024 3.854399
4.294962 -13.637262 3.753540
3.179847 -12.911057 5.211899
2.720815 -15.679866 -0.473047
3.508058 -13.369879 4.374805
3.388590 -14.264548 2.545357
3.190063 -15.751278 -0.494761
3.791055 -14.499246 2.481407
4.259719 -13.948717 3.696371
3.044287 -13.778513 4.007183
2.670666 -16.040831 -0.537088
3.476486 -13.613531 4.441486
3.141145 -16.126245 -0.585510
3.751562 -14.822810 2.433006
3.601840 -16.287046 -0.453375
4.207390 -14.497992 3.179565
3.103810 -13.464911 5.180267
2.628400 -16.354292 -0.499308
3.458857 -13.752558 4.714958
3.105189 -16.404024 -0.476404
3.818498 -14.109506 4.392517
3.558398 -16.642000 -0.494091
4.157103 -15.011050 2.759090
3.061774 -13.766625 5.124714
2.577761 -16.718842 -0.555653
3.310597 -14.871239 3.104078
3.060080 -16.750334 -0.497471
3.784596 -14.382075 4.412792
3.518558 -16.961441 -0.460245
4.110539 -15.466745 2.469166
3.024061 -14.042210 5.125443
2.529122 -17.071518 -0.581457
3.313076 -14.859457 3.686680
3.014133 -17.102877 -0.523556
3.749123 -14.669544 4.409561
3.474198 -17.324230 -0.502178
4.145474 -14.818119 4.231934
2.991626 -14.285507 5.190498
2.843089 -15.197678 3.507559
2.488765 -17.373585 -0.506948
3.284309 -15.081918 3.819906
2.967958 -17.457077 -0.545750
3.725538 -14.842295 4.619316
3.429574 -17.688961 -0.540039
4.114857 -15.064876 4.311386
4.074561 -15.602281 3.340990
3.915195 -17.727695 -0.496891
2.957629 -14.538339 5.240501
2.753155 -15.798071 2.963799
2.438217 -17.738346 -0.542845
3.327935 -14.760490 4.932137
3.067984 -16.713057 1.416342
2.925430 -17.783821 -0.511673
3.660339 -15.414295 4.116590
3.387247 -18.031086 -0.530281
4.073086 -15.458820 4.132231
3.872895 -18.099236 -0.539495
2.755446 -15.830523 3.452908
2.385032 -18.119690 -0.600660
3.312346 -14.883456 5.220615
2.875599 -18.165358 -0.569660
3.344763 -18.374315 -0.516825
3.987921 -16.416040 2.988539
3.835293 -18.407885 -0.465351
2.851004 -15.283337 4.933668
2.337960 -18.463499 -0.584978
3.230139 -15.507024 4.636953
3.098568 -16.496098 2.926743
2.831438 -18.504223 -0.545502
3.521358 -16.632860 3.058231
3.452351 -17.289392 1.938314
3.301596 -18.723658 -0.508265
3.960442 -16.613819 3.186047
2.866835 -15.226963 5.526228
2.543442 -17.237391 2.106579
2.289114 -18.818459 -0.582743
3.062881 -16.770395 2.996891
2.783776 -18.869331 -0.560663
3.456073 -17.198574 2.640779
3.256641 -19.089552 -0.521584
3.923999 -16.927607 3.187916
2.615813 -16.832365 3.329470
2.242552 -19.159334 -0.550928
3.172829 -15.948982 4.890566
3.038808 -16.957218 3.215126
2.738628 -19.215460 -0.537518
3.550304 -16.254702 4.720505
3.455143 -17.154055 3.245708
3.213667 -19.436228 -0.496677
3.881222 -17.320772 3.065428
3.709652 -19.495481 -0.488455
2.771426 -15.903152 5.367628
2.191710 -19.527027 -0.557941
3.108658 -16.437071 4.582432
2.995641 -17.287579 3.196516
2.689873 -19.588646 -0.553110
3.428535 -17.353390 3.440769
3.848525 -17.585045 3.159735
3.667923 -19.853897 -0.476717
2.753930 -16.052496 5.603115
2.138975 -19.906776 -0.577696
3.093539 -16.555944 4.881411
2.896031 -18.042778 2.505190
2.640888 -19.963491 -0.564447
3.484141 -16.780861 4.851542
3.372027 -17.833891 3.190380
3.120483 -20.196527 -0.536692
3.898518 -16.819452 4.875202
3.813282 -17.881102 3.206062
2.710428 -16.364632 5.578684
2.510508 -17.620840 3.602711
3.058979 -16.821037 4.945065
3.442066 -17.127975 4.791161
3.333876 -18.141163 3.223152
3.079312 -20.525129 -0.466276
3.773128 -18.237398 3.163343
3.581759 -20.601458 -0.483173
2.674450 -16.629580 5.633154
2.448232 -18.054548 3.434246
2.037081 -20.644415 -0.562246
3.091520 -16.580601 5.789133
3.000576 -17.265635 4.735540
2.851891 -18.385607 3.012995
3.398511 -17.488319 4.718309
3.296206 -18.443661 3.267632
3.028099 -20.947311 -0.534136
3.540386 -20.952696 -0.442503
2.609736 -17.075947 5.416117
1.988028 -21.001488 -0.527456
2.921062 -17.869303 4.299171
3.371345 -17.695398 4.881968
2.983693 -21.305401 -0.497406
3.726399 -18.537582 3.712114
3.497978 -21.315874 -0.414543
2.576005 -17.327026 5.502626
2.340474 -18.817638 3.287901
1.930933 -21.409523 -0.563072
2.789302 -18.866812 3.301279
2.443500 -21.472973 -0.558414
2.931877 -21.731981 -0.555576
3.773644 -17.837805 5.218887
3.447934 -21.770489 -0.514307
2.753667 -16.237122 7.546728
2.530749 -17.651075 5.484896
2.928780 -17.819862 5.317705
2.763085 -19.068945 3.502094
2.394208 -21.849705 -0.539896
3.324978 -18.036377 5.312708
3.204270 -19.154562 3.707500
2.883410 -22.126877 -0.559408
3.747253 -18.034515 5.393127
2.510404 -17.816965 5.699627
2.395545 -18.547096 4.654585
1.823043 -22.186338 -0.554308
2.876780 -18.215975 5.206861
3.392259 -17.371508 6.701792
2.839089 -22.482986 -0.501631
3.794522 -17.354887 6.797667
3.721560 -18.223705 5.577082
2.475858 -18.072819 5.785585
2.828191 -18.586317 5.141701
3.352763 -17.695312 6.677938
3.752096 -17.748571 6.676235
2.432169 -18.386923 5.793577
1.706997 -23.015808 -0.591869
2.925396 -17.856804 6.597105
2.787821 -18.894604 5.169888
2.230526 -23.098566 -0.611547
3.323975 -17.920202 6.794643
3.160580 -19.422785 4.753283
3.723354 -17.979492 6.784935
2.474310 -18.152185 6.550249
1.651343 -23.415726 -0.579119
2.855052 -18.390947 6.299187
2.185106 -23.445709 -0.526571
3.289400 -18.198219 6.841667
3.125015 -19.706438 4.829542
3.699815 -18.149794 6.975748
3.534924 -20.076246 4.413387
2.433000 -18.450195 6.576696
1.593614 -23.829069 -0.577551
2.850666 -18.427355 6.677469
3.241524 -18.597788 6.733187
3.035860 -20.480539 4.266397
3.650391 -18.621607 6.771309
2.447182 -18.392006 7.073009
2.310499 -19.269516 5.926800
2.841315 -18.501059 6.999229
3.221370 -18.743399 6.960876
3.449887 -20.835487 4.344461
3.122433 -24.616901 -0.507269
2.349060 -19.054867 6.632183
1.474599 -24.679113 -0.583029
2.774766 -19.006390 6.763002
2.020135 -24.703136 -0.523697
3.213086 -18.781189 7.322367
2.533312 -24.977602 -0.509777
3.633395 -18.617615 7.594585
2.376528 -18.909891 7.230530
2.224789 -19.887539 5.998631
2.774903 -19.008204 7.173365
1.958637 -25.171202 -0.569765
3.184789 -19.001825 7.449669
2.474870 -25.459766 -0.568649
3.598817 -18.917547 7.619032
2.316958 -19.325169 7.119980
2.011674 -21.295456 4.681280
1.348772 -25.573795 -0.614187
2.745864 -19.230164 7.303225
2.602965 -20.309237 5.971466
1.901767 -25.604223 -0.563444
2.934355 -21.239193 5.118216
2.424400 -25.868868 -0.528772
3.571918 -19.129620 7.755020
3.439112 -20.638784 5.919487
2.156225 -20.394848 6.223337
2.823544 -18.646023 8.411543
2.486893 -21.188540 5.328949
1.842975 -26.051653 -0.567184
2.938043 -21.166170 5.642902
3.544003 -19.353518 7.877724
2.436231 -18.613228 8.769918
1.958744 -21.704964 5.076847
1.232649 -26.406448 -0.539059
2.805138 -18.787338 8.622557
3.180459 -18.935375 8.695948
2.872014 -21.724905 5.411774
3.519047 -19.544308 8.040678
2.874667 -26.794687 -0.471478
2.396360 -18.899530 8.806463
1.989344 -21.539076 5.708845
1.162377 -26.902067 -0.584843
2.738181 -19.295294 8.402664
3.135463 -19.308243 8.636835
2.753223 -22.758793 4.645380
3.513533 -19.517889 8.454222
2.217873 -20.086161 7.809187
2.741496 -19.272295 8.806528
2.831337 -22.015579 5.932011
2.196754 -27.733809 -0.567337
3.488021 -19.716888 8.603638
2.767626 -27.747488 -0.498898
2.327437 -19.401825 8.971926
1.029825 -27.842154 -0.589947
2.714069 -19.481424 8.939783
3.033410 -20.160849 8.422045
3.436210 -20.208136 8.428101
2.360837 -19.210796 9.550999
2.556173 -20.676342 7.979763
1.538927 -28.363245 -0.553564
3.054648 -19.937176 9.042152
3.450214 -19.969967 9.062786
2.290393 -19.695797 9.376253
2.613221 -20.246935 8.830711
2.370972 -22.077671 6.833685
3.040027 -20.036482 9.298388
3.290048 -21.652426 7.615704
3.194936 -22.699036 6.490025
2.264998 -19.887096 9.528925
2.017092 -21.506325 7.788599
2.500289 -21.101997 8.281418
2.925629 -21.029234 8.604778
3.387395 -20.500988 9.219812
2.232429 -20.125055 9.632845
1.816321 -22.846481 6.758633
2.648984 -19.979557 9.840115
2.951643 -20.764788 9.250338
3.351827 -20.811623 9.256220
2.043950 -21.383858 8.679567
2.627079 -20.146378 10.016558
2.912529 -21.082964 9.283491
3.310353 -21.185957 9.232351
2.061215 -21.296059 9.138605
2.477934 -21.274923 9.214514
2.836197 -21.732422 8.988419
2.609765 -23.749695 6.959566
3.316085 -21.047913 9.729389
2.031158 -21.517933 9.277727
1.416012 -25.556051 5.230789
2.469284 -21.341352 9.507839
2.847446 -21.601528 9.481012
3.287838 -21.279446 9.851149
1.945154 -22.107292 9.056419
1.574392 -24.543993 6.656708
1.426733 -25.514425 5.701006
2.428201 -21.652853 9.556562
2.837052 -21.663923 9.775244
3.219679 -21.940374 9.558876
2.028883 -21.580498 9.929319
1.883399 -22.537727 9.002960
2.419221 -21.721537 9.844288
2.804348 -21.924685 9.876322
3.195132 -22.130953 9.730753
1.883627 -22.560118 9.345953
2.323747 -22.444036 9.508257
2.739647 -22.468773 9.714548
3.172115 -22.305582 9.918062
1.919645 -22.345852 9.904877
2.269659 -22.853535 9.482067
2.717429 -22.636181 9.912035
2.507856 -24.490133 8.203279
3.059640 -23.433304 9.229139
1.886832 -22.584793 10.034945
1.663915 -24.056204 8.683884
2.244403 -23.044928 9.663210
2.061909 -24.424744 8.399406
2.656137 -23.148958 9.796522
2.996278 -24.034143 9.046707
1.849617 -22.852633 10.141068
2.227151 -23.175680 9.899422
2.660998 -23.077314 10.211834
2.427311 -25.139200 8.376917
2.884324 -25.147083 8.422945
1.811287 -23.127720 10.243805
2.220058 -23.229492 10.202305
2.629965 -23.322727 10.342316
2.960226 -24.273045 9.561251
1.750321 -23.552549 10.219370
2.181627 -23.520138 10.295757
2.577526 -23.756491 10.313301
2.966467 -24.138546 10.033484
1.574003 -24.741879 9.548552
1.204909 -27.187597 7.455748
2.148174 -23.773018 10.425123
2.514389 -24.283798 10.213322
2.937894 -24.371504 10.187017
1.597704 -24.606148 10.022337
2.070411 -24.360804 10.276150
1.617720 -27.783600 7.405678
2.215846 -26.877325 8.410616
2.914565 -24.549770 10.387632
1.744278 -26.826349 8.592598
2.166556 -27.279406 8.463985
2.602834 -27.736856 8.143318
2.173042 -27.192562 8.914854
2.711967 -26.530008 9.493477
2.175799 -27.139097 9.331770
2.637114 -27.240082 9.301022
2.579864 -27.765800 9.265501
2.041534 -28.254639 9.219376
2.565382 -27.848795 9.574455
2.490705 -28.552784 9.419632
0.403653 -42.469131 -0.425734
0.302785 -43.305145 -0.471060
0.213535 -44.039253 -0.429438
5.157063 -1.088549 29.827379
5.152358 -1.091091 29.831783
5.162330 -1.033813 29.870955
5.157275 -1.084773 29.839602
5.154847 -1.069051 29.852629
5.157084 -1.086195 29.841791
5.159385 -1.062412 29.860102
5.154498 -1.071653 29.856750
5.163396 -1.021450 29.888571
5.154327 -1.072927 29.858829
5.159894 -1.056399 29.869318
5.158104 -1.040119 29.881512
5.159738 -1.057565 29.871258
5.155976 -1.058300 29.873165
5.158729 -1.067290 29.868135
5.154825 -1.068036 29.870127
5.160290 -1.051226 29.880163
5.159279 -1.060961 29.877136