# This PCD file was generated using the MATLAB® pcwrite function
# from Computer Vision System Toolbox®.
# .PCD v.7 - Point Cloud Data file format
VERSION .7
FIELDS x y z
SIZE 4 4 4
TYPE F F F
COUNT 1 1 1
WIDTH 751
HEIGHT 1
VIEWPOINT 0 0 0 1 0 0 0
POINTS 751
DATA ascii
-31.549894 -13.633823 0.119207
-30.712814 -13.943552 0.106590
-31.012186 -13.381964 0.102448
-30.159454 -13.678392 0.118246
-30.448860 -13.119659 0.120153
-29.642527 -13.429964 0.104967
-29.922365 -12.873509 0.113085
-29.397976 -12.628707 0.113865
-28.621454 -12.940012 0.094719
-28.950094 -12.416762 0.047718
-28.084152 -12.683707 0.131845
-28.362547 -12.146125 0.131939
-27.641792 -12.470078 0.080111
-27.944672 -11.947650 0.052124
-27.161465 -12.239902 0.076590
-27.481443 -11.730385 0.026981
-26.670147 -12.005219 0.094173
-26.960983 -11.489443 0.071886
-26.168242 -11.766232 0.133188
-26.521067 -11.282782 0.039211
-25.796337 -11.585177 0.036154
-26.082605 -11.077089 0.012726
-25.285894 -11.343148 0.103193
-25.601034 -10.853740 0.043003
-24.903580 -11.158079 0.031919
-25.191349 -10.660815 0.000067
-24.472391 -10.951736 0.024603
-24.751549 -10.455678 -0.000515
-24.042923 -10.746479 0.023333
-24.344601 -10.264568 -0.031961
-23.639582 -10.553027 -0.001806
-23.895941 -10.056498 -0.005602
-23.213501 -10.349897 0.008684
-23.486000 -9.864849 -0.018047
-22.789326 -10.147932 0.025114
-23.059523 -9.666719 -0.002153
-22.367117 -9.947156 0.047447
-22.658888 -9.479613 -0.010895
-21.993744 -9.768033 0.014072
-22.236160 -9.283769 0.016554
-21.598331 -9.579570 0.016642
-21.868168 -9.110746 -0.019894
-21.204584 -9.392132 0.024567
-21.443336 -8.914769 0.026491
-20.835230 -9.215590 0.006361
-21.101027 -8.752855 -0.031258
-20.467152 -9.039874 -0.006989
-20.725380 -8.577623 -0.037220
-20.056040 -8.845795 0.048235
-20.317553 -8.389650 0.009535
-19.735031 -8.690993 -0.019230
-19.967400 -8.225411 -0.018328
-20.056818 -7.690789 -0.076189
-19.392765 -8.527225 -0.050470
-19.629253 -8.066295 -0.057869
-19.712000 -7.532066 -0.106024
-19.946373 -7.069179 -0.109877
-19.051470 -8.364112 -0.077379
-19.259451 -7.894687 -0.044462
-19.368168 -7.374007 -0.131535
-19.601187 -6.913558 -0.135704
-18.690008 -8.192573 -0.067282
-18.923410 -7.736961 -0.075258
-18.982328 -7.200583 -0.087234
-19.240717 -6.752980 -0.132687
-18.330112 -8.021980 -0.052504
-18.577719 -7.575631 -0.085428
-18.641111 -7.044160 -0.103760
-18.876329 -6.591447 -0.116861
-18.013147 -7.870040 -0.099251
-18.222805 -7.410907 -0.074701
-18.301006 -6.888456 -0.116032
-18.513571 -6.430889 -0.096382
-17.656010 -7.701146 -0.075584
-17.900372 -7.259417 -0.109348
-17.941317 -6.725852 -0.090738
-18.173458 -6.278454 -0.104595
-17.265327 -7.518235 0.011265
-17.527792 -7.088284 -0.056417
-17.603832 -6.571771 -0.094391
-17.860430 -6.135523 -0.150484
-16.986631 -7.383301 -0.081829
-17.232775 -6.948178 -0.124821
-17.292858 -6.427684 -0.136017
-17.522427 -5.984454 -0.150549
-16.653822 -7.225545 -0.078701
-16.898268 -6.792696 -0.122143
-16.952579 -6.273192 -0.123095
-17.205881 -5.840909 -0.180336
-16.346500 -7.078830 -0.113989
-16.565065 -6.638015 -0.115328
-16.643278 -6.130244 -0.157089
-16.865232 -5.689653 -0.163786
-16.035086 -6.930588 -0.137072
-16.271839 -6.499260 -0.172806
-16.305552 -5.977320 -0.136030
-16.535896 -5.542523 -0.160162
-15.701005 -6.773005 -0.113432
-15.902732 -6.331121 -0.089388
-15.993289 -5.833865 -0.153866
-16.202982 -5.394583 -0.143942
-15.377751 -6.620238 -0.102930
-15.611236 -6.193522 -0.139433
-15.667773 -5.685965 -0.142038
-15.885837 -5.252157 -0.149614
-15.069528 -6.474018 -0.114550
-15.301609 -6.049100 -0.151413
-15.376153 -5.550393 -0.187160
-15.579177 -5.113442 -0.168903
-14.757760 -6.326534 -0.113779
-14.974705 -5.898274 -0.124826
-15.043715 -5.400667 -0.150301
-15.268709 -4.973798 -0.175888
-14.455981 -6.183444 -0.126833
-14.667295 -5.755235 -0.129330
-14.721996 -5.255073 -0.126951
-14.922677 -4.823181 -0.109034
-14.150728 -6.039120 -0.127535
-14.360912 -5.612842 -0.130217
-14.432842 -5.121147 -0.161507
-14.646317 -4.695020 -0.170149
-13.863703 -5.902579 -0.160059
-14.072992 -5.477728 -0.162903
-14.104835 -4.974022 -0.113020
-14.343463 -4.558750 -0.175098
-13.543434 -5.752470 -0.118170
-13.772762 -5.338156 -0.165661
-13.838903 -4.848592 -0.185223
-14.037214 -4.421745 -0.167662
-13.241461 -5.610172 -0.108149
-13.431401 -5.183345 -0.075640
-13.534739 -4.710262 -0.174097
-13.749276 -4.290697 -0.192417
-12.973308 -5.482007 -0.166384
-13.179435 -5.062444 -0.169733
-13.231748 -4.572644 -0.159445
-13.445058 -4.154961 -0.178057
-12.689172 -5.347435 -0.185675
-12.898473 -4.930816 -0.198183
-12.946340 -4.441245 -0.177362
-13.146196 -4.021196 -0.169197
-12.405692 -5.213320 -0.201773
-12.610024 -4.796609 -0.205429
-12.661603 -4.310309 -0.192097
-12.856592 -3.890525 -0.175026
-12.107422 -5.073375 -0.178354
-12.310620 -4.658595 -0.182177
-12.361761 -4.174631 -0.167290
-12.571839 -3.761575 -0.186701
-11.795245 -4.928027 -0.115004
-11.997073 -4.515684 -0.119009
-12.094258 -4.049876 -0.212072
-12.287815 -3.633114 -0.195215
-11.514773 -4.795775 -0.121202
-11.715702 -4.384857 -0.125351
-11.796477 -3.915464 -0.180689
-11.989086 -3.500721 -0.163971
-11.278930 -4.681678 -0.234579
-11.479668 -4.270669 -0.238815
-11.515003 -3.786644 -0.182701
-11.722068 -3.377704 -0.202854
-10.970516 -4.538549 -0.161154
-11.173522 -4.131285 -0.174791
-11.248997 -3.663010 -0.218542
-11.440400 -3.250780 -0.202007
-10.695675 -4.409118 -0.167435
-10.894199 -4.001842 -0.171986
-10.968891 -3.535113 -0.214499
-11.159577 -3.124393 -0.198074
-10.431857 -4.284256 -0.198582
-10.629718 -3.877900 -0.203253
-10.689655 -3.407764 -0.207388
-10.890347 -3.001458 -0.218935
-10.151525 -4.153017 -0.180317
-10.351848 -3.749416 -0.194445
-10.411319 -3.280977 -0.197224
-10.600566 -2.873277 -0.181009
-9.875544 -4.023711 -0.168299
-10.091636 -3.627342 -0.229342
-10.147388 -3.158859 -0.221458
-10.349858 -2.755749 -0.242725
-9.629447 -3.906319 -0.237722
-9.828350 -3.504359 -0.252138
-9.870635 -3.033087 -0.205360
-10.075444 -2.632207 -0.236237
-9.329571 -3.768072 -0.144632
-9.527026 -3.368512 -0.159243
-9.598083 -2.908864 -0.195679
-9.808418 -2.510840 -0.245619
-9.080961 -3.650009 -0.199181
-9.274786 -3.249765 -0.204473
-9.335833 -2.787929 -0.211412
-9.535541 -2.388286 -0.233313
-8.835175 -3.533142 -0.260689
-9.025575 -3.132158 -0.256599
-9.074018 -2.667327 -0.224403
-9.257281 -2.264769 -0.199156
-8.562821 -3.406203 -0.234243
-8.740483 -3.002717 -0.192272
-8.812661 -2.547068 -0.234667
-9.007736 -2.148424 -0.247440
-8.300071 -3.283143 -0.233438
-8.491893 -2.885654 -0.239050
-8.548866 -2.426353 -0.232677
-8.749128 -2.030096 -0.264656
-8.029657 -3.157377 -0.201212
-8.231888 -2.764988 -0.245134
-8.288575 -2.306849 -0.237486
-8.487969 -1.911412 -0.269663
-7.792687 -3.044381 -0.281010
-7.975154 -2.645574 -0.258087
-8.031587 -2.188456 -0.249172
-8.235832 -1.794936 -0.300684
-7.523638 -2.919507 -0.243294
-7.713457 -2.524774 -0.249205
-7.769606 -2.068971 -0.239017
-7.953487 -1.672300 -0.223608
-7.276095 -2.802810 -0.279713
-7.465481 -2.408489 -0.285706
-7.521460 -1.953283 -0.274275
-7.694363 -1.554948 -0.220432
-7.008804 -2.679014 -0.236460
-7.209910 -2.289990 -0.290787
-7.273304 -1.837710 -0.307055
-7.469678 -1.444541 -0.339941
-6.752291 -2.559376 -0.229057
-6.940104 -2.167397 -0.235252
-7.005407 -1.717512 -0.259979
-7.190568 -1.323802 -0.254423
-6.514921 -2.446789 -0.296558
-6.702534 -2.054715 -0.302811
-6.760297 -1.603045 -0.297333
-6.942728 -1.209234 -0.282145
-6.250138 -2.324539 -0.245197
-6.446030 -1.936554 -0.290394
-6.501192 -1.485521 -0.273977
-6.692566 -1.094414 -0.297693
-5.986646 -2.203017 -0.191051
-6.183544 -1.816941 -0.246162
-6.236211 -1.367058 -0.218763
-6.435740 -0.978746 -0.281567
-5.749470 -2.090874 -0.251192
-5.935072 -1.701555 -0.257704
-5.989852 -1.252927 -0.238817
-6.181843 -0.863851 -0.272577
-5.513790 -1.979291 -0.318817
-5.697186 -1.589193 -0.315603
-5.743608 -1.138967 -0.256428
-5.924238 -0.748775 -0.241503
-5.260101 -1.861694 -0.296066
-5.444891 -1.473071 -0.302704
-5.497500 -1.025186 -0.271603
-5.677867 -0.635487 -0.256718
-4.997917 -1.741519 -0.221701
-5.181743 -1.354447 -0.228436
-5.245758 -0.910578 -0.254929
-5.431652 -0.522388 -0.269501
-4.760359 -1.629660 -0.272329
-4.945817 -1.242941 -0.288927
-5.007624 -0.798504 -0.304487
-5.193254 -0.410190 -0.319113
-4.508794 -1.513409 -0.241941
-4.693502 -1.127571 -0.258631
-4.753091 -0.683951 -0.263206
-4.941600 -0.296932 -0.297615
-4.266151 -1.400168 -0.258297
-4.455436 -1.015702 -0.304607
-4.508036 -0.571126 -0.268625
-4.694138 -0.184314 -0.293303
-4.015874 -1.284751 -0.222927
-4.189779 -0.898016 -0.180576
-4.256741 -0.457754 -0.232174
-4.442034 -0.071795 -0.256977
-3.770855 -1.171139 -0.214697
-3.952262 -0.786632 -0.221729
-4.014029 -0.345689 -0.242609
-4.205200 0.039933 -0.306978
-3.540106 -1.061752 -0.303005
-3.720160 -0.676251 -0.300158
-3.768510 -0.233555 -0.230894
-3.946568 0.151685 -0.216337
-3.295168 -0.948405 -0.290068
-3.470709 -0.562795 -0.257547
-3.530365 -0.122159 -0.266283
-3.702621 0.262921 -0.212151
-3.051919 -0.835704 -0.284639
-3.232483 -0.451418 -0.291780
-3.287988 -0.010590 -0.269638
-3.464444 0.374219 -0.245211
-2.813591 -0.724392 -0.316551
-2.993952 -0.340011 -0.323721
-3.043332 0.100804 -0.250786
-3.220829 0.485075 -0.236309
-2.567480 -0.611346 -0.276592
-2.751745 -0.228229 -0.323557
-2.800334 0.211874 -0.239479
-2.983600 0.596422 -0.274666
-2.329149 -0.500257 -0.303850
-2.511845 -0.116817 -0.340931
-2.561987 0.322915 -0.265579
-2.739187 0.706709 -0.251141
-2.090569 -0.389164 -0.328817
-2.269907 -0.005385 -0.336082
-2.324391 0.434055 -0.299335
-2.500567 0.817764 -0.274948
-1.847583 -0.277401 -0.301664
-2.027318 0.105831 -0.318932
-2.080942 0.544439 -0.271067
-2.257844 0.927756 -0.256664
-1.603661 -0.165822 -0.252205
-1.781075 0.216598 -0.249592
-1.839744 0.654786 -0.260365
-2.016440 1.037739 -0.245991
-1.368098 -0.055453 -0.310112
-1.546356 0.327597 -0.317467
-1.601100 0.765519 -0.277243
-1.774513 1.147139 -0.223022
-1.126943 0.055378 -0.285917
-1.304762 0.438017 -0.293301
-1.362288 0.876218 -0.291822
-1.538919 1.259200 -0.277454
-0.890414 0.165973 -0.339281
-1.068262 0.549213 -0.346661
-1.123327 0.986875 -0.304110
-1.299926 1.369872 -0.289742
-0.649594 0.276427 -0.310461
-0.828499 0.659780 -0.347826
-0.884236 1.097481 -0.314100
-1.060802 1.480493 -0.299732
-0.410729 0.386873 -0.319292
-0.587933 0.769796 -0.326706
-0.645033 1.208027 -0.321793
-0.823055 1.592506 -0.337353
-0.172886 0.497742 -0.365810
-0.350120 0.881267 -0.373211
-0.405736 1.318507 -0.327188
-0.580569 1.699470 -0.272911
0.067293 0.607567 -0.330070
-0.109502 0.990679 -0.337492
-0.165245 1.427191 -0.290339
-0.342831 1.811968 -0.315922
0.306413 0.717799 -0.332018
0.129823 1.101005 -0.339439
0.073068 1.539230 -0.331085
-0.104402 1.924675 -0.356638
0.545581 0.827942 -0.331667
0.369196 1.211243 -0.339090
0.313142 1.646942 -0.279655
0.136135 2.032544 -0.315224
0.784779 0.937988 -0.329023
0.608600 1.321383 -0.336445
0.552029 1.759582 -0.325788
0.375658 2.142684 -0.311426
1.023990 1.047929 -0.324081
0.848015 1.431418 -0.331499
0.791523 1.869597 -0.319695
0.615123 2.254822 -0.335253
1.263969 1.159118 -0.356817
1.087967 1.543209 -0.364210
1.031352 1.981332 -0.341244
0.854930 2.365583 -0.336824
1.503466 1.268969 -0.347275
1.327669 1.653154 -0.354658
1.271035 2.091213 -0.330544
1.094587 2.474740 -0.316151
1.745739 1.381994 -0.415318
1.568505 1.765128 -0.382734
1.512043 2.204382 -0.367409
1.335118 2.587746 -0.343010
1.985766 1.491866 -0.401146
1.808419 1.874949 -0.368570
1.751645 2.313446 -0.342119
1.575028 2.697509 -0.327690
2.225713 1.601590 -0.384674
2.048255 1.984622 -0.352106
1.991434 2.423042 -0.324503
1.814850 2.807120 -0.310074
2.465563 1.711158 -0.365900
2.287993 2.094139 -0.333342
2.231116 2.532478 -0.304590
2.054565 2.916571 -0.290159
2.705297 1.820562 -0.344830
2.529448 2.205546 -0.342150
2.473042 2.645063 -0.322174
2.298423 3.033501 -0.347464
2.947141 1.931575 -0.351322
2.772623 2.318439 -0.368521
2.712772 2.754299 -0.297638
2.539115 3.143887 -0.332825
3.190961 2.043883 -0.375364
3.014898 2.429996 -0.372629
2.955342 2.866955 -0.310530
2.781877 3.257244 -0.345636
3.429963 2.152366 -0.337399
3.255780 2.539995 -0.354519
3.195046 2.975955 -0.281366
3.024321 3.369629 -0.346159
3.678468 2.267596 -0.396423
3.499411 2.652353 -0.363855
3.442724 3.093511 -0.339106
3.268737 3.484228 -0.364130
3.917546 2.375890 -0.353800
3.743465 2.764791 -0.370811
3.682723 3.202421 -0.305254
3.512796 3.597836 -0.369797
4.157382 2.484669 -0.318808
3.983584 2.873699 -0.335777
3.929945 3.318424 -0.338326
3.757248 3.711511 -0.373072
4.407967 2.600506 -0.370548
4.231602 2.988934 -0.367661
4.180303 3.436858 -0.388674
4.002076 3.825243 -0.373941
4.651903 2.711684 -0.360487
4.476731 3.101521 -0.367443
4.419574 3.544538 -0.337864
4.247259 3.939022 -0.372406
4.904299 2.828114 -0.407246
4.728808 3.219186 -0.414125
4.664904 3.657658 -0.334026
4.487807 4.047729 -0.329098
5.150522 2.940356 -0.402189
4.975002 3.332028 -0.409018
4.922966 3.781488 -0.416269
4.743896 4.171938 -0.401392
5.390910 3.048820 -0.355373
5.214117 3.439506 -0.352331
5.163783 3.890087 -0.368185
4.983344 4.279204 -0.343491
5.643867 3.164905 -0.384815
5.468289 3.557775 -0.391527
5.404250 3.998415 -0.317799
5.231153 4.394429 -0.342079
5.897717 3.281277 -0.411699
5.721878 3.675253 -0.418333
5.657263 4.116802 -0.343388
5.484040 4.513981 -0.367531
6.136512 3.388421 -0.347935
5.969491 3.788277 -0.403433
5.911138 4.235461 -0.366394
5.731255 4.627991 -0.351364
6.378452 3.497384 -0.301447
6.203019 3.891543 -0.307987
6.158774 4.348932 -0.347820
5.985531 4.747937 -0.371708
6.639383 3.617376 -0.350107
6.456047 4.008010 -0.317575
6.413997 4.467965 -0.365707
6.240624 4.868134 -0.389446
6.895580 3.734341 -0.366861
6.719450 4.131093 -0.373220
6.677716 4.592966 -0.419811
6.496515 4.988572 -0.404564
7.162965 3.857519 -0.429537
6.978195 4.250723 -0.396973
6.918804 4.700877 -0.354872
6.737633 5.096497 -0.339617
7.412472 3.970199 -0.402185
7.233660 4.367933 -0.398682
7.173965 4.818962 -0.355291
7.002516 5.223616 -0.388260
7.679979 4.092933 -0.449678
7.494067 4.488071 -0.417107
7.434016 4.940258 -0.372389
7.243576 5.331280 -0.318449
7.928020 4.204455 -0.407555
7.741828 4.599927 -0.375002
7.692698 5.060251 -0.377157
7.518906 5.465728 -0.400133
8.178380 4.317162 -0.372606
8.003499 4.720394 -0.388142
7.933588 5.167602 -0.302477
7.757880 5.571498 -0.315762
8.441127 4.436612 -0.383144
8.261188 4.838122 -0.379377
8.202556 5.294238 -0.340366
8.028729 5.701531 -0.363033
8.722466 4.566110 -0.457932
8.534275 4.965123 -0.425358
8.472777 5.421311 -0.375357
8.288963 5.823077 -0.359665
8.971632 4.677655 -0.405531
8.795959 5.084812 -0.420679
8.734073 5.541989 -0.369350
8.547337 5.942946 -0.344069
9.223337 4.790480 -0.360191
9.034532 5.190288 -0.327660
8.995963 5.662809 -0.360620
8.811266 6.066622 -0.344778
9.511018 4.922703 -0.435722
9.321125 5.324625 -0.403152
9.258428 5.783761 -0.349157
9.081183 6.194296 -0.361620
9.775021 5.041835 -0.422848
9.584560 5.444726 -0.390285
9.532506 5.912060 -0.372702
9.333152 6.308762 -0.309528
10.051240 5.167357 -0.444963
9.857121 5.570030 -0.402956
9.807714 6.040734 -0.393265
9.629565 6.454526 -0.405344
10.328575 5.293249 -0.464077
10.121833 5.690449 -0.384485
10.069442 6.160408 -0.363920
9.882560 6.569199 -0.347727
10.591646 5.411318 -0.433302
10.399085 5.818010 -0.400726
10.334487 6.282007 -0.341208
10.147162 6.691820 -0.324940
10.861322 5.532738 -0.418489
10.665051 5.938733 -0.376575
10.612251 6.411435 -0.352980
10.436276 6.831036 -0.373848
11.150906 5.664500 -0.456697
10.956754 6.074152 -0.424105
10.894181 6.543159 -0.370987
10.705438 6.956155 -0.354498
11.418888 5.784638 -0.426682
11.227409 6.197122 -0.403374
11.186903 6.681273 -0.413624
10.981463 7.085649 -0.350761
11.687262 5.904819 -0.393841
11.491984 6.316414 -0.361267
11.451588 6.801615 -0.369911
11.261540 7.217539 -0.353216
11.986975 6.041222 -0.441109
11.787231 6.453007 -0.399296
11.723202 6.926056 -0.341805
11.545865 7.351910 -0.361746
12.284839 6.176394 -0.475742
12.083999 6.590137 -0.433941
12.015906 7.063181 -0.365705
11.824496 7.482160 -0.348795
12.566247 6.302771 -0.461235
12.368131 6.719827 -0.428610
12.313449 7.202890 -0.395374
12.121119 7.623901 -0.378326
12.866689 6.438809 -0.489199
12.667551 6.857855 -0.456553
12.598106 7.334438 -0.385277
12.408617 7.759266 -0.377195
13.138682 6.559923 -0.441113
12.957366 6.990211 -0.453831
12.898211 7.475001 -0.408186
12.704280 7.899570 -0.390892
13.441362 6.696671 -0.462437
13.240645 7.118682 -0.429785
13.188519 7.609349 -0.400585
13.004846 8.042632 -0.410175
13.733771 6.827911 -0.453262
13.528387 7.249414 -0.411610
13.472142 7.739441 -0.371759
13.261885 8.157519 -0.318399
14.019181 6.955365 -0.422874
13.816887 7.380341 -0.390223
13.775721 7.881111 -0.384449
13.579500 8.310761 -0.366798
14.329307 7.095248 -0.442867
14.141797 7.531062 -0.445864
14.080585 8.023201 -0.393585
13.867910 8.445092 -0.340263
14.632659 7.231441 -0.441454
14.448510 7.671453 -0.453157
14.386702 8.165696 -0.399153
14.172822 8.589495 -0.345850
14.924610 7.361627 -0.410011
14.735926 7.801036 -0.412672
14.673620 8.296666 -0.357065
14.495051 8.744323 -0.383060
15.200260 7.483370 -0.340080
15.044724 7.942050 -0.412977
14.985947 8.442183 -0.364395
14.786272 8.879450 -0.346224
15.506092 7.620216 -0.328512
15.354693 8.083430 -0.409657
15.312242 8.595449 -0.394190
15.094745 9.024971 -0.340969
15.839179 7.770580 -0.365694
15.683071 8.234486 -0.437536
15.623038 8.739401 -0.385248
15.421280 9.181231 -0.366768
16.138506 7.903697 -0.329391
15.995557 8.376662 -0.426722
15.934921 8.883675 -0.372627
15.749457 9.338054 -0.388544
16.470089 8.052805 -0.350079
16.344769 8.538290 -0.481230
16.265587 9.038388 -0.390697
16.061741 9.484782 -0.371906
16.784925 8.193270 -0.332363
16.641802 8.671629 -0.428333
16.597822 9.193627 -0.404690
16.375040 9.631797 -0.351547
17.077503 8.322397 -0.268215
16.980637 8.827070 -0.448889
16.931583 9.349373 -0.414577
16.725412 9.800832 -0.395449
17.431730 8.482088 -0.311226
17.293135 8.968182 -0.414291
17.229721 9.484630 -0.352636
17.041176 9.948604 -0.367220
17.768822 8.632963 -0.315939
17.630077 9.122028 -0.418234
17.584707 9.651699 -0.388273
17.395031 10.118827 -0.402468
18.087925 8.774652 -0.282883
17.954054 9.268717 -0.392815
17.922544 9.808729 -0.385880
17.713116 10.267282 -0.366274
18.422655 8.923874 -0.271088
18.269287 9.410536 -0.346786
18.281120 9.977021 -0.412561
18.070286 10.438609 -0.392756
18.728664 9.058649 -0.205345
18.570398 9.544703 -0.272120
18.621925 10.135001 -0.401537
18.409927 10.599122 -0.381563
19.105856 9.228385 -0.251663
18.936754 9.712928 -0.301285
18.983917 10.304428 -0.419147
18.750853 10.760021 -0.366114
19.449390 9.381223 -0.235579
19.274651 9.865903 -0.276478
19.347683 10.474447 -0.432074
19.112946 10.932962 -0.379044
19.840857 9.557398 -0.288641
19.664963 10.045982 -0.329021
19.672325 10.622470 -0.375313
19.451538 11.091741 -0.346691
20.187403 9.711187 -0.263521
19.984880 10.188993 -0.262901
20.023464 10.784837 -0.354984
19.842276 11.280531 -0.390745
20.551056 9.873121 -0.258238
20.373701 10.367602 -0.297634
20.391560 10.956192 -0.354258
20.204239 11.452109 -0.381447
20.926966 10.040787 -0.264297
20.722046 10.524847 -0.263182
20.761246 11.128047 -0.348736
20.572905 11.627163 -0.375414
21.299129 10.206337 -0.257505
21.087620 10.690737 -0.248188
21.084194 11.274016 -0.267160
20.948416 11.805749 -0.372463
21.623215 10.348158 -0.174799
21.416410 10.837329 -0.173216
21.478060 11.458389 -0.283892
21.341650 11.994088 -0.388113
22.064720 10.546973 -0.252949
21.878098 11.052169 -0.282412
21.851919 11.631479 -0.264090
21.736834 12.183068 -0.398445
22.418953 10.702975 -0.200270
22.231611 11.210895 -0.229275
22.249390 11.817011 -0.270393
22.106441 12.356989 -0.364708
22.865280 10.903457 -0.266886
22.653727 11.404552 -0.264431
22.620634 11.987962 -0.232840
22.527279 12.559689 -0.395342
23.199173 11.049055 -0.173635
23.009695 11.563944 -0.201654
23.021446 12.174527 -0.228647
22.927925 12.750408 -0.389584
23.626547 11.239706 -0.198299
23.418354 11.750001 -0.202932
23.446962 12.373978 -0.249363
23.330305 12.941665 -0.378378
24.056137 11.431093 -0.217070
23.840513 11.942583 -0.213778
23.828245 12.549251 -0.203934
23.711397 13.120476 -0.331612
24.464088 11.611701 -0.199863
24.247034 12.126826 -0.196283
24.281012 12.762451 -0.243105
24.140038 13.325673 -0.339500
24.921701 11.815948 -0.236769
24.678955 12.323634 -0.203070
24.688946 12.951217 -0.216524
24.547279 13.518372 -0.311766
25.327223 11.994756 -0.200659
25.136948 12.533276 -0.233406
25.122322 13.153158 -0.213797
24.985640 13.728059 -0.315189
25.795380 12.203381 -0.232441
25.548828 12.719152 -0.198584
25.605953 13.381384 -0.263357
25.396141 13.921705 -0.275991
26.235104 12.397987 -0.221172
25.986656 12.917805 -0.187239
26.019209 13.571745 -0.219049
25.826151 14.125803 -0.252840
26.757837 12.632056 -0.297590
26.451069 13.129490 -0.198622
26.483059 13.788521 -0.226477
26.263945 14.333774 -0.230839
27.302765 12.876317 -0.387745
26.911482 13.338746 -0.196220
26.924255 13.992860 -0.198795
26.703476 14.542246 -0.202662
27.768570 13.082295 -0.377541
27.361349 13.542297 -0.173094
27.392220 14.210897 -0.193117
27.194387 14.778648 -0.224632
28.319765 13.328693 -0.452148
27.851135 13.765503 -0.185783
27.887566 14.442879 -0.208666
27.662737 15.002042 -0.211447
28.854925 13.566991 -0.497593
28.298380 13.966958 -0.142603
28.385361 14.675637 -0.216942
28.126749 15.222545 -0.184568
29.477922 13.846695 -0.624891
28.824806 14.207651 -0.175961
28.833994 14.882137 -0.162994
28.650015 15.475071 -0.212715
29.960369 14.059013 -0.592007
29.295271 14.419914 -0.139938
29.362000 15.129747 -0.184313
29.150265 15.714383 -0.205824
30.484440 14.290749 -0.592911
29.866184 14.681868 -0.198801
29.833698 15.347425 -0.137096
29.620264 15.936629 -0.157892
30.399477 15.613691 -0.176502
30.157324 16.194958 -0.169815
30.954971 15.874011 -0.194048
30.683779 16.446911 -0.160412
31.466192 16.110786 -0.157373
31.219185 16.703152 -0.149635
0.894054 0.241401 29.647602
0.864551 0.230451 29.672623
0.918370 0.253504 29.633661
0.846210 0.220255 29.694517
0.827459 0.206755 29.714005
0.868576 0.232036 29.678209
0.849991 0.218151 29.697687
0.862778 0.228758 29.686020
0.865582 0.225970 29.687660
0.871187 0.233055 29.681997
0.852285 0.219044 29.701077
0.872469 0.233554 29.683908
0.853412 0.219481 29.702787
0.837471 0.214810 29.714378
0.854526 0.219911 29.704508
0.838492 0.215205 29.715956
0.868882 0.231122 29.695280
0.849263 0.216977 29.713480
0.825715 0.208175 29.730122
0.834044 0.212433 29.726162