# This PCD file was generated using the MATLAB® pcwrite function
# from Computer Vision System Toolbox®.
# .PCD v.7 - Point Cloud Data file format
VERSION .7
FIELDS x y z
SIZE 4 4 4
TYPE F F F
COUNT 1 1 1
WIDTH 848
HEIGHT 1
VIEWPOINT 0 0 0 1 0 0 0
POINTS 848
DATA ascii
39.496490 -22.295235 5.061140
39.291313 -21.710072 4.773178
39.454185 -22.237114 4.563961
39.292702 -21.634377 4.214676
39.485950 -22.160048 3.965199
39.267776 -21.563904 3.676912
39.505405 -22.011408 2.782249
39.231304 -21.414320 2.548420
39.391174 -21.965157 2.332031
39.224789 -21.333605 1.949348
39.407722 -21.885098 1.699497
39.180347 -21.261423 1.387486
36.865540 -22.451420 4.516354
36.481110 -21.933102 4.474308
36.505371 -22.472115 4.436914
36.092705 -21.964426 4.438519
36.094017 -22.506639 4.433876
35.716759 -21.992924 4.390934
35.684399 -22.541592 4.435623
35.302696 -22.033232 4.404484
35.298931 -22.571005 4.409496
34.901619 -22.070700 4.406487
34.892654 -22.606791 4.420525
34.518589 -22.103689 4.388384
34.510048 -22.637022 4.403231
34.115467 -22.143589 4.407705
34.107311 -22.673607 4.423424
33.756626 -22.170864 4.365019
33.727757 -22.704628 4.414862
33.356930 -22.211538 4.393213
33.328754 -22.741987 4.444107
33.000431 -22.239584 4.358606
32.993649 -22.761868 4.376629
32.624611 -22.274506 4.361692
32.618279 -22.794025 4.380499
32.250370 -22.309797 4.368942
32.224487 -22.832497 4.422646
31.877747 -22.345446 4.380327
31.896954 -22.852005 4.357801
31.526142 -22.374958 4.361420
31.526081 -22.885246 4.373840
31.175632 -22.404827 4.346249
31.171242 -22.914381 4.367975
30.826263 -22.435045 4.334801
30.953907 -22.900879 4.113525
30.173927 -22.572451 4.902969
29.805702 -23.104450 4.970446
29.555317 -23.103796 4.797039
29.171505 -23.147816 4.891558
28.921600 -22.657301 4.696892
29.079327 -23.093317 4.393957
28.921701 -23.595724 4.395859
28.760252 -22.621775 4.334143
28.759577 -23.115921 4.360479
28.579494 -24.111685 4.439768
28.316319 -22.694506 4.572092
28.149815 -23.241814 4.958632
28.291210 -24.123339 4.349079
27.894022 -22.761013 4.779434
27.881672 -23.248770 4.834921
27.909233 -24.162737 4.469488
27.532614 -23.285421 4.894539
27.360630 -23.779488 4.952490
27.466904 -24.221403 4.739761
27.258999 -22.814520 4.755735
27.217024 -23.310627 4.885216
27.267811 -23.727631 4.425613
27.275797 -24.205481 4.439966
26.946663 -22.840130 4.739550
27.105509 -23.258648 4.395704
26.949944 -23.751734 4.419714
26.946976 -24.231457 4.462008
26.784740 -22.802145 4.361036
26.787525 -23.284580 4.390892
26.636755 -23.774815 4.407795
26.645733 -24.249443 4.423000
26.452471 -22.836433 4.395531
26.470509 -23.310812 4.389236
26.317101 -23.800831 4.417397
26.326565 -24.273638 4.433043
26.150478 -22.858259 4.359831
26.168850 -23.331520 4.353857
26.019997 -23.819242 4.374683
25.997856 -24.301645 4.474072
25.834866 -22.886753 4.363937
25.839493 -23.364147 4.395353
25.688316 -23.851086 4.427603
25.688299 -24.324047 4.471972
25.506645 -22.921875 4.408216
25.525557 -23.391243 4.403086
25.378922 -23.875328 4.428043
25.389885 -24.343224 4.444918
25.206839 -22.944588 4.381489
25.212708 -23.418619 4.413914
25.063833 -23.902464 4.450190
25.091923 -24.362700 4.420692
24.894482 -22.973923 4.394896
24.914036 -23.440498 4.390450
24.756514 -23.927261 4.456709
24.768478 -24.391785 4.474388
24.583273 -23.003529 4.411367
24.590397 -23.474190 4.444777
25.515564 -23.513159 1.288715
24.598663 -24.365389 4.079403
24.307201 -23.016088 4.327700
25.245884 -22.537657 1.476112
25.372025 -22.996952 1.156513
25.489267 -23.410044 0.348934
25.617760 -23.890448 0.021027
25.190451 -22.422827 0.615112
25.348434 -22.877632 0.189594
25.268185 -23.385471 -0.025723
25.283752 -23.912687 -0.004417
25.062302 -22.340279 -0.058933
25.112171 -22.855076 -0.146305
24.942726 -23.405315 -0.076839
24.950222 -23.935257 -0.026745
24.761360 -22.347660 -0.194252
24.765442 -22.885822 -0.130112
24.608816 -23.429363 -0.096485
24.605883 -23.962744 -0.007881
24.414850 -22.380409 -0.175293
24.430965 -22.911180 -0.148605
24.275440 -23.453735 -0.113022
24.284725 -23.981377 -0.062103
24.088257 -22.402563 -0.219593
24.107773 -22.931192 -0.202118
23.932020 -23.483541 -0.088249
23.952812 -24.004919 -0.075150
23.753971 -22.429718 -0.232330
23.776688 -22.955797 -0.224072
23.610415 -23.503443 -0.136845
23.631813 -24.024235 -0.123508
23.412777 -22.461834 -0.213310
23.441006 -22.983547 -0.223827
23.288757 -23.523691 -0.182556
23.303278 -24.047293 -0.140137
23.099335 -22.477261 -0.296448
23.118286 -23.004574 -0.268456
22.959877 -23.548080 -0.196514
22.982460 -24.067286 -0.182674
22.766521 -22.505381 -0.300049
22.788509 -23.030149 -0.281334
22.666241 -23.553869 -0.352158
22.680252 -24.078640 -0.299625
22.443398 -22.527668 -0.339085
22.472824 -23.047659 -0.349041
22.334904 -23.580208 -0.350746
22.367756 -24.094875 -0.375309
22.137638 -22.538052 -0.452362
22.156672 -23.065533 -0.413990
22.010735 -23.603092 -0.375362
22.037380 -24.120392 -0.370674
21.805611 -22.567158 -0.447136
21.827517 -23.092100 -0.418091
21.682692 -23.628798 -0.377651
21.699474 -24.150640 -0.324131
21.476349 -22.595039 -0.448544
21.498962 -23.118973 -0.419193
21.376999 -23.641136 -0.483921
21.402769 -24.159061 -0.469200
21.145802 -22.624743 -0.437263
21.205635 -23.121338 -0.592216
21.062510 -23.658833 -0.548645
21.079430 -24.182219 -0.485012
20.858055 -22.619968 -0.646423
20.884171 -23.143406 -0.626614
20.738464 -23.683062 -0.561844
20.752789 -24.207880 -0.478378
20.535912 -22.642830 -0.678169
20.560951 -23.167181 -0.648422
20.390701 -23.724796 -0.435310
20.430302 -24.231659 -0.488373
20.205519 -22.673536 -0.658333
20.222933 -23.203556 -0.579464
20.081654 -23.739799 -0.520824
20.109838 -24.254663 -0.505295
19.882301 -22.698540 -0.674553
19.908792 -23.221142 -0.644299
19.766998 -23.758844 -0.574291
19.789608 -24.277987 -0.519367
19.557840 -22.725355 -0.678127
19.586567 -23.245863 -0.657444
19.451908 -23.778250 -0.625019
19.469635 -24.301626 -0.530609
19.235214 -22.750992 -0.688602
19.257572 -23.277645 -0.618690
19.125408 -23.807671 -0.594364
19.149948 -24.325579 -0.539009
18.907644 -22.782864 -0.657009
18.936338 -23.302971 -0.626072
18.810221 -23.827744 -0.639515
18.835772 -24.345589 -0.584023
18.585976 -22.809105 -0.661728
18.620365 -23.323261 -0.669941
18.489864 -23.852957 -0.642509
18.516380 -24.370182 -0.586823
18.261238 -22.840065 -0.634129
18.294855 -23.354557 -0.632309
18.169865 -23.878477 -0.642681
18.197350 -24.395081 -0.586807
17.947897 -22.856661 -0.702003
17.984219 -23.368879 -0.719875
17.850246 -23.904301 -0.640022
17.878700 -24.420284 -0.583973
17.626989 -22.883846 -0.698254
17.667540 -23.390209 -0.755470
17.531038 -23.930424 -0.634548
17.564281 -24.441626 -0.617931
17.310890 -22.904076 -0.740948
17.343472 -23.422400 -0.709324
17.215691 -23.952156 -0.665844
17.246128 -24.467447 -0.609524
16.989620 -22.933336 -0.721733
17.023752 -23.449608 -0.699821
16.900106 -23.974234 -0.694397
16.931561 -24.489454 -0.637985
16.670401 -22.960003 -0.719425
16.706650 -23.473206 -0.717171
16.581575 -24.001295 -0.680573
16.616779 -24.511801 -0.663719
16.350266 -22.989843 -0.694565
16.388264 -23.499725 -0.711975
16.266537 -24.022877 -0.713531
16.301811 -24.534489 -0.686707
16.033476 -23.012825 -0.716309
16.071304 -23.523970 -0.723785
15.948099 -24.051695 -0.684231
15.986680 -24.557512 -0.706963
15.716537 -23.036146 -0.735302
15.755279 -23.545975 -0.752659
15.632507 -24.075081 -0.701759
15.667936 -24.588898 -0.644955
15.399467 -23.059805 -0.751534
15.438213 -23.570881 -0.758961
15.316799 -24.098801 -0.716553
15.353247 -24.612541 -0.659698
15.082295 -23.083797 -0.765015
15.120375 -23.599918 -0.732761
15.000999 -24.122852 -0.728600
15.038465 -24.636517 -0.671707
14.765042 -23.108126 -0.775738
14.803930 -23.624184 -0.743454
14.685132 -24.147236 -0.737900
14.724310 -24.656889 -0.720779
14.447734 -23.132784 -0.783703
14.487536 -23.647524 -0.761322
14.369223 -24.171949 -0.744457
14.409070 -24.681549 -0.727325
14.130319 -23.168873 -0.709682
14.170815 -23.678703 -0.716908
14.053293 -24.196991 -0.748268
14.093813 -24.710415 -0.691311
13.813047 -23.183090 -0.791351
13.854359 -23.698957 -0.759033
13.737369 -24.222357 -0.749329
13.778557 -24.731850 -0.732185
13.495718 -23.208733 -0.791042
13.537224 -23.719593 -0.798409
13.420544 -24.242577 -0.797340
13.462633 -24.753664 -0.770313
13.178429 -23.234699 -0.787971
13.220155 -23.744293 -0.805267
13.104267 -24.268625 -0.792900
13.148158 -24.783442 -0.726082
12.859513 -23.254192 -0.831650
12.903304 -23.770552 -0.799442
12.789865 -24.300388 -0.736034
12.833063 -24.809717 -0.718918
12.544071 -23.287598 -0.773556
12.586956 -23.798344 -0.780945
12.470627 -24.318460 -0.805576
12.515891 -24.831640 -0.758751
12.222953 -23.303768 -0.841377
12.268391 -23.820406 -0.809273
12.156527 -24.349743 -0.753162
12.200586 -24.858585 -0.746094
11.902380 -23.324387 -0.876701
11.951031 -23.846439 -0.805088
11.840788 -24.377052 -0.737736
11.882996 -24.882168 -0.770454
11.584530 -23.352041 -0.859783
11.631637 -23.869228 -0.827854
11.518860 -24.395226 -0.808838
11.567665 -24.909767 -0.752293
11.273821 -23.391907 -0.751160
11.317825 -23.901861 -0.768620
11.202712 -24.423225 -0.787868
11.252533 -24.937675 -0.731392
10.946837 -23.404346 -0.847282
10.991346 -23.915924 -0.864990
10.883265 -24.447395 -0.803776
10.930669 -24.958727 -0.787125
10.624631 -23.426426 -0.871403
10.674240 -23.944502 -0.839794
10.563370 -24.471935 -0.816879
10.611486 -24.983761 -0.800339
10.308013 -23.456680 -0.833519
10.354328 -23.969904 -0.841476
10.766674 -25.002916 4.089191
10.533836 -24.777882 1.903038
10.243052 -24.496843 -0.827171
10.810902 -25.447325 4.122711
10.588912 -25.259916 2.012615
9.980661 -23.474321 -0.891411
10.343301 -24.317198 1.913769
10.502607 -25.036329 4.195959
10.254084 -24.816097 2.041401
10.549747 -25.481304 4.249317
10.319504 -25.303452 2.230171
10.210111 -24.086159 3.611349
10.013650 -23.877129 2.006790
10.064966 -24.358221 2.063080
10.234066 -25.064863 4.255587
10.283302 -25.510201 4.318775
9.931875 -24.112394 3.643248
9.745887 -23.928902 2.227146
9.890184 -24.489092 2.993038
9.961086 -25.089628 4.278065
10.007433 -25.532442 4.311487
9.771908 -25.377586 2.523567
9.472084 -23.971775 2.380878
9.645307 -24.547672 3.303566
9.622507 -25.068336 3.839863
9.739513 -25.560087 4.365845
9.499495 -25.413506 2.658859
9.288529 -24.090187 3.125576
9.353284 -24.565744 3.262032
9.262638 -25.039303 3.316586
9.473747 -25.588791 4.432362
9.198214 -25.431906 2.589436
8.911594 -24.041494 2.567665
9.078712 -24.597546 3.340946
8.970306 -25.058960 3.278709
9.132444 -25.576998 4.018866
8.755206 -24.169062 3.393745
8.798708 -24.625128 3.382977
8.681959 -25.081894 3.272926
8.972820 -25.660769 4.739319
8.615814 -25.482386 2.606335
8.604343 -24.289364 4.171270
8.512264 -24.648588 3.388281
8.365293 -25.089939 3.112904
8.699069 -25.684223 4.743687
8.331213 -24.316849 4.217155
8.040266 -24.119823 2.645966
8.254301 -24.689745 3.552572
8.487827 -25.326857 5.324196
8.089336 -25.121239 3.190807
8.563097 -25.769154 5.495348
8.248855 -25.629923 3.799837
8.414330 -24.573009 6.097256
8.305570 -24.906504 5.310150
7.900978 -24.674938 3.211296
8.233380 -25.357389 5.410845
7.676589 -25.085459 2.567585
8.342865 -25.812468 5.748056
7.728570 -25.555336 2.587452
8.154179 -24.596924 6.125450
8.139315 -24.985840 5.836567
7.468506 -24.621555 2.513103
8.052015 -25.421408 5.850807
7.344491 -25.093725 2.397747
8.138582 -25.860369 6.060955
7.910640 -24.630682 6.233633
7.545464 -24.418736 4.514730
7.889513 -25.016869 5.925810
7.850839 -25.473030 6.165096
6.990236 -25.094402 2.143539
8.018103 -25.937597 6.745758
7.027578 -25.565529 2.084343
7.649256 -24.653862 6.256590
7.717810 -25.085873 6.366800
7.596177 -25.499886 6.218237
7.058325 -25.274748 3.807751
7.764612 -25.962334 6.778284
7.387851 -24.677320 6.281874
7.493387 -25.126263 6.546837
7.630466 -25.642008 7.515352
5.681134 -24.864563 -0.876205
7.643545 -26.032188 7.386282
7.077770 -24.676477 6.106689
5.390442 -23.824389 -0.923622
7.239372 -25.152184 6.593138
7.443766 -25.689491 7.802830
5.348740 -24.892347 -0.872257
7.518670 -26.096714 7.936079
6.985169 -24.783133 6.821306
6.552757 -24.574097 5.086563
5.029706 -23.837828 -1.023579
7.447288 -25.375835 8.505222
6.968967 -25.171175 6.574074
6.543262 -24.989029 4.855358
7.356114 -25.771084 8.468285
7.386043 -26.155319 8.418224
6.663385 -24.777000 6.602526
4.721323 -23.877216 -0.908459
7.140951 -25.372053 8.282265
4.776402 -24.403606 -0.919559
7.144234 -25.804670 8.612593
7.139085 -26.177402 8.427488
4.738621 -25.472397 -0.861492
6.668910 -24.919043 7.625034
5.902813 -24.578487 4.765400
4.391185 -23.906519 -0.877106
6.725288 -25.327812 7.668383
6.215820 -25.127859 5.755125
4.439081 -24.430534 -0.917248
6.911080 -25.830530 8.671974
6.943405 -26.214251 8.631699
5.772381 -25.885767 4.257637
6.333417 -24.906412 7.352846
4.021119 -23.919182 -0.986385
6.673882 -25.426434 8.421757
5.996985 -25.171604 5.966053
6.643700 -25.845505 8.608616
6.686876 -26.233875 8.606586
6.334956 -25.035147 8.278320
5.915961 -24.863173 6.816893
3.667630 -23.940355 -1.025143
6.430524 -25.449951 8.456240
6.319540 -25.844057 8.356377
5.955409 -25.732775 7.092484
6.215150 -26.198900 7.835936
5.632812 -26.049509 5.802961
6.306988 -25.144543 9.049288
6.322198 -25.520592 8.951153
6.234872 -25.915115 8.929140
6.244609 -26.292292 8.812401
6.065337 -25.166533 9.077410
6.106182 -25.551889 9.065041
5.972422 -25.932619 8.891645
5.001226 -25.659084 5.728680
5.975840 -26.310019 8.755844
5.820640 -25.187693 9.098255
2.622890 -24.015713 -1.045261
5.870759 -25.576578 9.114201
2.708144 -24.559940 -0.972855
5.714779 -25.952154 8.875711
5.774452 -26.343729 8.920830
5.615668 -25.223249 9.244261
5.133451 -25.052811 7.759901
2.307716 -24.054054 -0.938240
5.620325 -25.596756 9.118097
5.505741 -25.984921 9.013868
5.421392 -26.344128 8.612778
4.586886 -26.163609 6.040792
2.320480 -25.673340 -0.944382
5.371660 -25.244850 9.269279
4.766070 -25.038290 7.459032
5.356802 -25.613503 9.086571
5.235043 -26.001842 8.964668
4.086172 -25.714167 5.543888
5.233126 -26.380938 8.819918
4.158079 -26.157787 5.602079
5.085412 -25.252872 9.174334
5.163099 -25.651064 9.264860
5.041020 -26.038040 9.144314
5.018649 -26.411837 8.943384
1.608987 -25.732418 -0.974915
4.644222 -25.212854 8.651167
1.206026 -24.118742 -1.060238
4.756852 -25.628916 8.834047
3.999271 -25.418680 6.683241
4.772721 -26.056377 9.109270
4.762446 -26.434544 8.946262
1.273195 -25.766840 -0.923862
4.669336 -25.320747 9.442001
4.637396 -25.687027 9.222931
4.499747 -26.074369 9.067541
0.833632 -25.254425 -0.972664
4.532911 -26.462603 9.026646
4.324544 -25.313328 9.205633
4.315747 -25.690773 9.051825
4.260396 -26.100348 9.121927
4.276192 -26.485909 9.034218
2.824516 -26.229465 5.144169
0.577211 -25.832470 -0.877926
4.146006 -25.356018 9.419024
4.008205 -25.699680 8.930830
0.202653 -24.748674 -1.034985
3.860084 -26.093052 8.759697
4.293880 -26.556240 9.761980
3.693487 -25.321394 8.930063
-0.217455 -24.231398 -1.002171
3.610627 -25.688145 8.590580
-0.136464 -24.783129 -0.971653
3.379486 -26.072220 8.216900
2.818933 -25.959843 6.797728
2.130149 -25.821758 5.053909
3.815903 -26.542477 9.196144
2.464707 -26.321905 5.758759
3.362115 -25.323406 8.769823
3.258407 -25.689869 8.384615
3.139586 -26.101480 8.299763
3.416974 -26.544376 8.858866
2.970102 -25.311218 8.475409
2.905640 -25.693283 8.191931
3.240782 -26.194477 9.204607
3.495704 -26.620495 9.698301
2.591610 -25.304995 8.231556
2.614632 -25.711912 8.159355
3.228068 -26.262608 9.802803
2.298657 -26.095161 7.618187
1.314573 -25.917864 5.305061
3.311836 -26.654974 9.881660
2.446054 -25.358191 8.539869
2.421156 -25.751921 8.358427
1.658900 -26.057358 6.805119
2.907904 -26.658339 9.553326
2.045758 -26.537951 7.565588
2.159389 -25.376369 8.521313
0.504457 -24.982033 4.801931
2.234363 -25.792700 8.567923
1.638213 -26.128319 7.422358
1.601878 -26.542542 7.213268
-2.061643 -26.050499 -1.036465
1.879812 -25.396898 8.523813
1.199076 -25.239550 7.029041
2.017458 -25.826870 8.706024
0.037986 -25.434576 4.339802
1.362169 -26.155264 7.456961
1.274969 -26.564371 7.139275
-2.414727 -26.087730 -0.978844
1.612034 -25.420656 8.556200
0.026841 -25.065123 5.154190
0.665419 -25.642967 6.395477
-0.383187 -25.441715 4.134956
-2.820144 -24.974005 -1.118477
1.229403 -26.205042 7.801630
-0.400556 -25.949705 4.311983
-2.921502 -25.554796 -1.085217
1.084830 -26.604063 7.367657
-2.805869 -26.120670 -0.999329
0.521505 -25.265724 6.865530
-3.277966 -24.438656 -1.106724
0.430284 -25.680182 6.546822
-0.441447 -25.518127 4.709585
0.903852 -26.224499 7.732330
1.103622 -26.668251 8.030132
-3.207133 -26.153191 -1.033791
1.311098 -25.518953 9.112200
-0.586345 -25.117992 5.218428
-3.674598 -24.465393 -1.119015
0.631982 -25.795856 7.597004
-0.412410 -25.607769 5.444361
-3.593455 -25.034889 -1.112228
0.453543 -26.226627 7.415522
0.600131 -26.670082 7.594427
0.132019 -25.355469 7.314198
0.399152 -25.830629 7.730537
0.188449 -26.257017 7.488392
0.105926 -26.675356 7.201166
-4.006169 -26.221159 -1.072098
1.265383 -25.663973 10.140997
-0.284225 -25.355196 7.096611
1.240468 -26.046921 9.982771
-0.048685 -25.828941 7.439117
-0.860040 -25.691753 5.838219
-0.684073 -26.204798 6.372366
0.178358 -26.743011 7.945400
-1.146910 -26.602312 5.336039
-4.408067 -26.256084 -1.084949
0.967388 -25.679649 10.100780
-0.273322 -25.439518 7.714785
1.042546 -26.081608 10.137545
1.218121 -26.524008 10.633583
0.498586 -26.429213 9.252682
1.127560 -26.897547 10.353214
0.009674 -26.783499 8.198631
0.714488 -25.704628 10.151796
0.804432 -26.109673 10.214508
0.081814 -25.994907 8.848070
0.829882 -26.532425 10.418530
0.892081 -26.926500 10.429955
0.433032 -25.724703 10.152744
0.353468 -26.105145 9.898802
0.651441 -26.568157 10.603067
0.714046 -26.961054 10.614347
-0.674058 -26.830400 8.048710
0.116846 -25.739210 10.095654
-6.122357 -24.631704 -1.175137
0.194586 -26.146381 10.130558
-2.126319 -25.800079 5.920347
0.320302 -26.585463 10.509457
0.431993 -26.985970 10.607565
-0.108201 -25.770367 10.206964
0.058308 -26.190306 10.397943
-0.092122 -26.594418 10.280701
0.085086 -27.005806 10.490677
-0.247712 -25.815870 10.467045
-0.282930 -26.204746 10.302452
-0.529489 -26.602192 10.022635
-1.792798 -26.462397 7.835077
0.083847 -27.055372 10.984232
-0.877523 -26.975426 9.312622
-0.742430 -25.802704 10.117741
-0.611721 -26.221937 10.236818
-0.612507 -26.649521 10.381098
-2.210441 -26.920721 7.554718
-7.236348 -26.520075 -1.011688
-0.905889 -25.844501 10.339212
-0.917111 -26.243126 10.217819
-0.947513 -26.669872 10.311131
-2.210078 -26.975300 8.098721
-7.715543 -26.554844 -1.101604
-1.368256 -25.839737 10.068453
-1.203133 -26.267483 10.236305
-1.399581 -26.679461 10.057762
-1.316591 -27.093668 10.090752
-2.623092 -26.998138 7.949717
-1.804777 -25.840904 9.854544
-8.694736 -24.809753 -1.192120
-1.616294 -26.276628 10.054428
-1.857136 -26.690195 9.810339
-3.349263 -26.547052 7.421726
-8.688121 -26.034885 -1.124760
-3.082095 -27.018934 7.737955
-8.577586 -26.634504 -1.094933
-3.663711 -25.636902 7.416817
-9.098594 -24.846228 -1.130844
-2.188563 -26.268181 9.633308
-2.046504 -26.727390 9.998592
-3.403781 -26.601839 7.867174
-3.401456 -27.050489 7.759962
-8.984138 -26.677155 -1.042263
-3.131532 -25.784307 8.765982
-2.190160 -26.328642 10.117382
-4.122411 -26.104172 7.123901
-9.442859 -25.486094 -1.118649
-2.233764 -26.764580 10.188227
-3.973859 -26.609425 7.507181
-9.553039 -26.111963 -1.088917
-2.099429 -27.186144 10.294956
-9.391416 -26.720377 -0.985275
-2.956332 -25.876463 9.529821
-9.990466 -24.909496 -1.120342
-2.563014 -26.345699 10.024229
-4.279923 -26.152468 7.414289
-9.891418 -25.520914 -1.115963
-2.523602 -26.792763 10.220919
-10.001294 -26.150330 -1.084667
-4.301145 -27.099291 7.422146
-9.898345 -26.758139 -1.074165
-3.342576 -25.890427 9.436550
-4.406037 -25.748325 7.856375
-10.463861 -24.938864 -1.144844
-4.700486 -26.171455 7.307325
-10.347196 -25.555862 -1.116528
-4.500033 -26.681862 7.755066
-10.440024 -26.190350 -1.058815
-4.709931 -27.127974 7.332386
-10.324954 -26.801737 -1.032513
-4.735581 -25.774799 7.883917
-10.922519 -24.971251 -1.139217
-4.707639 -26.235300 7.815548
-10.821616 -25.589779 -1.136665
-10.919639 -26.227901 -1.085732
-10.780789 -26.844412 -1.027431
-11.360019 -25.007277 -1.095695
-11.235446 -25.630930 -1.061180
-11.395772 -26.266737 -1.098877
-11.232593 -26.888138 -1.008957
-11.862193 -25.036158 -1.136734
-11.759456 -25.661793 -1.136028
-11.873944 -26.306393 -1.106491
-11.755288 -26.929123 -1.083187
-12.366937 -25.065950 -1.171825
-12.239860 -25.698139 -1.139767
-12.330630 -26.348530 -1.076202
-12.210843 -26.974442 -1.053844
-12.844563 -25.100090 -1.160782
-12.698554 -25.737497 -1.105728
-12.788676 -26.391394 -1.040722
-12.667762 -27.020485 -1.019321
-13.329921 -25.134348 -1.152195
-13.230374 -25.771145 -1.162418
-13.320107 -26.430273 -1.095848
-13.173942 -27.065220 -1.043591
-13.817094 -25.169428 -1.137936
-13.686442 -25.812616 -1.109371
-13.799760 -26.473581 -1.073082
-13.652165 -27.112076 -1.022049
-14.312148 -25.204670 -1.125862
-14.204791 -25.849661 -1.130066
-14.317878 -26.515471 -1.092014
-14.193311 -27.157419 -1.073891
-14.827630 -25.238836 -1.131420
-14.669810 -25.892147 -1.073975
-14.832131 -26.558649 -1.096851
-14.656753 -27.206631 -1.017101
-15.395423 -25.268892 -1.192917
-15.229785 -25.928015 -1.129318
-15.342252 -26.603081 -1.087734
-15.196483 -27.254080 -1.048450
-15.865026 -25.309893 -1.123928
-15.754861 -25.967819 -1.131306
-15.841619 -26.649061 -1.057049
-15.713494 -27.303307 -1.042217
-16.431622 -25.342558 -1.164413
-16.269321 -26.009487 -1.111584
-16.413155 -26.692341 -1.104740
-16.258129 -27.352709 -1.060444
-16.962292 -25.379843 -1.152218
-16.792068 -26.051580 -1.093300
-16.981205 -26.737024 -1.137642
-16.805233 -27.403109 -1.071934
-17.540718 -25.414000 -1.186398
-17.342808 -26.092812 -1.098934
-17.480019 -26.786051 -1.080326
-17.328590 -27.455143 -1.046368
-18.069206 -25.453791 -1.153378
-17.955215 -26.131176 -1.165340
-18.066063 -26.832170 -1.114540
-17.906548 -27.506901 -1.074528
-18.619419 -25.492817 -1.136246
-18.464561 -26.177433 -1.104641
-18.614922 -26.881046 -1.096680
-18.453941 -27.560425 -1.058105
-19.205338 -25.530094 -1.149204
-19.035671 -26.220865 -1.104389
-19.199512 -26.929586 -1.108925
-19.016823 -27.614672 -1.049683
-19.848221 -25.564209 -1.213295
-19.676994 -26.261406 -1.170322
-19.786694 -26.979214 -1.113758
-19.622669 -27.669268 -1.078228
-20.439789 -25.603762 -1.210918
-20.239689 -26.307804 -1.140549
-20.376366 -27.029928 -1.111126
-20.210838 -27.725319 -1.077137
-21.033787 -25.644402 -1.201038
-20.859623 -26.352238 -1.161503
-20.968456 -27.081730 -1.100986
-20.780663 -27.782717 -1.046894
-21.574268 -25.690090 -1.126492
-21.398724 -26.402140 -1.088539
-21.590843 -27.133760 -1.111877
-21.394341 -27.840677 -1.052418
-22.200562 -25.730869 -1.130280
-22.051678 -26.447409 -1.122524
-22.244179 -27.186169 -1.143032
-22.074009 -27.899225 -1.113907
-22.822418 -25.773296 -1.118935
-22.643932 -26.496950 -1.084587
-22.786781 -27.242868 -1.053196
-22.672062 -27.959751 -1.081833
-23.461060 -25.815956 -1.113468
-23.309731 -26.544338 -1.108868
-23.474003 -27.296921 -1.095901
-23.358147 -28.020895 -1.125816
-24.095074 -25.860262 -1.092773
-15.302670 -26.963894 7.186558
-23.848698 -26.598574 -0.999874
-24.077789 -27.354313 -1.046608
-23.924831 -28.083847 -1.043049
-24.680454 -25.908781 -1.015995
-24.090118 -26.665813 -0.603333
-24.771008 -27.410952 -1.071598
-24.594769 -28.147556 -1.049080
-24.334774 -26.732615 -0.212093
-25.408577 -27.470072 -1.033081
-25.252869 -28.212559 -1.032612
-16.473019 -26.528240 7.658566
-24.418877 -26.088341 0.461155
-24.346188 -26.807709 0.389217
-26.107613 -27.529335 -1.039894
-25.869068 -28.278732 -0.967068
-24.220909 -26.178820 1.238831
-24.230743 -26.886053 1.094669
-26.839500 -27.589497 -1.063877
-15.224309 -28.311195 9.164358
-26.651081 -28.346500 -1.040058
-23.598644 -26.288927 2.372375
-24.301201 -26.956667 1.624027
-27.574718 -27.651112 -1.077866
-27.331997 -28.415400 -1.009827
-23.664276 -26.361403 2.886814
-24.751278 -27.014631 1.818935
-28.030483 -28.485672 -0.983536
-17.311054 -26.736294 8.817087
-29.067684 -26.180672 -1.114323
-25.010166 -27.078741 2.180805
-28.967289 -26.963198 -1.175377
-25.081150 -27.819384 2.278408
-28.655216 -28.556667 -0.883152
-17.640530 -26.782473 9.005381
-22.131466 -26.578968 5.277695
-29.628044 -27.023363 -1.090912
-25.273361 -27.883410 2.694408
-29.365788 -28.629532 -0.845016
-22.205639 -26.645153 5.742231
-22.021198 -27.296322 5.773590
-30.290466 -27.084702 -0.997711
-25.616287 -27.946121 2.984951
-19.029713 -26.845486 8.805704
-31.251961 -26.338114 -0.987560
-21.847778 -27.364187 6.430758
-26.050732 -28.008583 3.204025
-32.202194 -26.384722 -1.096535
-22.057858 -27.422073 6.772751
-25.602684 -28.773815 3.994343
-32.991562 -26.439659 -1.063358
-22.209366 -27.480997 7.159164
-32.894829 -27.263313 -1.137482
-22.256145 -28.144831 7.258936
-33.895164 -26.492107 -1.103878
-22.444290 -27.538021 7.479397
-22.497475 -28.201683 7.573959
-28.766357 -27.491449 3.239498
-22.647820 -28.258472 7.956842
-22.517502 -28.890562 7.940948
-19.353523 -27.706654 10.738997
-22.891056 -28.315258 8.269398
-21.763660 -27.117825 9.548359
-22.839890 -27.713108 8.662725
-19.046803 -27.257950 11.934896
-22.759602 -27.773336 9.202303
-24.237251 -28.490301 8.781567
-24.136730 -29.133877 8.738811
-21.762169 -27.299080 10.934237
-38.865562 -27.744621 -0.864536
-21.499512 -27.955704 11.458176
-24.488636 -27.933458 9.452021
-21.429207 -28.010469 11.947906
-20.788429 -28.616888 12.486652
-20.192310 -29.178123 12.779970
13.857154 -28.226841 35.222282
13.892826 -28.229095 35.240574
13.792570 -28.229294 35.194881
13.846467 -28.231630 35.221493
13.898798 -28.226498 35.250679
13.890134 -28.229942 35.245892
13.843978 -28.228449 35.226273
13.826368 -28.233152 35.217102
13.833907 -28.229084 35.224186
13.852327 -28.232229 35.232315
13.841928 -28.229134 35.230656
13.824171 -28.233887 35.221798
13.877360 -28.228209 35.249329
13.895860 -28.230614 35.257221
13.839953 -28.229816 35.235073
13.822057 -28.234619 35.226528
13.811466 -28.231182 35.225418
13.848522 -28.233547 35.240833
13.884109 -28.228731 35.258923
13.902801 -28.230927 35.266354
13.883652 -28.232187 35.260403