# This PCD file was generated using the MATLAB® pcwrite function
# from Computer Vision System Toolbox®.
# .PCD v.7 - Point Cloud Data file format
VERSION .7
FIELDS x y z
SIZE 4 4 4
TYPE F F F
COUNT 1 1 1
WIDTH 898
HEIGHT 1
VIEWPOINT 0 0 0 1 0 0 0
POINTS 898
DATA ascii
41.194885 -23.972889 4.416990
40.765408 -24.003469 4.368473
39.906792 -24.137974 4.854326
39.699757 -23.546978 4.560919
39.854736 -24.079647 4.356123
39.690357 -23.470964 4.000719
39.875168 -24.002178 3.755264
39.666985 -23.396955 3.446033
39.854259 -23.857347 2.592491
39.614296 -23.245174 2.306694
39.772415 -23.800549 2.086979
39.572857 -23.170710 1.737865
39.753487 -23.726128 1.484417
37.233360 -23.751791 4.368212
37.212452 -24.309387 4.393454
36.830009 -23.786701 4.348585
36.798271 -24.344275 4.390980
36.416920 -23.825333 4.349810
36.363403 -24.385618 4.425865
35.978008 -23.872606 4.396671
35.997356 -24.409334 4.367626
35.612545 -23.898949 4.341890
35.610146 -24.439489 4.346302
35.204781 -23.938847 4.357204
35.202694 -24.476076 4.362450
34.825497 -23.970940 4.335621
34.818462 -24.507053 4.349936
34.442242 -24.005077 4.326584
34.414673 -24.544445 4.375221
34.039810 -24.046173 4.355438
34.033615 -24.576212 4.371416
33.700474 -24.067965 4.287434
33.679535 -24.600853 4.329470
33.261322 -24.122950 4.392889
33.276054 -24.640900 4.376440
32.924217 -24.145504 4.332727
32.919426 -24.667801 4.350977
32.548683 -24.181547 4.344706
32.544346 -24.701078 4.363722
32.174824 -24.217953 4.360806
32.170952 -24.734716 4.380589
31.821503 -24.248165 4.346317
31.822865 -24.761215 4.358097
31.450817 -24.285275 4.370415
31.485058 -24.785076 4.321789
31.204815 -24.278616 4.162220
31.225548 -24.783867 4.139832
30.768581 -24.340925 4.325190
30.753344 -24.853302 4.374109
30.406897 -24.377426 4.352020
30.405609 -24.882685 4.375223
30.055614 -24.410992 4.364992
30.076496 -24.906435 4.344418
29.891407 -25.424866 4.396511
29.880295 -25.924706 4.442497
29.727020 -24.436749 4.337120
29.731094 -24.936485 4.352642
29.568565 -25.446095 4.362444
29.554026 -25.945601 4.418011
29.386688 -24.467718 4.339397
29.403755 -24.960909 4.328606
29.209038 -25.479797 4.412588
29.211910 -25.971670 4.432867
29.010880 -24.513620 4.426035
29.011707 -25.009436 4.451893
28.884098 -25.503025 4.394297
28.875305 -25.996841 4.442223
28.713818 -24.528996 4.345438
28.719341 -25.022617 4.362686
28.544048 -25.531954 4.415545
28.567982 -26.013885 4.391428
28.377270 -24.560917 4.358149
28.395077 -25.048008 4.348747
28.236744 -25.550447 4.367449
28.229565 -26.040892 4.416557
28.019024 -24.602844 4.428848
28.040863 -25.085548 4.410908
27.883801 -25.585352 4.432001
27.892693 -26.068195 4.445175
27.696989 -24.630512 4.421265
27.715258 -25.113029 4.412834
27.563028 -25.609829 4.426888
27.576166 -26.089794 4.431313
27.394300 -24.650429 4.371098
27.398144 -25.137863 4.399675
27.246881 -25.633278 4.415751
27.242073 -26.117683 4.466673
27.073778 -24.678726 4.369734
27.092682 -25.158594 4.362007
26.924402 -25.659698 4.426197
26.920403 -26.142273 4.477688
26.740181 -24.713749 4.408430
26.759331 -25.191395 4.401165
26.596107 -25.689066 4.458401
26.620993 -26.160004 4.436182
26.422024 -24.742628 4.413517
26.427668 -25.224470 4.443724
26.279617 -25.714729 4.466009
26.304674 -26.183996 4.444084
26.104933 -24.771801 4.421734
26.124668 -25.246107 4.415245
25.964214 -25.740681 4.476732
25.976051 -26.213015 4.492487
25.775843 -24.807650 4.470324
25.795826 -25.279736 4.464283
25.649927 -25.766912 4.490549
25.662266 -26.237562 4.506708
25.486835 -24.824619 4.410133
25.494400 -25.301964 4.441769
25.349480 -25.788155 4.469877
25.362364 -26.257673 4.486372
25.160358 -24.861015 4.465014
25.168503 -25.336123 4.497208
25.049549 -25.809696 4.452038
25.249062 -26.207565 3.902828
24.859941 -24.884953 4.447992
25.175629 -25.212452 3.529552
25.066002 -25.693953 3.445148
25.102222 -26.167536 3.394524
24.645439 -24.863232 4.160486
24.879889 -25.230114 3.475269
24.790634 -25.702078 3.325962
24.829878 -26.174908 3.265816
25.576578 -24.206417 0.075047
24.629997 -25.225014 3.272152
24.539583 -25.698856 3.123596
23.418053 -26.647396 6.935287
25.468834 -25.809948 0.095039
25.275648 -24.212416 -0.068420
23.200500 -25.827829 7.077686
24.371777 -25.223240 3.089882
25.303221 -24.742447 -0.081371
23.080477 -26.263937 7.085030
25.113234 -25.306248 0.065937
25.122643 -25.837864 0.115452
22.950298 -25.400635 6.925850
24.935371 -24.240877 -0.076393
22.920889 -25.853615 7.098181
24.944342 -24.779697 -0.022404
22.817739 -26.280666 7.049860
24.786131 -25.327099 0.022358
24.799154 -25.856819 0.062672
24.590601 -24.272804 -0.062134
24.608335 -24.805763 -0.036278
22.565426 -26.292511 6.978779
24.461699 -25.347008 -0.027832
22.589703 -26.712231 6.963110
24.475578 -25.876133 0.012794
24.262079 -24.295637 -0.101913
24.272923 -24.832153 -0.047050
22.274923 -26.323980 7.053810
24.124252 -25.908442 0.071526
23.919022 -24.328190 -0.081295
22.157156 -25.892509 6.907125
23.935677 -24.860292 -0.045135
22.092949 -26.299164 6.708555
22.621578 -26.483767 4.699076
23.806370 -25.926126 0.008427
23.593618 -24.350136 -0.124603
23.594511 -24.891579 -0.020866
21.847086 -26.306881 6.605206
22.358578 -26.492903 4.591305
23.268213 -24.372433 -0.165001
23.270519 -24.913250 -0.060822
21.509888 -26.365940 6.890270
23.150068 -25.437826 -0.141571
21.254480 -26.924030 8.074743
22.126017 -26.486494 4.350300
22.927519 -24.405918 -0.135048
21.360771 -25.952488 6.861612
22.970753 -24.919746 -0.204067
21.444963 -26.268724 5.988468
22.847767 -25.446758 -0.273911
21.029179 -26.927717 7.940023
22.636433 -24.404167 -0.323952
22.667055 -24.928093 -0.335175
22.337601 -25.581446 0.556393
20.806232 -26.929516 7.787674
22.192421 -26.183146 1.357601
22.302347 -24.433701 -0.317120
22.308971 -24.973320 -0.211792
20.907608 -26.305893 5.940369
20.697641 -26.866577 7.072639
21.937075 -26.173815 1.068241
21.976774 -24.457399 -0.345985
22.000380 -24.985209 -0.317951
20.668764 -26.305420 5.769030
21.852736 -25.527674 -0.256699
20.744362 -26.707308 5.509119
21.643944 -24.487555 -0.333130
20.084518 -26.200388 7.982267
21.671967 -25.011433 -0.324234
21.531094 -25.549410 -0.290443
20.492130 -26.714592 5.387938
21.340139 -24.493607 -0.472836
19.873970 -26.188051 7.749578
21.367102 -25.019939 -0.454227
19.842232 -26.550097 7.346485
19.894779 -26.939468 7.186228
20.238272 -26.722258 5.268824
21.012671 -24.519871 -0.483414
19.686781 -26.154076 7.362263
21.036911 -25.048237 -0.445061
19.634272 -26.533779 7.056694
19.632772 -26.961967 7.209431
20.688763 -24.543428 -0.510571
20.694626 -25.087856 -0.354717
19.558252 -26.410440 5.915876
20.572548 -25.611715 -0.413803
19.400059 -26.964924 7.058380
20.361902 -24.570345 -0.515339
20.389332 -25.096130 -0.486320
19.223682 -26.486788 6.353880
19.269760 -26.891794 6.221300
20.036892 -24.596073 -0.526974
18.912531 -26.222792 7.402992
18.887415 -26.571491 6.864246
18.961746 -26.945957 6.525730
19.708168 -24.626621 -0.506348
18.680824 -26.220741 7.237984
18.660189 -26.563135 6.630554
19.002590 -26.244627 4.062792
18.721619 -26.949184 6.370195
19.382761 -24.654470 -0.502396
18.830141 -25.805613 4.077429
19.417433 -25.172476 -0.512032
18.640020 -26.346346 4.704395
18.772186 -26.697739 3.878670
19.059021 -24.681139 -0.505367
19.089417 -25.203962 -0.475521
18.390463 -26.339989 4.472307
18.964634 -25.730587 -0.497658
18.077858 -27.102535 7.408087
18.396458 -26.805946 4.672501
18.731348 -24.714050 -0.466164
18.762455 -25.235720 -0.436062
17.777126 -26.745724 7.618176
18.636187 -25.763765 -0.436844
17.819036 -27.129690 7.477358
18.416595 -24.729511 -0.542122
18.449549 -25.250338 -0.521866
17.625086 -26.645037 6.622602
18.318836 -25.785208 -0.471889
17.640871 -27.071220 6.747433
18.097265 -24.751255 -0.575989
17.448946 -26.268932 6.826181
18.129114 -25.274700 -0.535915
17.373177 -26.657799 6.557076
17.421700 -27.047569 6.335350
17.774426 -24.779215 -0.567635
17.199841 -26.278542 6.742205
17.807943 -25.300718 -0.537281
17.121964 -26.668522 6.473911
17.674637 -25.842194 -0.424831
17.087038 -27.166037 7.263027
17.454952 -24.801643 -0.595921
17.484106 -25.332336 -0.496296
17.357510 -25.864626 -0.451515
17.392838 -26.377935 -0.435856
17.130789 -24.834591 -0.552311
17.165838 -25.355015 -0.521690
17.040188 -25.887405 -0.475445
16.685308 -27.042227 5.694578
17.078707 -26.396526 -0.499439
16.811531 -24.857677 -0.574993
16.847385 -25.378042 -0.544315
16.722694 -25.910530 -0.496620
16.335880 -27.224907 7.256247
16.762079 -26.418600 -0.530529
16.492111 -24.881109 -0.594906
16.528774 -25.401417 -0.564175
16.405054 -25.933998 -0.515038
16.084751 -27.247414 7.281542
16.441936 -26.448183 -0.489304
16.170660 -24.912054 -0.562592
16.208073 -25.431612 -0.531727
16.085857 -25.962425 -0.490982
16.122341 -26.479048 -0.435333
15.851429 -24.936142 -0.576931
15.889648 -25.455639 -0.546028
15.768345 -25.986551 -0.503857
15.653912 -27.044884 4.892267
15.808110 -26.495024 -0.527729
15.532113 -24.960571 -0.588493
15.571139 -25.480007 -0.557564
15.348721 -26.640636 4.969044
15.452236 -26.001890 -0.593445
15.382072 -27.075695 4.983147
15.489866 -26.524473 -0.488098
15.212378 -24.989582 -0.567577
15.251527 -25.514917 -0.486988
15.133121 -26.035814 -0.521339
15.173641 -26.543243 -0.555138
14.893317 -25.010448 -0.603294
14.934175 -25.523415 -0.621922
14.815502 -26.056442 -0.565681
14.856215 -26.568359 -0.559734
14.573887 -25.035889 -0.606525
14.615336 -25.555134 -0.575554
14.497490 -26.081936 -0.567528
14.539111 -26.598715 -0.511814
14.253757 -25.054703 -0.656494
14.296201 -25.575825 -0.615688
14.179502 -26.107763 -0.566597
14.221382 -26.619587 -0.560646
13.933251 -25.076689 -0.683872
13.976187 -25.595657 -0.662975
13.861559 -26.133919 -0.562912
13.904263 -26.646662 -0.547012
13.614178 -25.107317 -0.649071
13.658410 -25.628292 -0.608288
13.543688 -26.160400 -0.556458
13.586736 -26.672127 -0.550526
13.294501 -25.134117 -0.641190
13.337669 -25.648853 -0.650009
13.225913 -26.187208 -0.547237
13.269957 -26.699839 -0.531376
12.973464 -25.157152 -0.660213
13.018560 -25.675941 -0.639366
12.906214 -26.210005 -0.574970
12.950973 -26.723129 -0.559189
12.648580 -25.172421 -0.735786
12.695625 -25.694824 -0.695312
12.588354 -26.237486 -0.560215
12.633783 -26.750553 -0.544464
12.332238 -25.208374 -0.660194
12.376198 -25.722609 -0.679089
12.267925 -26.261013 -0.582375
12.316761 -26.778297 -0.526981
12.008120 -25.228466 -0.700466
12.056950 -25.750713 -0.660091
11.949308 -26.288099 -0.571980
11.996132 -26.801743 -0.556381
11.688187 -25.256968 -0.678627
11.737908 -25.779137 -0.638313
11.624729 -26.308146 -0.628159
11.675697 -26.826494 -0.573044
11.372177 -25.291088 -0.614529
11.418184 -25.806686 -0.623650
11.306561 -26.336994 -0.602264
11.589029 -27.079271 1.901764
11.355745 -26.852530 -0.576981
11.041966 -25.305696 -0.695637
11.091548 -25.826309 -0.675358
11.254668 -26.633804 1.978649
10.977318 -26.354742 -0.682419
11.303711 -27.115368 2.027481
10.717807 -25.329958 -0.704815
10.768148 -25.851059 -0.684677
10.980598 -26.680763 2.195663
11.004906 -27.139116 2.017010
10.724455 -25.719009 2.045223
10.783038 -26.212439 2.159172
10.711308 -26.728720 2.424767
10.710470 -27.166748 2.048740
10.715625 -26.039204 4.300972
10.449100 -25.767605 2.235737
10.748070 -26.478207 4.221888
10.520329 -26.269085 2.438492
10.399334 -26.740158 2.300896
10.541670 -27.280384 3.051189
10.462819 -26.087378 4.501354
10.180897 -25.820076 2.457958
10.238056 -26.304953 2.542679
10.576307 -27.110861 5.697681
10.190917 -26.829512 2.938641
10.335499 -27.358021 3.659348
10.122566 -27.222857 2.119869
10.177230 -26.103611 4.458435
9.904782 -25.862297 2.603809
9.947319 -26.333010 2.580425
10.316570 -27.138342 5.752636
10.293468 -27.525919 5.313475
10.061305 -27.388624 3.736370
9.889082 -26.118969 4.408291
9.637037 -25.909683 2.791138
10.067966 -26.667690 5.281782
9.653917 -26.359081 2.601070
10.017258 -27.140348 5.554247
9.501619 -26.811335 2.280907
10.032543 -27.554520 5.381021
9.798920 -27.425371 3.884644
9.526875 -27.274982 2.142155
9.623957 -26.153637 4.507584
9.323856 -25.919291 2.686974
9.823704 -26.709705 5.458445
9.342930 -26.373117 2.516411
9.679863 -27.122438 5.152617
9.228790 -26.852093 2.443180
9.782234 -27.588364 5.509790
9.491748 -27.437798 3.749947
9.228849 -27.301533 2.157238
9.309273 -26.150917 4.315863
9.033998 -25.948195 2.732349
9.278315 -26.551317 3.874247
9.230213 -27.046322 4.156538
8.906843 -26.863791 2.313572
9.248527 -27.483263 4.001055
8.930737 -27.328409 2.174957
9.049788 -26.189875 4.449306
8.724939 -25.963697 2.672878
9.065011 -26.620310 4.282238
8.733263 -26.413717 2.453533
8.957838 -27.076216 4.223022
9.143888 -27.590412 4.989218
8.625382 -27.352314 2.156101
8.898889 -26.299271 5.140385
8.862194 -26.691107 4.711077
8.451225 -26.448877 2.553177
8.767567 -27.147326 4.712093
8.319368 -26.921349 2.395855
8.975280 -27.661087 5.555977
8.334341 -27.383129 2.218304
8.570002 -26.288908 4.887968
8.610088 -26.729939 4.858379
8.164687 -26.480955 2.625957
8.375935 -27.117758 4.167862
8.735607 -27.698009 5.722721
8.036106 -27.410969 2.243946
8.513870 -26.444763 5.959957
8.140366 -26.222170 4.182360
7.832173 -26.038500 2.715599
8.205860 -26.686882 4.268072
7.881023 -26.514339 2.710930
8.155815 -27.171867 4.485186
7.739368 -26.982845 2.517639
8.451292 -27.716618 5.666988
7.752227 -27.444708 2.340511
8.278369 -26.486696 6.128922
7.481087 -26.033915 2.492741
8.427599 -26.967154 6.606609
7.917808 -26.709417 4.265287
7.526472 -26.511570 2.468006
8.168341 -27.323978 5.834581
8.289424 -27.781385 6.178698
8.257654 -26.643692 7.228876
7.092458 -26.012136 2.128258
8.353139 -27.081186 7.455463
8.183877 -27.465662 7.094152
8.022821 -27.805790 6.195288
8.026181 -26.680023 7.361071
8.149125 -27.127720 7.693741
7.667376 -27.388165 6.036440
7.682314 -27.805847 5.903864
6.117534 -27.282873 -0.682644
7.844180 -26.740030 7.687939
7.856417 -27.133478 7.556726
7.900175 -27.600800 8.078505
7.465270 -27.847889 6.138849
5.776229 -27.309860 -0.705311
7.694546 -26.812618 8.121672
7.717912 -27.205929 8.039547
7.723295 -27.650530 8.387915
7.664869 -28.015362 7.988602
7.534180 -26.876560 8.488722
7.455375 -27.224546 8.022535
6.460382 -26.823301 4.252207
5.148107 -26.294109 -0.720398
7.620698 -27.723764 8.958178
5.072136 -26.850094 -0.588966
7.614852 -28.097935 8.772476
7.298124 -26.904394 8.559576
6.508241 -26.558743 5.686146
4.741535 -25.785637 -0.740768
7.275961 -27.275978 8.315069
7.267557 -27.710817 8.587177
7.461766 -28.147055 9.132015
7.052356 -28.033449 7.641388
6.992165 -26.902702 8.384010
6.226039 -26.580460 5.689270
7.114676 -27.332184 8.656513
4.446447 -26.341526 -0.783760
7.096281 -27.758389 8.881239
7.112782 -28.142250 8.782219
6.674211 -26.898291 8.183069
4.058663 -25.839907 -0.720539
6.936512 -27.380081 8.922298
6.024266 -27.054655 5.799028
4.116084 -26.373947 -0.734047
6.861918 -27.785248 8.946894
6.869539 -28.167019 8.819288
6.562705 -26.976639 8.679705
5.706226 -26.642941 5.855526
6.569949 -27.361742 8.550804
6.456847 -27.762590 8.452198
6.626400 -28.192043 8.858547
6.361410 -27.017561 8.863249
5.358582 -26.641064 5.657475
6.358946 -27.398163 8.706266
5.903668 -27.247873 7.242802
3.384855 -26.416401 -0.853783
6.335288 -27.822897 8.894175
6.297113 -28.197180 8.623857
5.675351 -28.052025 6.633772
3.387624 -27.517941 -0.688602
6.013301 -27.004341 8.584742
6.122725 -27.425909 8.778048
5.618196 -27.265526 7.204729
3.053006 -26.450089 -0.794548
6.144106 -27.862059 9.099186
5.097390 -27.581388 5.865969
4.603192 -27.448872 4.339434
5.960109 -28.202452 8.383347
5.847682 -27.057703 8.876204
5.859062 -27.445244 8.766815
5.883400 -27.882433 9.088030
4.282097 -27.469311 4.284744
5.822444 -28.252436 8.762186
4.418692 -27.950758 4.529058
2.669497 -27.574841 -0.745781
5.619022 -27.088028 8.970968
4.651273 -26.761608 6.139536
5.661885 -27.484823 8.956043
5.699516 -27.922453 9.305664
5.529608 -28.268730 8.669212
5.490308 -27.150742 9.349054
1.909370 -25.983824 -0.836956
5.457520 -27.521545 9.118475
1.989914 -26.533524 -0.796261
5.379493 -27.929043 9.129665
5.198163 -28.278366 8.475714
1.952779 -27.635155 -0.770161
5.158031 -27.147003 9.147598
5.326085 -27.577732 9.479202
5.093141 -27.944975 9.060301
5.164118 -28.346176 9.121353
4.793882 -27.135616 8.875305
3.596342 -26.770788 5.649717
5.038105 -27.590427 9.401201
3.226543 -27.109308 4.497194
1.249352 -26.584200 -0.855175
4.891916 -27.980743 9.227463
4.932514 -28.374868 9.204090
4.580160 -27.171133 9.016169
3.786625 -26.937216 6.934538
3.088737 -26.731493 5.103821
4.733961 -27.600023 9.288952
3.949838 -27.398830 7.221813
2.593516 -27.050821 3.646217
4.582504 -27.992859 9.107410
4.382193 -28.347525 8.449341
3.594161 -28.208847 6.378548
4.335574 -27.197405 9.075352
2.719368 -26.736210 4.944159
4.459683 -27.618294 9.263510
2.851761 -27.219543 5.133366
4.412359 -28.034962 9.352730
4.442539 -28.427883 9.301241
4.161683 -27.243372 9.312162
4.254436 -27.653818 9.416576
3.338259 -27.434141 7.122505
4.018625 -28.031605 9.034683
3.975062 -28.418535 8.797235
3.945756 -27.277025 9.439590
3.952971 -27.666615 9.331526
3.888697 -28.081314 9.376022
3.873503 -28.469471 9.213499
3.824073 -27.334846 9.788797
3.726375 -27.697281 9.433434
3.659065 -28.111151 9.469585
3.515088 -28.480188 9.003822
3.459126 -27.329720 9.562664
-1.043033 -26.197136 -0.860188
3.370911 -27.699900 9.235226
3.291535 -28.116268 9.244789
2.593844 -27.991100 7.633837
3.041587 -28.475729 8.541655
2.409235 -28.384071 7.074778
3.113596 -27.331390 9.395477
2.171612 -27.101576 7.265818
2.826501 -27.664534 8.621675
2.814158 -28.104078 8.787273
2.797130 -28.505905 8.624571
2.587817 -27.292067 8.842411
2.655475 -27.709339 8.869511
2.719692 -28.158905 9.199020
2.746493 -28.562231 9.137342
1.981822 -28.459610 7.444904
2.352803 -27.323629 8.946680
1.674963 -27.167961 7.483568
-2.228892 -26.271435 -0.942879
2.237479 -27.704605 8.575287
1.875147 -28.090891 7.981617
2.498585 -28.591255 9.204857
1.601896 -28.475468 7.265234
1.675375 -27.256538 8.117439
-2.613238 -26.300619 -0.932285
1.609354 -27.661995 7.853579
-2.490239 -26.879036 -0.836067
1.188354 -28.054256 7.155313
2.105844 -28.602501 8.967741
1.345996 -28.508099 7.360844
0.986918 -27.192791 7.306787
0.114267 -27.003956 5.505978
-2.985600 -26.333172 -0.890934
1.123675 -27.650385 7.463842
1.297071 -28.142401 8.008276
-0.093511 -27.932537 5.145000
1.295125 -28.565371 7.881319
0.030100 -28.414175 5.265032
0.994945 -27.280954 7.942354
1.088837 -27.722385 8.010199
-0.044384 -27.519188 5.712502
0.900486 -28.153240 7.811476
-0.288690 -27.979832 5.416021
-3.408057 -27.524956 -0.867569
0.929282 -28.584703 7.746983
-0.146037 -28.461079 5.571367
0.671250 -27.298281 7.900488
-0.075350 -27.145924 6.425709
-3.826337 -26.380461 -0.983727
0.649702 -27.721775 7.736029
0.702682 -28.193638 8.019955
-3.816752 -27.556837 -0.888992
0.663707 -28.616264 7.821939
-0.829970 -27.083092 5.588789
-4.197242 -26.415607 -0.921623
0.264145 -27.732288 7.582594
-4.118075 -26.994164 -0.926891
0.296254 -28.205223 7.822159
-0.943659 -28.036413 5.429646
0.357210 -28.643721 7.819519
-0.856543 -28.514685 5.467361
0.218766 -27.373142 8.205975
0.106997 -27.781548 7.874956
0.179540 -28.256462 8.185076
-0.076088 -28.658800 7.581732
-1.189156 -28.545052 5.469805
1.080303 -27.613798 10.373398
-0.210733 -27.372211 7.980122
-0.513272 -27.756609 7.298233
-5.005584 -27.045561 -1.065018
-0.207178 -28.272284 8.038614
-0.041167 -28.721439 8.228985
-4.912265 -28.243061 -0.822403
0.892541 -27.651964 10.551935
-0.425350 -27.843979 8.041769
-0.645716 -28.283033 7.809374
-0.294319 -28.754795 8.330708
0.677610 -27.684944 10.679716
0.590226 -28.066204 10.417883
-5.757180 -27.121906 -0.922298
0.571144 -28.491796 10.534571
-0.805226 -28.328550 8.090179
-0.615178 -28.782179 8.312769
-5.740581 -28.317829 -0.828064
0.399458 -27.706976 10.696970
0.241076 -28.080177 10.314690
-0.995702 -27.901793 8.149382
-1.045527 -28.364159 8.224501
-0.912629 -28.812256 8.341694
-1.656857 -28.747536 7.040951
-0.211572 -27.673956 10.149532
-0.095829 -28.096985 10.241491
-2.667331 -27.737394 5.828726
-6.569783 -27.191690 -0.867985
-1.739015 -28.349655 7.585674
-6.702008 -27.800632 -0.881683
-1.633769 -28.807457 7.648907
-0.971094 -27.620445 9.379694
-1.900680 -27.469549 7.822290
-1.979585 -27.905062 7.573841
-6.954679 -27.230591 -0.795815
-1.886268 -28.396984 7.890928
-2.757279 -28.303955 6.433985
-2.173814 -28.820517 7.292793
-6.993890 -28.434887 -0.803070
-1.936862 -27.539194 8.306019
-2.457482 -27.911663 7.334108
-2.538817 -28.391518 7.361080
-3.594010 -28.282732 5.630291
-7.565274 -27.873314 -0.883621
-2.394506 -28.860092 7.482010
-3.550939 -28.771427 5.577358
-7.440289 -28.473223 -0.828423
-2.318000 -27.554052 8.220900
-2.358436 -27.993629 8.042587
-3.260783 -27.878668 6.582806
-3.423194 -28.365973 6.484219
-7.978185 -27.912800 -0.843555
-7.846625 -28.515415 -0.780796
-2.765798 -27.560131 8.039223
-2.854796 -27.999348 7.784876
-3.801757 -27.882406 6.282217
-3.356490 -28.436209 7.147381
-4.179708 -28.357195 5.848274
-3.357720 -28.902252 7.028908
-8.269738 -28.557064 -0.754219
-4.104177 -27.438744 6.489244
-8.848458 -26.750763 -0.866493
-4.209037 -27.904318 6.207083
-8.744874 -27.361431 -0.854046
-4.558423 -28.386843 5.827276
-8.844655 -27.990074 -0.808910
-8.737279 -28.596457 -0.790264
-9.282456 -26.784796 -0.838425
-9.166986 -27.399515 -0.810135
-9.299146 -28.028023 -0.813625
-9.185193 -28.638088 -0.787510
-9.734326 -26.817219 -0.830452
-9.606656 -27.436357 -0.786560
-9.727607 -28.069128 -0.771729
-9.612552 -28.681822 -0.746475
-4.471108 -27.612087 7.559231
-10.227159 -26.845140 -0.875061
-10.109378 -27.467173 -0.848927
-10.202172 -28.107145 -0.791126
-10.063426 -28.724888 -0.733814
-10.711165 -26.875439 -0.897522
-10.586539 -27.501934 -0.864292
-10.701680 -28.144173 -0.837826
-10.561406 -28.766153 -0.781769
-11.191617 -26.907320 -0.906219
-11.042756 -27.539877 -0.841511
-11.128686 -28.187889 -0.772671
-11.015883 -28.810787 -0.758503
-11.650737 -26.942886 -0.876999
-11.547021 -27.573952 -0.878445
-11.638299 -28.226181 -0.816238
-11.518483 -28.853807 -0.794991
-12.158481 -26.973576 -0.906902
-12.000747 -27.614027 -0.836864
-12.097268 -28.269201 -0.781269
-11.976323 -28.900005 -0.760986
-12.620868 -27.010710 -0.866859
-12.515313 -27.649290 -0.870239
-12.605460 -28.309689 -0.805069
-12.483293 -28.944778 -0.785877
-13.126834 -27.043829 -0.877125
-12.978095 -27.690367 -0.825855
-13.109954 -28.351496 -0.814846
-12.944257 -28.992538 -0.741001
-13.647202 -27.076515 -0.897156
-13.490918 -27.727947 -0.839417
-13.573712 -28.396893 -0.763355
-13.430881 -29.040043 -0.722507
-14.083400 -27.119314 -0.801277
-13.987477 -27.767998 -0.823292
-14.119143 -28.438173 -0.808491
-13.993381 -29.085560 -0.792557
-14.651261 -27.149223 -0.863956
-14.523255 -27.805870 -0.848095
-14.636092 -28.482298 -0.807972
-14.484122 -29.134855 -0.761948
-15.146499 -27.187815 -0.826855
-15.017398 -27.848183 -0.812149
-15.123477 -28.529087 -0.762550
-15.001691 -29.184132 -0.756542
-15.694318 -27.222277 -0.845291
-15.538547 -27.889397 -0.801140
-15.650594 -28.574650 -0.757492
-15.514897 -29.234524 -0.737194
-16.244640 -27.257751 -0.856995
-16.087440 -27.929649 -0.814377
-16.218575 -28.619205 -0.791759
-16.062180 -29.284876 -0.749847
-16.771313 -27.296619 -0.831676
-16.612736 -27.972742 -0.790531
-16.743645 -28.667034 -0.765942
-16.592319 -29.336760 -0.732990
-17.326145 -27.334070 -0.830006
-17.192451 -28.013191 -0.820499
-17.296898 -28.714573 -0.763790
-17.144146 -29.389095 -0.732231
-17.856655 -27.374815 -0.791676
-17.688660 -28.060373 -0.746109
-17.885700 -28.761677 -0.792042
-17.691578 -29.442587 -0.717144
-18.469398 -27.409767 -0.835594
-18.306572 -28.100773 -0.799210
-18.436966 -28.811567 -0.768444
-18.281330 -29.496233 -0.739750
-19.085281 -27.445919 -0.871647
-18.887157 -28.144848 -0.800232
-18.996983 -28.862175 -0.745342
-18.833164 -29.551762 -0.710712
-19.649487 -27.487545 -0.841595
-19.449673 -28.191191 -0.772060
-19.613819 -28.911770 -0.773499
-19.427925 -29.607586 -0.718594
-20.243263 -27.528088 -0.833374
-20.069302 -28.235464 -0.794735
-20.205933 -28.963522 -0.764801
-20.018345 -29.664635 -0.711628
-20.811535 -27.571768 -0.788998
-20.670944 -28.282049 -0.787884
-20.807365 -29.016144 -0.755722
-20.632011 -29.722511 -0.718662
-21.465939 -27.610476 -0.822670
-21.317112 -28.327599 -0.816029
-21.425255 -29.069456 -0.753139
-21.255341 -29.781483 -0.724873
-22.095161 -27.652416 -0.819603
-21.916782 -28.376846 -0.786331
-22.024380 -29.124544 -0.721443
-21.852978 -29.841904 -0.694763
-22.726971 -27.695549 -0.808388
-22.575691 -28.424507 -0.804920
-22.682865 -29.179199 -0.737896
-22.452698 -29.903414 -0.656998
-23.332432 -27.741714 -0.761322
-23.122356 -28.478619 -0.703930
-23.286533 -29.236565 -0.690331
-23.076042 -29.965893 -0.632320
-23.997982 -27.785381 -0.761303
-23.815228 -28.527414 -0.733559
-23.979458 -29.293028 -0.717247
-23.774330 -30.029255 -0.668217
-24.666309 -27.830330 -0.752499
-24.452797 -28.579975 -0.699455
-24.646248 -29.351484 -0.707699
-24.410015 -30.094158 -0.633446
-25.329922 -27.876984 -0.728123
-25.151623 -28.631433 -0.710960
-25.345261 -29.410654 -0.716209
-25.106972 -30.160219 -0.644283
-26.003433 -27.924479 -0.701656
-25.793983 -28.686453 -0.659660
-26.017456 -29.471718 -0.688667
-25.777164 -30.227615 -0.619011
-15.180369 -28.584415 9.438248
-26.761974 -27.968861 -0.738804
-26.550800 -28.738737 -0.699142
-26.774727 -29.532772 -0.724754
-26.532314 -30.296526 -0.657555
-27.509003 -28.015560 -0.752483
-15.422370 -29.183523 9.579498
-27.213058 -28.795797 -0.643101
-15.606679 -30.314089 9.437775
-28.221199 -28.065624 -0.723625
-15.541829 -29.236546 9.931366
-27.968658 -28.851244 -0.656094
-15.570914 -29.812300 10.028238
-15.535764 -30.362280 9.954075
-28.759438 -28.125372 -0.537971
-28.589546 -28.912228 -0.543194
-15.692502 -29.862886 10.374254
-15.880006 -30.412798 10.114294
-25.293041 -28.366781 2.935028
-16.263256 -29.328188 10.228975
-29.335125 -28.970900 -0.523857
-15.872226 -29.912661 10.669802
-15.829717 -30.460110 10.602432
-25.537968 -28.433092 3.312386
-16.088028 -29.962078 10.935253
-16.099983 -30.510120 10.823914
-25.818485 -28.497705 3.660564
-16.756096 -29.427195 10.724257
-16.474083 -30.010618 11.066185
-16.572315 -30.562851 10.886623
-31.976437 -28.330120 -0.556953
-25.549343 -29.288620 4.306248
-16.612190 -28.994543 11.810312
-25.487041 -29.359312 4.910501
-17.413055 -30.109093 11.215302
-17.099560 -30.664444 11.353336
-25.457199 -29.428249 5.481289
-28.821266 -30.153908 3.107353
-17.628273 -30.720016 11.389469
-22.602501 -28.903294 8.247860
-21.625164 -29.560520 8.854677
-28.782890 -30.970181 3.584911
-22.799511 -28.962704 8.600105
-28.795013 -30.288755 4.286890
-28.888325 -31.034626 4.086161
-23.449669 -29.008053 8.629705
-22.671894 -29.665865 9.068733
-28.738796 -30.354727 4.895866
-23.855995 -29.061794 8.840015
-24.129440 -29.119658 9.145668
-21.481953 -31.041468 10.866499
-24.570854 -29.827879 9.225008
-23.468849 -31.141321 9.985407
-28.808834 -30.612356 7.056065
-28.575253 -31.328993 7.085129
-28.878258 -30.675713 7.547844
-28.576874 -31.387312 7.619259
-28.623066 -31.446375 8.119095
-19.622990 -30.714928 14.772552
14.582524 -30.184189 35.656364
14.527232 -30.183098 35.632442
14.536453 -30.186594 35.636620
14.606592 -30.183859 35.675053
14.525056 -30.183794 35.636761
14.507542 -30.188456 35.627384
14.577929 -30.182518 35.665176
14.533335 -30.187601 35.642883
14.522957 -30.184490 35.641117
14.505293 -30.189199 35.632053
14.521935 -30.184835 35.643311
14.576595 -30.186102 35.668266
14.520934 -30.185183 35.645512
14.503126 -30.189941 35.636761
14.547352 -30.184566 35.659901
14.565916 -30.187103 35.667656
14.528157 -30.185539 35.653923
14.546816 -30.188328 35.661488
14.573540 -30.187187 35.675224