# This PCD file was generated using the MATLAB® pcwrite function
# from Computer Vision System Toolbox®.
# .PCD v.7 - Point Cloud Data file format
VERSION .7
FIELDS x y z
SIZE 4 4 4
TYPE F F F
COUNT 1 1 1
WIDTH 760
HEIGHT 1
VIEWPOINT 0 0 0 1 0 0 0
POINTS 760
DATA ascii
-34.240566 -11.643294 -0.984587
-34.564873 -11.043970 -1.042009
-33.579613 -11.400437 -0.934546
-33.936768 -10.819795 -1.025608
-33.000736 -11.185780 -0.946680
-33.354698 -10.610752 -1.039240
-32.353081 -10.948458 -0.884228
-32.731983 -10.389387 -1.004787
-31.765291 -10.731772 -0.865597
-32.140667 -10.178486 -0.987902
-31.208176 -10.525844 -0.865395
-31.580214 -9.977816 -0.989416
-30.646467 -10.318826 -0.850389
-31.022097 -9.778373 -0.982922
-30.156179 -10.136106 -0.896061
-30.417860 -9.565011 -0.920370
-29.653751 -9.949711 -0.921097
-29.920107 -9.385434 -0.953026
-29.308073 -9.170727 -0.859888
-27.035330 -9.042456 0.752031
-28.821537 -8.995563 -0.884855
-26.725615 -8.922121 0.577396
-28.330048 -8.819276 -0.896046
-26.514103 -8.834421 0.298548
-27.840492 -8.644013 -0.900490
-26.084070 -8.674641 0.260580
-24.900679 -7.715155 1.795324
-24.838196 -8.246489 1.148876
-25.817522 -8.569023 0.045704
-24.548214 -7.584940 1.702381
-24.334864 -8.063813 1.225554
-25.575115 -8.471443 -0.195896
-24.370865 -7.508548 1.415131
-25.088776 -8.293924 -0.153107
-24.395895 -7.493828 0.891708
-24.510439 -8.086701 0.008631
-24.490435 -7.499804 0.276100
-23.312103 -7.677542 0.932692
-24.161413 -7.954905 -0.092653
-23.670626 -7.227904 0.741642
-23.540483 -7.734725 0.144520
-23.614176 -7.187891 0.301413
-23.268021 -7.628457 -0.037680
-23.398067 -7.099437 0.051332
-22.636835 -7.405937 0.237755
-22.477331 -6.799303 0.688950
-22.293705 -7.277288 0.157652
-21.647291 -6.527696 1.240253
-21.144016 -6.888460 1.144968
-22.045885 -7.179631 -0.043417
-21.467852 -6.451425 0.968493
-21.737743 -7.062618 -0.163383
-21.398005 -6.407645 0.548471
-21.156433 -6.858008 0.092627
-20.895626 -6.235394 0.705881
-20.730175 -6.703697 0.149620
-20.640509 -6.136715 0.535404
-20.470903 -5.546787 0.767334
-20.617750 -5.062800 0.821184
-20.385876 -6.575948 0.099802
-20.349813 -6.027633 0.415625
-20.376810 -5.492061 0.377296
-20.380482 -4.969705 0.632463
-20.238668 -6.511263 -0.228769
-20.296310 -5.988164 -0.040224
-19.931911 -5.343320 0.480795
-19.209866 -4.651066 1.764320
-19.888020 -6.381794 -0.263994
-19.856630 -5.835609 0.055542
-18.789579 -5.010130 1.608578
-19.647139 -5.237637 0.362089
-18.963282 -4.557238 1.612745
-19.483521 -6.235499 -0.213165
-19.602352 -5.737410 -0.112774
-18.669590 -4.949316 1.271069
-19.494812 -5.167004 0.049706
-18.553696 -4.424610 1.701103
-19.124624 -6.103967 -0.223015
-19.270370 -5.616772 -0.163410
-18.222656 -4.802395 1.420286
-19.267693 -5.076461 -0.154795
-18.400705 -4.353190 1.415831
-18.750982 -5.968054 -0.203650
-18.879707 -5.479462 -0.119122
-18.903561 -4.950129 -0.149925
-18.380632 -4.312565 0.924173
-18.421289 -5.846255 -0.246307
-18.587017 -5.370644 -0.219791
-18.508905 -4.816252 -0.090569
-18.402290 -4.280755 0.355923
-18.118341 -5.733057 -0.327032
-18.262545 -5.252895 -0.267059
-18.185091 -4.701083 -0.135338
-18.415987 -4.246023 -0.214676
-17.784605 -5.610413 -0.353855
-17.891987 -5.122276 -0.234816
-17.856701 -4.584993 -0.167965
-18.122742 -4.140099 -0.307024
-17.436567 -5.483551 -0.351368
-17.543777 -4.998339 -0.231903
-17.467550 -4.453743 -0.095005
-17.772394 -4.021392 -0.302998
-17.069885 -5.351170 -0.310656
-17.196939 -4.875094 -0.224850
-17.161879 -4.344036 -0.153673
-17.178335 -3.848460 0.114201
-16.744623 -5.231910 -0.333975
-16.886372 -4.762314 -0.273596
-16.836559 -4.229616 -0.174664
-17.040642 -3.778262 -0.222597
-16.420256 -5.113153 -0.353563
-16.561548 -4.645774 -0.293064
-16.531841 -4.120595 -0.226418
-16.754660 -3.674960 -0.309263
-16.058477 -4.983139 -0.300211
-16.276371 -4.540471 -0.378008
-16.188707 -4.002318 -0.205523
-16.370583 -3.550479 -0.219835
-15.736567 -4.865640 -0.312035
-15.952877 -4.424757 -0.390421
-15.885361 -3.894137 -0.250250
-15.911993 -3.410602 0.013472
-15.434259 -4.754349 -0.355148
-15.625687 -4.308294 -0.390423
-15.563639 -3.781721 -0.256668
-15.667572 -3.317191 -0.131746
-15.095791 -4.632272 -0.324703
-15.285795 -4.188660 -0.360355
-15.238338 -3.668747 -0.250656
-15.421928 -3.223465 -0.274679
-14.776998 -4.516425 -0.325581
-14.965769 -4.074732 -0.361589
-14.978178 -3.571602 -0.364580
-15.119759 -3.117981 -0.309443
-14.441576 -4.395812 -0.287403
-14.646851 -3.961377 -0.359211
-14.658870 -3.460560 -0.360634
-14.799990 -3.009148 -0.305479
-14.125331 -4.281234 -0.280930
-14.311439 -3.843902 -0.317654
-14.371660 -3.357325 -0.415480
-14.463521 -2.897309 -0.262331
-13.827427 -4.172373 -0.306664
-13.995135 -3.731838 -0.307959
-14.036812 -3.243268 -0.368864
-14.146401 -2.789779 -0.251078
-13.534370 -4.065151 -0.338150
-13.714159 -3.629349 -0.366528
-13.737965 -3.137849 -0.390308
-13.847789 -2.686236 -0.272217
-13.216974 -3.950922 -0.312387
-13.416494 -3.522662 -0.386131
-13.439793 -3.032830 -0.408537
-13.566836 -2.586359 -0.326216
-12.921353 -3.843361 -0.328327
-13.090708 -3.408923 -0.339174
-13.125823 -2.924542 -0.387316
-13.302685 -2.489821 -0.413534
-12.610477 -3.731541 -0.304722
-12.790935 -3.302215 -0.343039
-12.813184 -2.816899 -0.362621
-12.988919 -2.384136 -0.389166
-12.332316 -3.629497 -0.350687
-12.499999 -3.198008 -0.361912
-12.501908 -2.709911 -0.334476
-12.704672 -2.284228 -0.425230
-12.012039 -3.515426 -0.292988
-12.186341 -3.088293 -0.322750
-12.223245 -2.610272 -0.376261
-12.412876 -2.183184 -0.440029
-11.716251 -3.408701 -0.286860
-11.897154 -2.985023 -0.335266
-11.914194 -2.504399 -0.341562
-12.098522 -2.078479 -0.396589
-11.439939 -3.307769 -0.323709
-11.616146 -2.884001 -0.363188
-11.636615 -2.405444 -0.377378
-11.804759 -1.977751 -0.395840
-11.134936 -3.198852 -0.283611
-11.328224 -2.781480 -0.369686
-11.329911 -2.300725 -0.336205
-11.526764 -1.879968 -0.429035
-10.859796 -3.098632 -0.314552
-11.033871 -2.677641 -0.354582
-11.053528 -2.202490 -0.366112
-11.219914 -1.777711 -0.385057
-10.574576 -2.995755 -0.314701
-10.747629 -2.576020 -0.354992
-10.749293 -2.098964 -0.318542
-10.943168 -1.680665 -0.412361
-10.273207 -2.888600 -0.265062
-10.458754 -2.474024 -0.343058
-10.474216 -2.001486 -0.342596
-10.638841 -1.579618 -0.362017
-10.013217 -2.793144 -0.324841
-10.187675 -2.376442 -0.375019
-10.172567 -1.899190 -0.288715
-10.349788 -1.481325 -0.345943
-9.727111 -2.690657 -0.306723
-9.897135 -2.274560 -0.347773
-9.912075 -1.804936 -0.344666
-10.061762 -1.383546 -0.326857
-9.445209 -2.589546 -0.295059
-9.614205 -2.174704 -0.336349
-9.616036 -1.704372 -0.294123
-9.787835 -1.288081 -0.342550
-9.170390 -2.490561 -0.299433
-9.341580 -2.077409 -0.350424
-9.352923 -1.610020 -0.335232
-9.527102 -1.194595 -0.393377
-8.902215 -2.393540 -0.320021
-9.066381 -1.979753 -0.352259
-9.080650 -1.514240 -0.345247
-9.241390 -1.098065 -0.365698
-8.628531 -2.295234 -0.318871
-8.797785 -1.883747 -0.370354
-8.808892 -1.418779 -0.352537
-8.968924 -1.003531 -0.373173
-8.369776 -2.201018 -0.362741
-8.538247 -1.789836 -0.414440
-8.537670 -1.323644 -0.357109
-8.688146 -0.908324 -0.349276
-8.077692 -2.098347 -0.289124
-8.253270 -1.690792 -0.369822
-8.258534 -1.227537 -0.330233
-8.417009 -0.814537 -0.351252
-7.819749 -2.004684 -0.327696
-7.972390 -1.592929 -0.331861
-7.974963 -1.131133 -0.281300
-8.135290 -0.719992 -0.312136
-7.551319 -1.908517 -0.325258
-7.703380 -1.497737 -0.329523
-7.719464 -1.039145 -0.325762
-7.876516 -0.627997 -0.347124
-7.306324 -1.818338 -0.407028
-7.445318 -1.404878 -0.363110
-7.448280 -0.945133 -0.309866
-7.594036 -0.534175 -0.292830
-7.026174 -1.719640 -0.351088
-7.179762 -1.310752 -0.365202
-7.182929 -0.852185 -0.310627
-7.338552 -0.442888 -0.332323
-6.761741 -1.625010 -0.350462
-6.912292 -1.216501 -0.354994
-6.915670 -0.759261 -0.299088
-7.070577 -0.350889 -0.320944
-6.486359 -1.528005 -0.298653
-6.636141 -1.120997 -0.303297
-6.658514 -0.667763 -0.323788
-6.812888 -0.259790 -0.345770
-6.218980 -1.433146 -0.273273
-6.368134 -1.027246 -0.278011
-6.383287 -0.574564 -0.268137
-6.546022 -0.168444 -0.329216
-5.956773 -1.339700 -0.264763
-6.105392 -0.934644 -0.269587
-6.124779 -0.483414 -0.278013
-6.279905 -0.077494 -0.310055
-5.707509 -1.249303 -0.312353
-5.855873 -0.844303 -0.317228
-5.870781 -0.392841 -0.304956
-6.023181 0.012884 -0.327360
-5.451975 -1.157638 -0.328228
-5.608036 -0.754252 -0.372326
-5.612716 -0.302097 -0.309916
-5.758308 0.103138 -0.303091
-5.198502 -1.066547 -0.351482
-5.346120 -0.662316 -0.356480
-5.358883 -0.211827 -0.332022
-5.500236 0.193023 -0.305649
-4.934156 -0.973401 -0.313372
-5.090456 -0.571440 -0.367569
-5.095742 -0.121257 -0.302612
-5.244431 0.282703 -0.315557
-4.679497 -0.882416 -0.321896
-4.826089 -0.479742 -0.327040
-4.838823 -0.031291 -0.300173
-4.990674 0.372259 -0.332870
-4.416793 -0.790104 -0.278715
-4.571258 -0.389409 -0.333200
-4.584008 0.058383 -0.305141
-4.728228 0.461151 -0.298576
-4.158291 -0.698847 -0.252722
-4.310194 -0.298705 -0.297483
-4.329448 0.147846 -0.307699
-4.473370 0.550128 -0.301188
-3.905017 -0.608721 -0.253906
-4.057737 -0.209028 -0.308655
-4.070532 0.236998 -0.278215
-4.225149 0.639535 -0.340879
-3.659082 -0.519907 -0.302181
-3.803947 -0.119429 -0.307556
-3.816789 0.325928 -0.275934
-3.969030 0.727994 -0.328854
-3.409984 -0.430652 -0.328371
-3.555967 -0.030287 -0.343687
-3.568888 0.414981 -0.310879
-3.714817 0.816382 -0.324305
-3.146999 -0.339705 -0.243113
-3.292131 0.059187 -0.258528
-3.314173 0.503438 -0.293955
-3.455556 0.903531 -0.277742
-2.908989 -0.252071 -0.353931
-3.048137 0.147971 -0.319712
-3.062414 0.591886 -0.294481
-3.208683 0.992712 -0.317963
-2.648782 -0.162068 -0.273737
-2.792057 0.236609 -0.279301
-2.808597 0.679785 -0.272785
-2.955457 1.080391 -0.306274
-2.400133 -0.073447 -0.290546
-2.547347 0.325414 -0.335915
-2.565886 0.769427 -0.348129
-2.707031 1.169160 -0.331951
-2.145875 0.015342 -0.245300
-2.291256 0.413385 -0.280802
-2.308499 0.856035 -0.281954
-2.454291 1.256431 -0.315567
-1.900926 0.103553 -0.297302
-2.044217 0.501918 -0.312912
-2.061276 0.944723 -0.312922
-2.205734 1.345012 -0.336613
-1.653761 0.191866 -0.327112
-1.796001 0.590319 -0.332773
-1.809646 1.031955 -0.291788
-1.952701 1.431422 -0.305586
-1.402866 0.279962 -0.304754
-1.544708 0.677964 -0.310448
-1.558489 1.118901 -0.268314
-1.701081 1.517941 -0.282166
-1.154829 0.368066 -0.319986
-1.296458 0.766144 -0.325693
-1.310407 1.206962 -0.282398
-1.452719 1.606102 -0.296265
-0.906639 0.456107 -0.332922
-1.048056 0.854261 -0.338642
-1.062182 1.294958 -0.294186
-1.204213 1.694197 -0.308064
-0.658316 0.544080 -0.343563
-0.799520 0.942308 -0.349291
-0.813833 1.382882 -0.303675
-0.955583 1.782220 -0.317566
-0.409877 0.631976 -0.351908
-0.549297 1.029107 -0.317692
-0.565378 1.470726 -0.310871
-0.705515 1.868451 -0.294847
-0.161344 0.719790 -0.357956
-0.302122 1.118169 -0.363695
-0.316837 1.558484 -0.315769
-0.456941 1.956221 -0.299746
0.087995 0.806636 -0.321722
-0.052385 1.204564 -0.327484
-0.068229 1.646149 -0.318369
-0.209418 2.046413 -0.342251
0.335936 0.895143 -0.363157
0.196168 1.292151 -0.328934
0.180427 1.733715 -0.318670
0.039601 2.134107 -0.342554
0.584713 0.981559 -0.322325
0.444823 1.379227 -0.318094
0.429113 1.821175 -0.316675
0.288650 2.221695 -0.340555
0.833111 1.068860 -0.319183
0.693352 1.466574 -0.314951
0.677810 1.908523 -0.312380
0.537841 2.306308 -0.296358
1.082099 1.157386 -0.353720
0.942386 1.556140 -0.359457
0.926498 1.995751 -0.305790
0.786563 2.393548 -0.289766
1.330809 1.244564 -0.345982
1.192043 1.645377 -0.391651
1.175159 2.082854 -0.296902
1.035653 2.482982 -0.310785
1.579483 1.331613 -0.335941
1.441259 1.732616 -0.381594
1.425856 2.175189 -0.365511
1.284548 2.570050 -0.299587
1.827707 1.418104 -0.313623
1.688680 1.816951 -0.319340
1.674721 2.261550 -0.342028
1.534563 2.660303 -0.325937
2.080455 1.508901 -0.388805
1.939505 1.906678 -0.354572
1.925461 2.351349 -0.366072
1.783638 2.747200 -0.310123
2.329562 1.595752 -0.371836
2.188496 1.993488 -0.337612
2.174727 2.438196 -0.347939
2.034451 2.837498 -0.331812
2.577916 1.681939 -0.342606
2.439158 2.082061 -0.348238
2.421514 2.521743 -0.287699
2.281457 2.920531 -0.271605
2.823806 1.766296 -0.281210
2.685445 2.165966 -0.286844
2.672873 2.611407 -0.304775
2.533290 3.011677 -0.298576
3.082571 1.859860 -0.386759
2.940029 2.257833 -0.342579
2.925483 2.701967 -0.329426
2.784369 3.100987 -0.303320
3.331769 1.946274 -0.360535
3.189030 2.344178 -0.316376
3.174556 2.788280 -0.302057
3.037337 3.192293 -0.325546
3.584655 2.034992 -0.371746
3.446147 2.437122 -0.377237
3.426182 2.877103 -0.302143
3.289186 3.281635 -0.325563
3.837986 2.123748 -0.380585
3.695488 2.523351 -0.346354
3.680081 2.967758 -0.319683
3.543213 3.373072 -0.343016
4.087215 2.209820 -0.347385
3.948948 2.612623 -0.352802
3.933480 3.057540 -0.324924
3.796786 3.463504 -0.348173
4.345912 2.301340 -0.391098
4.202816 2.701917 -0.356861
4.191928 3.151277 -0.367304
4.050756 3.553955 -0.350931
4.595283 2.387224 -0.353210
4.452071 2.787762 -0.318989
4.441452 3.237154 -0.328218
4.305104 3.644417 -0.351292
4.848499 2.475180 -0.342651
4.706367 2.876967 -0.318304
4.695983 3.326971 -0.326265
4.554690 3.730197 -0.309849
5.110656 2.567823 -0.388880
4.972314 2.973553 -0.394068
4.956481 3.421057 -0.361273
4.820292 3.830142 -0.384117
5.366251 2.656647 -0.383320
5.221959 3.059174 -0.349081
5.217948 3.515354 -0.393744
5.068765 3.914569 -0.328083
5.628639 2.748841 -0.414663
5.483865 3.152383 -0.380411
5.467801 3.600868 -0.345169
5.331954 4.011248 -0.367809
5.878340 2.834242 -0.364933
5.740079 3.241769 -0.369944
5.730488 3.695343 -0.372660
5.581790 4.096635 -0.316864
6.141928 2.926606 -0.391291
6.003511 3.335259 -0.396217
5.980223 3.780575 -0.319351
5.837974 4.187009 -0.302694
6.406409 3.019155 -0.415070
6.260560 3.424689 -0.380810
6.244047 3.875197 -0.341825
6.101458 4.282692 -0.325092
6.656196 3.104223 -0.358160
6.510233 3.509718 -0.323929
6.501158 3.965055 -0.322742
6.363954 4.377182 -0.335167
6.921749 3.196893 -0.376900
6.781246 3.606753 -0.371868
6.766357 4.059901 -0.340092
6.623271 4.468994 -0.323244
7.196554 3.293768 -0.431919
7.049448 3.701823 -0.397646
7.032371 4.154902 -0.354824
6.888943 4.565056 -0.337898
7.461871 3.385818 -0.435635
7.314332 3.794757 -0.401356
7.290638 4.244786 -0.328205
7.147056 4.655476 -0.311235
7.730073 3.479019 -0.446436
7.582057 3.888976 -0.412149
7.549036 4.334590 -0.299114
7.411800 4.750238 -0.311054
7.980259 3.563610 -0.377312
7.843637 3.979652 -0.391329
7.825897 4.435266 -0.344643
7.672637 4.842072 -0.289007
8.261449 3.662451 -0.431162
8.112614 4.074046 -0.396875
8.094624 4.530690 -0.348869
7.940701 4.938450 -0.293253
8.521590 3.751356 -0.395590
8.382302 4.168555 -0.399750
8.373865 4.631919 -0.388777
8.219094 5.041158 -0.333145
8.781784 3.840153 -0.357525
8.642521 4.257949 -0.361601
8.634153 4.721863 -0.349281
8.498799 5.144182 -0.370150
9.073987 3.943236 -0.431728
8.931579 4.361879 -0.426102
8.915360 4.823501 -0.383598
8.769528 5.241079 -0.366131
9.335169 4.032114 -0.388363
9.184611 4.447250 -0.354074
9.173607 4.911906 -0.329378
9.027665 5.329888 -0.311876
9.604806 4.124617 -0.371019
9.478810 4.553104 -0.422293
9.448290 5.009300 -0.329615
9.301956 5.428473 -0.312027
9.863273 4.212022 -0.313068
9.740595 4.642516 -0.373602
9.732257 5.111480 -0.355440
9.596597 5.538987 -0.375542
10.139404 4.307060 -0.309393
10.025792 4.743279 -0.397997
10.017407 5.213926 -0.378296
9.858490 5.629417 -0.322794
10.410122 4.399540 -0.284060
10.312160 4.844302 -0.419411
10.300711 5.315021 -0.388762
10.152825 5.738818 -0.370840
10.674933 4.489297 -0.237234
10.587309 4.939618 -0.400249
10.575739 5.411407 -0.368160
10.430544 5.838028 -0.359524
10.962270 4.588619 -0.253397
10.859783 5.033452 -0.368948
10.851250 5.507822 -0.344776
10.718237 5.942692 -0.373363
11.250701 4.688171 -0.266541
11.139063 5.130341 -0.353586
11.153115 5.617739 -0.393082
10.991052 6.038497 -0.337650
11.526722 4.782207 -0.239424
11.408973 5.222595 -0.307463
11.430131 5.714387 -0.363846
11.283750 6.145313 -0.354816
11.803166 4.876248 -0.209505
11.675594 5.313161 -0.249392
11.721117 5.817981 -0.368780
11.570931 6.248649 -0.350365
12.094094 4.976231 -0.213747
11.980389 5.421363 -0.290298
12.013093 5.921768 -0.370623
11.865794 6.355911 -0.361298
12.386006 5.076403 -0.214901
12.258355 5.516816 -0.254227
12.295401 6.020375 -0.341820
12.172265 6.469160 -0.396563
12.693570 5.182897 -0.249647
12.551180 5.618916 -0.251995
12.574564 6.117192 -0.300955
12.448115 6.565293 -0.346205
12.991416 5.285076 -0.253578
12.859747 5.727953 -0.283171
12.872511 6.223153 -0.302778
12.742357 6.671175 -0.338558
13.286482 5.385877 -0.245199
13.158474 5.832194 -0.283628
13.152626 6.320006 -0.256012
13.052377 6.785176 -0.364008
13.582415 5.486822 -0.233665
13.450504 5.933144 -0.262733
13.444531 6.422459 -0.233479
13.363844 6.899511 -0.385988
13.895090 5.594440 -0.255077
13.751081 6.037711 -0.256786
13.772405 6.542186 -0.288820
13.661224 7.006001 -0.368519
14.176760 5.689104 -0.201073
14.044603 6.138867 -0.229603
14.054302 6.639199 -0.232832
13.931745 7.098142 -0.285177
14.470987 5.788734 -0.171034
14.346911 6.243717 -0.217186
14.364861 6.749836 -0.236387
14.246241 7.213040 -0.297197
14.807814 5.905494 -0.226988
14.658422 6.352394 -0.219288
14.651724 6.848814 -0.183189
14.533371 7.313422 -0.243553
15.103947 6.005457 -0.190262
14.975320 6.463166 -0.226784
14.981030 6.967799 -0.215401
14.845783 7.426570 -0.239897
15.444092 6.123004 -0.238699
15.297792 6.576093 -0.239534
15.299157 7.081096 -0.217379
15.163545 7.542091 -0.241526
15.759686 6.230368 -0.230379
15.612898 6.685498 -0.231033
15.601041 7.186421 -0.180714
15.478208 7.655673 -0.230789
16.062857 6.332517 -0.192280
15.920165 6.791228 -0.201504
15.921280 7.300104 -0.175627
15.798298 7.771650 -0.225216
16.439669 6.463924 -0.290203
16.237206 6.900960 -0.185999
16.242672 7.414008 -0.166891
16.101683 7.878916 -0.181326
16.814707 6.594254 -0.374767
16.578197 7.020766 -0.210220
16.583508 7.536616 -0.189009
16.464561 8.015526 -0.246204
17.159452 6.712182 -0.394344
16.883549 7.124922 -0.161489
16.930649 7.661749 -0.215673
16.783741 8.129955 -0.220812
17.553637 6.849432 -0.495613
17.194122 7.231109 -0.117985
17.255922 7.776440 -0.195473
17.108494 8.246819 -0.200329
17.844080 6.945289 -0.404209
17.577402 7.368083 -0.198923
17.577402 7.889102 -0.163042
17.434248 8.363847 -0.176109
18.232828 7.079752 -0.479477
17.973127 7.509903 -0.291985
17.904575 8.004085 -0.135399
17.780249 8.490411 -0.181904
18.524334 7.175632 -0.381084
18.356930 7.646212 -0.354689
18.252430 8.128155 -0.137604
18.127739 8.617290 -0.183554
18.896637 7.303045 -0.413910
18.803398 7.808547 -0.513205
18.621763 8.261567 -0.169062
18.456842 8.734904 -0.147640
19.229856 7.414865 -0.375410
19.177620 7.939918 -0.540632
18.977837 8.388594 -0.171024
18.786795 8.852625 -0.107910
19.558697 7.524751 -0.324780
19.486725 8.043637 -0.455666
19.438320 8.562009 -0.333855
19.158348 8.989919 -0.130363
20.025244 7.688006 -0.484802
19.848181 8.169047 -0.449736
19.830017 8.704029 -0.375429
19.511110 9.117810 -0.115372
20.341110 7.792301 -0.400770
20.184591 8.283716 -0.398472
20.271484 8.867705 -0.485462
19.886095 9.255852 -0.128717
20.700392 7.913225 -0.378408
20.537794 8.405113 -0.367733
20.652149 9.003859 -0.492254
20.262857 9.394281 -0.137371
21.104687 8.051279 -0.416496
20.919216 8.537910 -0.373226
20.991190 9.121259 -0.429827
20.689690 9.555767 -0.213747
21.505678 8.187724 -0.441374
21.280348 8.661991 -0.341810
21.369219 9.255542 -0.419493
21.157471 9.735776 -0.340427
21.891888 8.318160 -0.437176
21.737192 8.825164 -0.441805
21.754288 9.392543 -0.412409
21.606998 9.906530 -0.428856
22.302402 8.457627 -0.459921
22.146688 8.968405 -0.464211
22.163399 9.539660 -0.432100
22.054119 10.075509 -0.503290
22.692024 8.588765 -0.445848
22.535471 9.102787 -0.449816
22.597292 9.697122 -0.477894
22.419672 10.206173 -0.454088
23.112181 8.731278 -0.466061
22.896942 9.225694 -0.391403
23.010708 9.845206 -0.486750
22.808971 10.347438 -0.431562
23.569672 8.887689 -0.527496
23.358271 9.388970 -0.460772
23.356297 9.963549 -0.397381
23.199686 10.488952 -0.404112
23.940920 9.010892 -0.466942
23.728277 9.514710 -0.400402
23.796263 10.122324 -0.426880
23.615088 10.641351 -0.402416
24.385010 9.161505 -0.493877
24.170584 9.669444 -0.427464
24.191038 10.261208 -0.389490
24.032312 10.794117 -0.395294
24.849600 9.319527 -0.537758
24.585102 9.812539 -0.410608
24.587070 10.400281 -0.347097
24.469181 10.955339 -0.405409
25.304560 9.473521 -0.560263
25.013401 9.960833 -0.403498
25.032864 10.560256 -0.359787
24.920181 11.122446 -0.424704
25.706104 9.606983 -0.509214
25.511120 10.136642 -0.473181
25.505337 10.731130 -0.396328
25.367373 11.287305 -0.430452
26.202572 9.775926 -0.564674
25.962292 10.293291 -0.476471
25.980400 10.902587 -0.426392
25.816656 11.452595 -0.430189
26.701960 9.945550 -0.613277
26.434332 10.457884 -0.495852
26.432964 11.064010 -0.420576
26.292786 11.629405 -0.453192
22.695595 8.423488 4.521255
27.057524 10.060773 -0.486586
26.820086 10.587620 -0.406378
26.881174 11.223148 -0.401396
26.721218 11.784365 -0.411457
27.574005 10.236074 -0.537235
27.327887 10.765657 -0.449982
27.343912 11.387978 -0.390650
27.201689 11.962061 -0.421772
27.754629 10.911023 -0.392931
27.853659 11.572097 -0.423742
27.658911 12.128897 -0.396837
28.299805 11.102975 -0.458755
28.359631 11.754089 -0.442570
28.143686 12.307447 -0.394068
28.808823 11.280097 -0.474339
28.933683 11.963998 -0.524679
28.728260 12.529466 -0.490017
24.627531 9.068358 4.631283
29.300426 11.449885 -0.461771
29.418749 12.136170 -0.500767
29.218172 12.709095 -0.472841
29.867682 11.649021 -0.518877
29.645451 12.200501 -0.200607
29.551086 12.819379 -0.283173
25.596216 9.396908 4.522970
30.309971 11.798526 -0.436928
30.165638 12.386590 -0.200016
30.210646 13.072339 -0.424894
30.986839 12.696667 -0.490606
30.760351 13.276503 -0.441364
31.486742 12.873066 -0.445539
31.203997 13.433928 -0.342487
32.043552 13.072439 -0.446772
31.860901 13.683464 -0.443800
32.602890 13.272296 -0.439978
32.418373 13.889151 -0.436392
33.192703 13.484093 -0.451220
32.971302 14.092280 -0.414394
33.778229 13.693540 -0.447361
33.554535 14.307869 -0.410221
34.387684 13.912175 -0.454123
34.921032 14.099217 -0.382301
35.557083 14.327511 -0.390526
0.795187 0.211167 29.708506
0.871840 0.238593 29.650133
0.833896 0.227303 29.680950
0.783938 0.205921 29.725122
0.845372 0.227541 29.678499
0.821878 0.221833 29.696642
0.808261 0.215907 29.710199
0.848164 0.228325 29.682432
0.861796 0.238298 29.670982
0.819209 0.216565 29.707500
0.802994 0.213374 29.719213
0.850891 0.229084 29.686417
0.834388 0.226390 29.698015
0.829197 0.220267 29.705307
0.843262 0.229927 29.694263
0.814928 0.214440 29.718224
0.790796 0.207833 29.735044
0.845797 0.230622 29.698172