# This PCD file was generated using the MATLAB® pcwrite function
# from Computer Vision System Toolbox®.
# .PCD v.7 - Point Cloud Data file format
VERSION .7
FIELDS x y z
SIZE 4 4 4
TYPE F F F
COUNT 1 1 1
WIDTH 806
HEIGHT 1
VIEWPOINT 0 0 0 1 0 0 0
POINTS 806
DATA ascii
44.400723 -40.374672 9.368885
43.983856 -39.868149 9.320307
44.170731 -40.377171 9.118393
44.082985 -39.802761 8.676857
43.368629 -39.904133 9.011326
43.539787 -40.413342 8.822515
43.109570 -39.912182 8.799721
43.173523 -40.441116 8.741364
42.830254 -39.924431 8.613722
43.109573 -40.412510 8.282516
44.610001 -39.499001 5.774231
44.477020 -40.112144 5.970772
44.340607 -39.504917 5.528015
48.371269 -39.322987 0.267452
44.618805 -39.994068 4.577080
44.727242 -39.925678 3.802544
47.309940 -39.422508 0.288490
46.788788 -39.471466 0.300472
43.079506 -39.567978 4.791954
43.060257 -40.158401 4.850590
42.591312 -39.622837 4.859737
42.600830 -40.202831 4.878578
42.195564 -39.657467 4.802345
42.199760 -40.236080 4.829956
41.767570 -39.699947 4.798771
41.810730 -40.267284 4.769257
41.341324 -39.742615 4.800106
41.384254 -40.306625 4.770920
40.938362 -39.780407 4.772942
40.938057 -40.350655 4.810867
40.515480 -39.823444 4.783810
40.536770 -40.385845 4.788841
40.115395 -39.861618 4.765755
40.136803 -40.421230 4.771255
39.716671 -39.899979 4.752113
39.758846 -40.452335 4.724110
39.299068 -39.943527 4.776974
39.325756 -40.495895 4.774910
38.923500 -39.977238 4.737988
38.950294 -40.527374 4.736294
38.529144 -40.016129 4.737450
38.556000 -40.563480 4.736172
38.160576 -40.048977 4.697941
38.177826 -40.596439 4.714352
37.764206 -40.089447 4.714493
37.791225 -40.631779 4.713989
37.379013 -40.127594 4.717911
37.401405 -40.668373 4.726555
37.096939 -40.138844 4.532230
37.138294 -40.675655 4.505875
36.635956 -40.198219 4.693062
36.640503 -40.738735 4.737858
36.272934 -40.231953 4.673206
36.295906 -40.766018 4.683037
36.132309 -41.314522 4.695889
35.902172 -40.268288 4.674919
35.912136 -40.803215 4.711899
35.758266 -41.347115 4.709282
35.783562 -41.874104 4.715199
35.537094 -40.303566 4.671597
35.560455 -40.833015 4.682213
35.381493 -41.380783 4.735615
35.389725 -41.908287 4.777824
35.156364 -40.343830 4.707989
35.184120 -40.869415 4.710049
35.035976 -41.408066 4.702808
35.044762 -41.933865 4.745445
34.794167 -40.379391 4.712391
34.817886 -40.903809 4.723816
34.674614 -41.439228 4.709694
34.688049 -41.961983 4.743713
34.465874 -40.405491 4.648109
34.473572 -40.933025 4.696083
34.330833 -41.466850 4.683945
34.361019 -41.984776 4.681927
34.093777 -40.444958 4.686977
34.134003 -40.961357 4.662682
33.971909 -41.498310 4.698139
33.986256 -42.017105 4.732929
33.766602 -40.471428 4.629383
33.771500 -40.996189 4.687469
33.614418 -41.529900 4.716022
33.629196 -42.046436 4.751213
33.389786 -40.513527 4.694016
33.418301 -41.029041 4.697655
33.258400 -41.561615 4.737583
33.277439 -42.075123 4.763954
33.037758 -40.548611 4.707489
33.077721 -41.058899 4.683830
32.922569 -41.588943 4.716625
32.934525 -42.102417 4.761791
32.698109 -40.580296 4.696850
32.719597 -41.094109 4.719570
32.580162 -41.618229 4.717499
32.600006 -42.128338 4.744503
32.373730 -40.607445 4.652534
32.384815 -41.123219 4.703362
32.228119 -41.650333 4.749664
32.244743 -42.158943 4.786312
32.021572 -40.644123 4.685642
32.043770 -41.154549 4.709034
31.895161 -41.678108 4.738766
31.926300 -42.182156 4.738403
31.684752 -40.676254 4.685032
31.710749 -41.183964 4.699425
31.559622 -41.706921 4.740475
31.587502 -42.210026 4.749683
31.348936 -40.708534 4.687729
31.375210 -41.214550 4.702423
31.225111 -41.735870 4.745480
31.256577 -42.236546 4.745522
31.014160 -40.740948 4.693722
31.040714 -41.245274 4.708710
30.888409 -41.765827 4.763165
32.214088 -41.973560 1.021557
30.667728 -40.778084 4.740627
30.761600 -41.258991 4.558086
31.949032 -41.413578 0.618484
31.998627 -41.968956 0.577679
31.637207 -40.331261 0.788982
30.577267 -41.241920 4.116806
31.753689 -40.862766 0.544598
31.596962 -41.440952 0.573696
31.634079 -41.998249 0.570866
31.355820 -40.334484 0.528290
31.388908 -40.895260 0.539024
31.254112 -41.465969 0.503674
28.833729 -42.608009 8.259995
30.976971 -40.374348 0.573399
31.022076 -40.928909 0.546436
28.565491 -42.175224 8.096531
28.582066 -42.622524 8.138386
28.356352 -41.299927 8.113506
28.402758 -41.739269 8.057716
28.255096 -42.206398 8.167906
28.272118 -42.651432 8.210083
28.113064 -41.308735 7.956837
28.092628 -41.772747 8.130222
28.004448 -42.219982 8.041267
28.022163 -42.665672 8.083593
27.800667 -41.345703 8.041304
27.841125 -41.785778 8.004650
27.661625 -42.262196 8.243151
27.722498 -42.692692 8.132137
27.524261 -41.368290 8.004211
27.507137 -41.829151 8.178871
27.431515 -42.269512 8.044458
27.336147 -42.743217 8.511118
27.250412 -41.389946 7.960011
27.275505 -41.834843 7.981169
27.083645 -42.315022 8.291277
27.012316 -42.778374 8.682117
26.925381 -41.434814 8.120661
26.960402 -41.872520 8.103617
26.842157 -42.326065 8.135735
26.676586 -41.445797 7.985241
26.707092 -41.886372 7.987490
26.556631 -42.352016 8.156544
26.483288 -42.817539 8.588064
26.376251 -41.480942 8.064804
26.420507 -41.913738 8.009148
26.258598 -42.382896 8.238302
26.110586 -41.499931 8.001797
26.126137 -41.944969 8.072338
26.020920 -42.392246 8.060221
25.944744 -42.860073 8.542372
25.833927 -41.524494 7.989706
25.871361 -41.959435 7.963200
25.720493 -42.424919 8.166742
25.656935 -42.887451 8.610989
25.641977 -41.504410 7.571135
25.564701 -41.997364 8.099930
25.482191 -42.434010 7.983150
25.364380 -41.528465 7.553556
25.317108 -42.008522 7.956446
25.161169 -42.476215 8.212408
25.145966 -42.922455 8.452852
24.980385 -41.613796 8.105303
25.458292 -41.339787 5.564331
26.443516 -40.774902 0.326027
25.013851 -42.046539 8.098721
24.935659 -42.479580 7.954840
24.906574 -42.934277 8.283875
24.729225 -41.625217 7.976187
25.181408 -41.354958 5.450539
26.087524 -40.813396 0.389458
24.761232 -42.059963 7.979351
24.633274 -42.515629 8.111277
24.650734 -42.951469 8.195406
24.888041 -41.379795 5.427311
25.736568 -40.849895 0.436588
24.468365 -42.094429 8.087858
24.376953 -42.531830 8.015005
24.380518 -42.973885 8.187841
25.407557 -40.873043 0.359299
24.217690 -42.106487 7.953381
24.097504 -42.558846 8.058769
24.116901 -42.993980 8.143274
24.458599 -41.322048 4.356113
25.065765 -40.904690 0.363533
23.943981 -42.131310 7.958803
23.838436 -42.576225 7.976898
23.835052 -43.021572 8.219444
24.142426 -41.358315 4.437775
24.723148 -40.937515 0.380672
23.665087 -42.159786 8.006117
24.568066 -41.599232 1.745693
23.561640 -42.602734 8.015736
23.584391 -43.036556 8.090700
23.519747 -41.631031 6.819736
23.716942 -41.479847 5.350601
24.385286 -40.967445 0.371323
23.444849 -42.150669 7.631508
23.291119 -42.626392 8.017544
23.304197 -43.064346 8.171827
23.237297 -41.657734 6.831022
24.052668 -40.993530 0.325478
23.170944 -42.175232 7.633982
23.025856 -42.647274 7.982164
23.059002 -43.076279 7.988066
22.957706 -41.682560 6.825069
23.715076 -41.023849 0.322079
22.906742 -42.193031 7.559738
22.742189 -42.679867 8.107656
22.775454 -43.106625 8.113718
22.683672 -41.702568 6.772123
23.378897 -41.053356 0.311775
22.628643 -42.221340 7.606621
22.490316 -42.692448 7.958040
22.519802 -43.123146 8.003754
23.039005 -41.086998 0.344055
22.399221 -42.208988 7.180115
22.205418 -42.727989 8.128235
22.250866 -43.146774 8.015188
22.701817 -41.118813 0.359535
22.289217 -42.079548 5.365971
21.952566 -42.740345 7.973164
21.982399 -43.170525 8.029009
22.369251 -41.145916 0.328415
22.412685 -41.682415 0.333477
21.673672 -42.773834 8.118544
21.717617 -43.192184 8.005394
22.033571 -41.177105 0.339901
22.076595 -41.713848 0.354984
21.420631 -42.784649 7.938068
21.799868 -42.413288 2.544121
21.449804 -43.216209 8.023930
21.695843 -41.212296 0.394089
21.585278 -41.943951 2.786263
21.739223 -41.747894 0.409298
21.149330 -42.812820 8.008659
21.621918 -42.290108 0.330929
21.187527 -43.236038 7.965105
21.276466 -41.392250 1.962105
21.364761 -41.238075 0.351883
21.310530 -41.917015 2.118526
21.411968 -41.769032 0.307388
20.886290 -42.832314 7.952143
21.287228 -42.321236 0.359879
20.913649 -43.266731 8.107977
20.947021 -41.441647 2.182167
20.982464 -41.962948 2.338955
21.077042 -41.800980 0.337727
20.620678 -42.854694 7.937778
20.775763 -42.620514 4.418972
20.657324 -43.280060 7.924107
20.618269 -41.499332 2.494759
20.664188 -41.996754 2.412952
20.742079 -41.834663 0.390934
20.621784 -42.380634 0.376755
20.384457 -43.312939 8.111670
20.301115 -41.537209 2.601341
20.411482 -41.859756 0.337494
20.289417 -42.410919 0.394554
20.126093 -43.325302 7.902353
19.983791 -41.585251 2.820240
20.033997 -41.351006 0.291565
20.031612 -42.066135 2.589317
20.078844 -41.889820 0.346733
19.958033 -42.439445 0.385330
19.855797 -43.360229 8.134613
19.675499 -41.591064 2.583931
19.722628 -42.070629 2.292881
19.746735 -41.918510 0.338943
19.626598 -42.468178 0.379005
19.594204 -43.373192 7.929836
19.673620 -42.995243 0.299603
19.362314 -41.630074 2.708786
19.406113 -42.128014 2.677090
19.414625 -41.946640 0.324085
19.295115 -42.500244 0.425480
19.328419 -43.406593 8.136839
19.341671 -43.027618 0.366089
19.049297 -41.639397 2.507740
19.035234 -41.438801 0.286823
19.082483 -41.977264 0.342041
18.964090 -42.529346 0.424950
19.063417 -43.420177 7.936649
19.010450 -43.056736 0.365555
18.732067 -41.644753 2.259628
18.703272 -41.473515 0.347500
18.750425 -42.006557 0.342953
18.632246 -42.555592 0.377407
18.799351 -43.447437 8.018442
18.679098 -43.085583 0.357929
18.495089 -41.966324 5.569324
18.371918 -41.506569 0.391155
18.419529 -42.039776 0.396618
18.300863 -42.585129 0.382668
18.533060 -43.467773 7.952740
18.347624 -43.114639 0.353199
18.206758 -41.987583 5.525345
18.037760 -41.530113 0.328178
18.246922 -42.445686 5.486958
18.085203 -42.062786 0.313625
17.968529 -42.613071 0.360897
18.267265 -43.490654 7.939301
18.013737 -43.140717 0.281483
17.925026 -42.024723 5.663067
17.973343 -42.496361 5.834095
17.754183 -42.094891 0.353153
17.861361 -42.949570 5.578114
17.797766 -42.862656 4.102039
17.635344 -42.640671 0.332058
17.880163 -43.383686 5.033634
17.683989 -43.172939 0.342464
17.643162 -42.057522 5.753456
17.679077 -42.506950 5.635616
17.597038 -42.999920 6.008896
17.641623 -43.455475 6.073559
17.382088 -42.118500 6.174519
17.412180 -42.556599 5.977524
17.326868 -43.037193 6.222569
17.344854 -43.469997 5.828575
17.108139 -42.153637 6.299427
17.141926 -42.595993 6.182262
17.022364 -43.043316 5.890686
17.066092 -43.499104 5.915264
16.821863 -42.172859 6.237888
16.859472 -42.620583 6.180367
16.755459 -43.081261 6.119106
16.775723 -43.521175 5.834999
16.528473 -42.186565 6.109390
16.576021 -42.644669 6.171001
16.482029 -43.112450 6.230354
16.505939 -43.554180 6.016171
16.253168 -42.218719 6.201851
16.312469 -42.683964 6.382694
16.191372 -43.132866 6.145123
16.234455 -43.585079 6.149841
15.986423 -42.256599 6.366074
16.027298 -42.706249 6.348385
15.971598 -43.190777 6.757757
15.940535 -43.606537 6.047245
15.748837 -42.313698 6.770266
15.774088 -42.748753 6.614153
15.671329 -43.205524 6.568024
15.649066 -43.629890 5.987053
15.451429 -42.325745 6.621956
15.552391 -42.806126 7.109814
15.339725 -43.208950 6.153133
15.388636 -43.663685 6.197369
15.153755 -42.339806 6.496202
15.235401 -42.809639 6.795273
15.132787 -43.264889 6.751680
15.202173 -43.717525 6.954855
14.864533 -42.360512 6.452225
14.927540 -42.820923 6.592636
14.855863 -43.291149 6.777693
14.920450 -43.741932 6.931099
14.590200 -42.389973 6.519375
14.647482 -42.846664 6.610243
14.601118 -43.324905 6.954336
14.549273 -43.745193 6.306747
14.304459 -42.413422 6.510069
14.410069 -42.890041 6.906498
14.350691 -43.359039 7.142895
14.308709 -43.781193 6.594961
14.081430 -42.466503 6.887045
14.129232 -42.914654 6.908978
13.990107 -43.360455 6.653557
14.053300 -43.812901 6.766607
13.808323 -42.494534 6.941280
13.802355 -42.923080 6.648376
13.686215 -43.380554 6.542023
13.714901 -43.828270 6.447958
13.532213 -42.521206 6.978271
13.509739 -42.945332 6.607166
13.401737 -43.406521 6.551271
13.417345 -43.852631 6.388451
13.275140 -42.555305 7.115639
13.232811 -42.973175 6.656910
13.086691 -43.425537 6.406136
13.133424 -43.879776 6.410244
12.992579 -42.579304 7.118206
12.932932 -42.994171 6.591589
12.808327 -43.453789 6.459921
12.853401 -43.907696 6.454166
12.713736 -42.604935 7.142853
12.712925 -43.038403 6.920038
12.563517 -43.489037 6.672537
12.567541 -43.934887 6.471212
12.345301 -42.601238 6.760710
12.345474 -43.041683 6.547478
12.261705 -43.512352 6.613815
12.262268 -43.959740 6.402946
12.038492 -42.619957 6.684120
12.017395 -43.057507 6.383423
11.951687 -43.534763 6.528742
11.906416 -43.978935 6.123184
10.490156 -43.805016 -0.084946
11.713740 -42.634243 6.542517
11.672226 -43.070580 6.164360
11.597916 -43.550304 6.271736
10.125828 -43.836369 -0.134548
11.366913 -42.643612 6.326668
9.715251 -42.175789 -0.377029
11.296601 -43.078373 5.842190
9.790822 -42.737663 -0.306969
11.289658 -43.574821 6.222153
9.760005 -43.868088 -0.180706
11.070151 -42.668289 6.327114
9.362605 -42.207264 -0.352695
10.772182 -43.056335 4.962772
9.426897 -42.767227 -0.331329
10.643933 -43.547649 4.869041
10.541853 -44.014565 4.270603
9.002032 -42.237007 -0.354099
10.549841 -43.101116 5.297146
9.069496 -42.798683 -0.323307
10.380713 -43.582691 5.050381
10.539896 -44.073307 5.458309
10.200498 -42.650826 5.335373
8.624887 -42.263153 -0.409893
10.238111 -43.127148 5.286011
8.698388 -42.827866 -0.360161
10.651459 -43.691147 7.160469
10.317270 -44.109303 5.766102
9.928824 -42.685478 5.471245
10.486791 -43.257317 7.267559
10.393594 -43.722076 7.283598
10.123904 -44.146957 6.161850
9.731830 -42.736549 5.858364
10.361224 -43.312096 7.842352
10.190905 -43.759666 7.591007
10.057650 -44.193192 6.971054
9.746077 -42.831345 6.924709
10.009004 -43.326374 7.632698
9.818456 -43.776493 7.325890
9.648711 -44.213356 6.601894
9.608729 -42.889423 7.445290
9.454084 -43.309494 6.787706
9.539433 -43.805012 7.379639
9.616832 -44.259315 7.468729
9.247508 -42.900845 7.243717
9.060372 -43.321480 6.501842
8.436309 -43.226032 4.551472
9.143867 -43.821438 7.074505
9.262625 -44.283703 7.286686
9.082941 -42.950996 7.652550
8.166502 -42.777218 4.885540
9.020570 -43.386772 7.311522
8.947432 -43.859066 7.390373
9.045994 -44.316540 7.535612
8.873224 -42.991249 7.910730
8.367542 -42.899250 6.427250
8.862513 -43.432430 7.731621
8.703927 -43.891483 7.555998
8.897458 -44.352470 7.975246
8.307222 -42.968391 7.143349
8.618847 -43.465275 7.888023
8.250046 -43.904980 7.120132
8.428361 -44.372368 7.480982
7.794819 -42.958652 6.571344
8.022929 -43.453041 7.058937
7.978348 -43.935593 7.216200
7.956716 -44.393791 7.011425
7.614870 -43.005596 6.932831
7.684786 -43.475864 6.978508
7.791120 -43.972927 7.539511
7.670500 -44.424110 7.072908
7.323284 -43.033989 6.987064
4.410314 -42.583153 -0.675537
7.390401 -43.504463 7.023090
6.881137 -43.445358 5.677448
6.202119 -43.366550 3.883259
7.394778 -43.993881 7.303387
6.788738 -43.948483 5.715729
7.515947 -44.459343 7.482847
4.041320 -42.617729 -0.621307
6.650966 -43.483917 5.924805
6.771097 -43.999866 6.504049
6.975281 -44.481197 6.886992
3.627666 -42.646191 -0.674839
6.379802 -43.517582 6.062313
3.709427 -43.234657 -0.639736
6.527710 -44.034077 6.696526
6.583118 -44.509247 6.697472
3.230919 -42.677738 -0.677937
5.739743 -43.513790 5.295547
3.298396 -43.266678 -0.680264
6.100195 -44.056484 6.437889
6.057768 -44.534565 6.197857
5.538767 -43.067448 5.758049
2.836847 -42.710175 -0.667866
6.088896 -43.608883 6.934072
5.467518 -43.548805 5.450031
6.040443 -44.101780 7.068539
5.635188 -44.563839 5.972370
5.203488 -43.094204 5.757797
2.406221 -42.738453 -0.736439
5.949427 -43.653309 7.360922
2.502365 -43.334991 -0.675179
5.720895 -44.131115 7.073803
5.444981 -44.598778 6.302902
4.689730 -44.583202 4.548637
2.098148 -42.782543 -0.517174
5.695827 -43.686539 7.513344
2.098631 -43.369362 -0.675800
5.238597 -44.152317 6.716581
1.997154 -43.983368 -0.606300
5.646738 -44.640285 7.512716
1.878962 -42.836731 -0.104313
1.734644 -43.407578 -0.581184
5.190593 -44.196133 7.339849
5.481814 -44.673729 7.859774
1.188131 -42.836403 -0.724304
4.980589 -43.735878 7.361355
1.266596 -43.437603 -0.710163
4.673001 -44.217087 6.927481
1.145058 -44.055973 -0.683025
5.099729 -44.703949 7.726200
4.244579 -44.693089 5.874115
0.745594 -42.866116 -0.784267
0.820562 -43.470264 -0.779667
4.194346 -44.241234 6.621172
3.127741 -44.195778 4.371639
4.159150 -44.729080 6.421509
0.318077 -42.898193 -0.803497
2.955635 -43.692154 4.523224
0.428352 -43.507595 -0.727272
4.005916 -44.278130 6.932625
2.950348 -44.236248 4.755371
4.138627 -44.764709 7.084990
-0.071316 -42.934742 -0.737637
2.696791 -43.730392 4.736893
0.013636 -43.543705 -0.715836
2.720701 -44.274151 5.023170
3.579564 -44.796211 6.634529
-0.523987 -42.965469 -0.792805
2.911999 -43.799793 5.890156
-0.433704 -43.578129 -0.762638
3.117901 -44.333103 6.523407
2.336386 -44.306461 4.980225
3.164740 -44.829533 6.495029
2.551876 -43.325733 6.003017
-0.946978 -42.999741 -0.780888
2.835346 -43.847519 6.432573
2.781752 -44.365383 6.548885
2.769253 -44.863533 6.404816
2.358829 -43.368553 6.316051
2.432430 -43.874397 6.336601
2.641064 -44.403633 6.949127
2.589970 -44.897907 6.734995
2.004320 -43.396805 6.322044
2.229692 -43.913410 6.624100
2.320915 -44.436497 7.006226
2.424656 -44.931908 7.083502
1.749678 -43.433773 6.515717
2.021105 -43.951653 6.895176
2.212805 -44.474697 7.451912
2.211220 -44.965775 7.336067
1.423838 -43.464874 6.580656
1.728220 -43.985184 7.010397
1.596642 -44.501152 6.981890
1.927603 -44.999950 7.459131
1.097836 -43.496220 6.648870
1.411314 -44.017643 7.084923
1.453726 -44.538380 7.361631
1.500950 -45.035461 7.333038
0.897625 -43.537029 6.936134
1.174816 -44.054008 7.300880
1.210018 -44.573326 7.560263
1.247152 -45.069813 7.514404
0.460812 -43.560703 6.820898
0.833637 -44.085648 7.338034
0.876177 -44.606831 7.606253
0.964508 -45.104519 7.646290
0.399235 -43.610573 7.334524
-0.285336 -43.564392 6.206856
-4.340889 -43.290813 -0.473709
0.408970 -44.114216 7.241917
0.526201 -44.640427 7.630125
0.485725 -45.142029 7.455900
-0.691082 -43.592674 6.172775
-4.799324 -43.326988 -0.464085
0.138750 -44.149452 7.406141
0.075085 -44.673267 7.496349
0.323195 -45.175434 7.790318
-0.501463 -43.658474 7.089975
-4.976631 -43.381172 -0.001434
-0.204531 -44.182037 7.454239
-0.470633 -44.706001 7.224478
-0.314999 -45.216640 7.363998
-5.445084 -43.417175 -0.000935
-0.904530 -44.202911 6.950447
-5.372471 -44.052120 -0.018997
-1.006207 -44.739891 6.985008
-5.510521 -44.707882 0.001728
-0.697010 -45.254318 7.358694
-5.909838 -43.454010 0.013184
-5.809383 -44.093117 0.036560
-5.947308 -44.751675 0.059242
-1.266869 -45.296177 7.073336
-5.842470 -45.387978 0.089214
-6.403929 -43.489838 -0.009048
-4.468348 -44.186752 2.768391
-6.285942 -44.133377 0.038582
-4.581764 -44.802063 2.813358
-6.073267 -44.796940 0.586754
-6.118183 -45.431252 0.392056
-4.976643 -43.626038 2.800400
-4.844492 -44.226509 2.875847
-4.979973 -44.843540 2.889400
-6.208878 -44.841488 1.088791
-6.109324 -45.467896 1.110210
-5.376610 -43.663403 2.879700
-5.271696 -44.265236 2.913147
-5.407169 -44.885353 2.928654
-6.135494 -45.504513 1.759586
-5.800062 -43.700008 2.930622
-5.694275 -44.304531 2.963390
-4.113163 -44.924610 5.404572
-5.818136 -44.927570 2.997177
-3.949619 -45.483311 5.527065
-4.449640 -43.816856 5.453087
-4.305559 -44.382755 5.545471
-4.422052 -44.964050 5.576263
-4.309589 -45.524540 5.624657
-4.835812 -43.852081 5.522198
-4.731688 -44.419384 5.557049
-4.806660 -45.003967 5.646080
-4.710934 -45.567215 5.669590
-5.234495 -43.887169 5.579536
-5.129517 -44.457016 5.613697
-5.179829 -45.044147 5.736160
-5.083359 -45.609402 5.759144
-5.591625 -43.924271 5.697063
-5.461729 -44.496071 5.762497
-5.559273 -45.084679 5.822334
-5.443913 -45.651512 5.868668
-5.979113 -43.960491 5.778801
-5.842016 -44.534611 5.851273
-5.945160 -45.125587 5.904762
-5.822714 -45.694477 5.958302
-6.360838 -43.997265 5.872684
-6.222589 -44.573463 5.944221
-6.294275 -45.166420 6.038574
-6.201790 -45.737755 6.052109
-6.711529 -44.035374 6.009773
-6.578438 -44.612896 6.072605
-6.699312 -45.208168 6.105877
-6.581097 -45.781345 6.150097
-7.093342 -44.072723 6.111786
-6.984425 -44.652111 6.142689
-7.086079 -45.250042 6.201038
-6.960588 -45.825245 6.252274
-7.475311 -44.110378 6.218010
-7.365597 -44.691898 6.248238
-7.460318 -45.292042 6.315891
-7.365761 -45.870396 6.327888
-7.883198 -44.147636 6.297920
-7.746883 -44.731987 6.358006
-7.840984 -45.334435 6.427227
-7.719955 -45.913956 6.469261
-8.291679 -44.185276 6.382523
-8.180311 -44.772167 6.411274
-8.247816 -45.377598 6.512505
-8.119287 -45.959530 6.561340
-8.674356 -44.223911 6.501907
-8.562210 -44.812935 6.529966
-8.661772 -45.421257 6.594965
-8.532187 -46.005989 6.642958
-9.083605 -44.262257 6.595695
-8.970644 -44.853966 6.623007
-9.036369 -45.464489 6.726999
-8.905815 -46.051189 6.774187
-9.520153 -44.300430 6.664585
-9.433159 -44.895390 6.661415
-9.471268 -45.509308 6.796583
-9.366474 -46.100361 6.813255
-9.903368 -44.340054 6.797478
-9.761719 -44.937084 6.852718
-9.879896 -45.553944 6.900745
-9.754005 -46.146812 6.938841
-10.313780 -44.379494 6.905504
-10.198404 -44.979263 6.930542
-10.261440 -45.598278 7.038797
-10.127808 -46.192955 7.083405
-10.752104 -44.418869 6.989386
-10.608307 -45.021748 7.042582
-10.698065 -45.644291 7.123367
-10.570265 -46.242496 7.159838
-11.191156 -44.458672 7.078535
-11.046280 -45.064754 7.130669
-11.135406 -45.690735 7.213202
-10.999643 -46.291843 7.255989
-11.574640 -44.499603 7.229856
-11.456854 -45.107986 7.252531
-11.552290 -45.737022 7.329626
-11.408485 -46.340595 7.378626
-12.071228 -44.539558 7.272720
-11.924206 -45.152050 7.322725
-11.983604 -45.784084 7.436907
-11.845787 -46.391064 7.477879
-12.512129 -44.580635 7.377790
-12.364046 -45.196331 7.426720
-12.451141 -45.832615 7.514502
-12.312223 -46.443363 7.554506
-12.946308 -44.622189 7.495136
-12.804390 -45.241028 7.536057
-12.977406 -45.883427 7.542612
-12.866112 -46.500504 7.553885
-13.562641 -44.662907 7.446150
-13.448528 -45.288651 7.458288
-13.680241 -45.940479 7.413162
-13.560394 -46.565434 7.430294
-14.299519 -44.703869 7.296795
-14.147625 -45.337917 7.341761
-14.417038 -45.999607 7.266512
-14.266491 -46.631824 7.309734
-15.011829 -44.746120 7.184891
-14.888039 -45.388805 7.201380
-16.549515 -46.107391 5.866283
-16.387390 -46.774048 5.913307
-17.188656 -44.785522 5.775517
-17.031826 -45.463169 5.815338
-17.329319 -46.171444 5.732960
-17.202686 -46.849266 5.745186
-17.980999 -44.831745 5.643684
-17.852673 -45.519218 5.655449
-18.121571 -46.236980 5.604225
-18.023483 -46.925789 5.588882
-18.748047 -44.879200 5.549377
-18.648739 -45.576019 5.533634
-19.017128 -46.307404 5.401997
-18.826981 -47.002357 5.464096
-19.725224 -44.928032 5.291145
-19.601826 -45.636990 5.293541
-19.880779 -46.377834 5.245270
-19.749535 -47.086605 5.253838
-20.602188 -44.978264 5.137196
-20.400856 -45.696262 5.202408
-21.422832 -45.029652 5.046776
-21.469322 -45.078541 5.595619
-22.113155 -45.820656 4.972889
-22.441841 -46.594730 4.901176
-21.917057 -45.129173 5.820026
-22.620396 -45.876362 5.159718
-22.442856 -45.180660 5.988403
-29.206657 -46.961464 0.830585
-29.027618 -47.807140 0.852123
-22.452244 -45.228367 6.558033
-23.507301 -45.985779 5.649708
-22.990826 -45.280346 6.723368
-23.773312 -46.036186 6.034851
-23.400806 -45.331482 6.990599
-29.230152 -47.092392 2.795746
-28.970257 -47.916553 2.874783
-24.198193 -45.387321 6.981287
-29.214363 -46.277950 3.241676
-35.064365 -46.446117 -1.003563
-29.219929 -47.134186 3.447445
-28.951302 -47.952209 3.531036
-35.947533 -45.582794 -0.792900
-29.158592 -46.323414 3.919846
-35.989536 -46.526417 -0.947304
-31.102077 -47.264908 2.750645
-30.951679 -48.117466 2.744102
-36.285164 -45.646046 -0.311962
-29.266754 -46.373192 4.474087
-28.382492 -47.987782 5.188663
-29.105236 -46.414055 5.208717
-28.947208 -48.060352 5.413803
-29.697285 -46.478577 5.424011
19.066782 -44.896118 38.315178
19.040911 -44.901375 38.300491
19.038332 -44.898113 38.304867
19.065157 -44.899876 38.318645
19.081608 -44.895699 38.329884
19.037634 -44.902096 38.306713
19.027292 -44.899132 38.304531
19.009892 -44.904373 38.295250
19.035164 -44.898830 38.311142
19.071276 -44.899822 38.328667
19.061100 -44.897396 38.326313
19.079378 -44.899330 38.334827
19.060211 -44.897606 38.328197
19.078564 -44.899521 38.336552
19.023102 -44.900112 38.313309
19.041584 -44.902569 38.321468
19.022102 -44.900356 38.315525
19.031574 -44.903515 38.319401
19.066771 -44.897633 38.337933
19.094440 -44.898632 38.349869
19.066303 -44.901020 38.339565