# This PCD file was generated using the MATLAB® pcwrite function
# from Computer Vision System Toolbox®.
# .PCD v.7 - Point Cloud Data file format
VERSION .7
FIELDS x y z
SIZE 4 4 4
TYPE F F F
COUNT 1 1 1
WIDTH 773
HEIGHT 1
VIEWPOINT 0 0 0 1 0 0 0
POINTS 773
DATA ascii
-0.199142 -0.423692 -0.280362
-0.238092 -0.417958 -0.305126
-0.118419 -0.377837 -0.219683
-0.156393 -0.373293 -0.244784
-0.150356 -0.394757 -0.269568
-0.142074 -0.364626 -0.248784
-0.129457 -0.382275 -0.266886
-0.193706 -0.391002 -0.319101
-0.115144 -0.373469 -0.270585
-0.126571 -0.354298 -0.269587
-0.088001 -0.357573 -0.260498
-0.125194 -0.352509 -0.286647
0.002671 -0.306594 -0.181430
-0.059178 -0.316571 -0.235299
-0.047023 -0.333234 -0.252764
-0.096320 -0.335125 -0.293266
-0.032996 -0.324663 -0.255374
-0.005774 -0.286422 -0.212605
-0.006552 -0.309274 -0.243700
-0.061244 -0.314543 -0.292014
0.031997 -0.287271 -0.217373
-0.028217 -0.296171 -0.273245
0.057859 -0.272284 -0.204679
-0.038864 -0.300684 -0.303997
0.047075 -0.277397 -0.234880
0.012252 -0.272941 -0.262862
0.054716 -0.272408 -0.243516
-0.022485 -0.289979 -0.322676
0.110102 -0.241371 -0.193334
0.034062 -0.259517 -0.273199
0.087916 -0.252679 -0.238344
0.036023 -0.257451 -0.289247
0.148254 -0.219064 -0.179429
0.091463 -0.227728 -0.238250
0.143908 -0.220659 -0.202083
0.052209 -0.246952 -0.306421
0.162807 -0.209642 -0.194593
0.083652 -0.229693 -0.284609
0.141746 -0.220256 -0.240216
0.074418 -0.233366 -0.315633
0.177595 -0.200103 -0.209453
0.122588 -0.207614 -0.270101
0.196221 -0.189288 -0.201283
0.130524 -0.202508 -0.277860
0.198129 -0.187484 -0.216208
0.144107 -0.194528 -0.277746
0.254785 -0.156304 -0.152651
0.190808 -0.169746 -0.230369
0.213259 -0.177792 -0.230339
0.176576 -0.175930 -0.269046
0.226247 -0.170052 -0.229328
0.184517 -0.170856 -0.276260
0.265586 -0.148282 -0.188082
0.192514 -0.165754 -0.283392
0.252033 -0.154718 -0.226756
0.205862 -0.157967 -0.282385
0.259663 -0.149866 -0.233311
0.208675 -0.155468 -0.297406
0.187386 -0.143935 -0.324207
0.209844 -0.112962 -0.274240
0.277551 -0.139585 -0.223458
0.222013 -0.147704 -0.296130
0.211401 -0.131297 -0.306670
0.196716 -0.117167 -0.313593
0.275076 -0.140088 -0.246182
0.225055 -0.145077 -0.311085
0.224798 -0.123672 -0.305199
0.246806 -0.093644 -0.254667
0.292823 -0.129912 -0.235972
0.238378 -0.137337 -0.309540
0.223699 -0.102134 -0.310583
0.349746 -0.099175 -0.158989
0.301557 -0.104985 -0.224750
0.241321 -0.113229 -0.318355
0.237086 -0.094696 -0.308803
0.366607 -0.089573 -0.147847
0.294400 -0.107449 -0.255776
0.279481 -0.094245 -0.274582
0.250401 -0.087311 -0.306843
0.344882 -0.100175 -0.203701
0.277924 -0.114434 -0.303812
0.292405 -0.086949 -0.272245
0.288527 -0.069343 -0.262660
0.366567 -0.088061 -0.183955
0.305378 -0.099860 -0.276198
0.300407 -0.081919 -0.278197
0.311209 -0.058087 -0.243200
0.378574 -0.081023 -0.180856
0.332379 -0.085578 -0.248130
0.308456 -0.076865 -0.284066
0.304450 -0.059339 -0.274386
0.381278 -0.078826 -0.194682
0.307433 -0.096565 -0.313556
0.335429 -0.063270 -0.255631
0.326846 -0.048278 -0.254488
0.402336 -0.067126 -0.174159
0.329594 -0.084668 -0.293680
0.324692 -0.066695 -0.295555
0.325281 -0.047281 -0.277193
0.396158 -0.069511 -0.205105
0.342311 -0.077371 -0.290712
0.351245 -0.053376 -0.266599
0.342659 -0.038386 -0.265454
0.425751 -0.053471 -0.166808
0.381882 -0.057229 -0.235535
0.341109 -0.056440 -0.306708
0.341437 -0.037188 -0.288169
0.398138 -0.066813 -0.241386
0.354218 -0.069287 -0.310410
0.367234 -0.043403 -0.277240
0.335984 -0.037659 -0.319694
0.414493 -0.057588 -0.228926
0.384315 -0.053768 -0.272027
0.370894 -0.040316 -0.291208
0.357766 -0.027016 -0.298813
0.405282 -0.061406 -0.269053
0.370852 -0.058931 -0.321139
0.400720 -0.025797 -0.252301
0.370396 -0.020133 -0.295205
0.429903 -0.048008 -0.238658
0.400381 -0.043780 -0.282173
0.404330 -0.022755 -0.266023
0.391607 -0.009859 -0.273744
0.441759 -0.041124 -0.234518
0.387656 -0.048499 -0.331525
0.416512 -0.016000 -0.261957
0.386842 -0.009929 -0.305262
0.469627 -0.026195 -0.194515
0.416607 -0.033720 -0.291987
0.420331 -0.012841 -0.275596
0.407737 0.000135 -0.283394
0.473106 -0.023578 -0.207834
0.424779 -0.028664 -0.296770
0.432456 -0.006134 -0.271288
0.419997 0.006762 -0.279133
0.511795 -0.003359 -0.140124
0.460740 -0.010817 -0.238486
0.452487 0.003875 -0.248805
0.424020 0.010197 -0.292712
0.484395 -0.016147 -0.225428
0.425646 -0.025634 -0.342221
0.448548 0.003797 -0.280291
0.436220 0.016774 -0.288210
0.514627 -0.000243 -0.175160
0.476330 -0.001202 -0.247109
0.468246 0.013588 -0.257421
0.440449 0.020323 -0.301696
0.518239 0.002432 -0.188175
0.469127 -0.003173 -0.287732
0.479976 0.020026 -0.252491
0.468058 0.032600 -0.260517
0.503900 -0.003688 -0.246932
0.480973 0.003497 -0.282842
0.484142 0.023361 -0.265715
0.472221 0.036097 -0.273766
0.518854 0.004601 -0.232560
0.474585 0.002015 -0.323689
0.495802 0.029743 -0.260551
0.484017 0.042400 -0.268646
0.509158 0.000873 -0.282495
0.497242 0.013480 -0.291028
0.482202 0.026024 -0.319788
0.477394 0.042071 -0.309435
0.524107 0.009147 -0.267927
0.487980 0.010830 -0.341223
0.525855 0.045078 -0.231270
0.496512 0.050983 -0.285692
0.525415 0.010824 -0.290280
0.513640 0.023518 -0.298881
0.512869 0.041723 -0.290606
0.494097 0.052289 -0.317333
0.546711 0.022092 -0.256785
0.508484 0.022765 -0.339921
0.541378 0.054563 -0.238424
0.512863 0.060974 -0.293227
0.561060 0.029981 -0.241650
0.530164 0.033608 -0.306397
0.532601 0.053004 -0.288626
0.521084 0.065987 -0.296869
0.578299 0.039195 -0.216935
0.538472 0.038671 -0.310028
0.557016 0.064093 -0.245259
0.545915 0.076515 -0.253578
0.589004 0.045283 -0.210775
0.546809 0.043746 -0.313574
0.564876 0.068875 -0.248557
0.537614 0.076050 -0.303901
0.593595 0.048501 -0.223352
0.552103 0.047555 -0.326467
0.560339 0.069125 -0.289524
0.561799 0.086173 -0.260150
0.604211 0.054524 -0.216979
0.575570 0.058869 -0.282576
0.577640 0.077378 -0.264377
0.554257 0.086158 -0.310595
0.611853 0.059159 -0.219964
0.569060 0.057846 -0.333188
0.576757 0.079084 -0.295938
0.562620 0.091227 -0.313814
0.602790 0.056189 -0.279988
0.589014 0.067603 -0.298365
0.593684 0.087098 -0.270462
0.571008 0.096306 -0.316948
0.632641 0.070909 -0.206610
0.588912 0.069285 -0.330024
0.604566 0.092936 -0.263837
0.593880 0.105610 -0.272318
0.624339 0.068388 -0.266736
0.597412 0.074423 -0.333056
0.609827 0.096856 -0.276219
0.587862 0.106493 -0.322959
0.652951 0.082347 -0.192741
0.613870 0.082627 -0.307231
0.620612 0.102624 -0.269380
0.610067 0.115382 -0.277910
0.642908 0.079178 -0.262577
0.622203 0.087653 -0.310017
0.626063 0.106647 -0.281647
0.604813 0.116716 -0.328626
0.672772 0.093469 -0.178374
0.640562 0.096416 -0.274169
0.636749 0.112344 -0.274596
0.626345 0.125187 -0.283171
0.675423 0.095883 -0.200005
0.641368 0.098617 -0.305674
0.642388 0.116469 -0.286744
0.624389 0.127596 -0.324293
0.678382 0.098477 -0.221648
0.656764 0.106158 -0.279138
0.662530 0.124906 -0.240744
0.640249 0.134439 -0.297776
0.677226 0.099406 -0.262716
0.655762 0.107832 -0.320310
0.658796 0.126318 -0.291508
0.641374 0.137793 -0.329225
0.689510 0.105963 -0.245495
0.664204 0.112894 -0.322669
0.669274 0.131869 -0.284039
0.656839 0.144387 -0.302413
0.699454 0.111516 -0.237864
0.674804 0.118677 -0.315200
0.683967 0.138482 -0.256959
0.665164 0.149369 -0.304605
0.709270 0.116987 -0.230114
0.685277 0.124378 -0.307608
0.685652 0.141667 -0.288264
0.675674 0.154766 -0.296959
0.728559 0.126112 -0.173322
0.705577 0.133133 -0.250995
0.691843 0.146089 -0.300032
0.675584 0.158259 -0.338049
0.728512 0.127680 -0.214269
0.705837 0.135533 -0.292059
0.709904 0.153248 -0.252963
0.690245 0.164349 -0.310672
0.736163 0.132242 -0.215998
0.714078 0.140447 -0.293921
0.715981 0.157592 -0.264533
0.698640 0.169352 -0.312525
0.740429 0.135576 -0.237320
0.717023 0.143878 -0.325188
0.725828 0.162732 -0.256393
0.707050 0.174359 -0.314292
0.758013 0.143664 -0.179821
0.730607 0.150286 -0.297394
0.732082 0.167171 -0.267831
0.715476 0.179369 -0.315974
0.768515 0.149116 -0.161530
0.738894 0.155211 -0.299005
0.741810 0.172230 -0.259499
0.732544 0.185105 -0.268325
0.766909 0.150523 -0.222135
0.741001 0.158685 -0.340023
0.748240 0.176762 -0.270803
0.732372 0.189398 -0.319081
0.771820 0.154221 -0.243257
0.755510 0.165069 -0.301974
0.757845 0.181739 -0.262281
0.748725 0.194699 -0.271132
0.789006 0.161659 -0.175219
0.770837 0.171379 -0.253844
0.758717 0.185831 -0.313030
0.749321 0.199437 -0.321845
0.797632 0.166372 -0.166430
0.780130 0.176325 -0.245152
0.773929 0.191255 -0.264738
0.764955 0.204302 -0.273611
0.794314 0.167920 -0.256798
0.776776 0.179310 -0.335555
0.780704 0.195970 -0.275761
0.767672 0.209407 -0.314358
0.803407 0.172899 -0.247918
0.788891 0.184809 -0.306900
0.790056 0.200776 -0.266868
0.774834 0.214508 -0.325347
0.813392 0.178011 -0.228995
0.793959 0.189449 -0.337736
0.792464 0.205754 -0.317488
0.783359 0.219533 -0.326342
0.819261 0.182244 -0.249768
0.805646 0.194684 -0.308855
0.806222 0.210299 -0.268672
0.797540 0.223518 -0.277581
0.833371 0.187837 -0.180852
0.818796 0.199677 -0.259933
0.817271 0.214666 -0.239600
0.801493 0.229331 -0.318132
0.835150 0.191588 -0.251298
0.822437 0.204560 -0.310472
0.818785 0.220524 -0.309977
0.808991 0.234607 -0.328809
0.842375 0.196216 -0.261915
0.830845 0.209497 -0.311152
0.825528 0.225899 -0.330541
0.822071 0.237930 -0.279692
0.851068 0.200930 -0.252505
0.839260 0.214432 -0.311748
0.835614 0.230395 -0.311168
0.826117 0.244652 -0.330021
0.858456 0.205643 -0.262972
0.845727 0.219862 -0.342191
0.846090 0.234404 -0.281721
0.837705 0.247960 -0.290648
0.871057 0.209556 -0.173497
0.860716 0.222624 -0.232835
0.854902 0.238851 -0.272119
0.849376 0.250441 -0.241196
0.875851 0.214665 -0.233734
0.865041 0.228975 -0.303041
0.862503 0.244000 -0.282384
0.854265 0.257641 -0.291317
0.886525 0.217825 -0.154034
0.875104 0.232668 -0.263348
0.873005 0.246594 -0.232692
0.865192 0.259677 -0.241675
0.892639 0.222928 -0.194155
0.881418 0.239079 -0.313451
0.878932 0.253584 -0.282715
0.869032 0.269728 -0.331538
0.899360 0.228379 -0.234208
0.889862 0.244000 -0.313536
0.887458 0.257843 -0.272775
0.879512 0.271493 -0.281721
0.906814 0.233869 -0.264191
0.897711 0.250204 -0.343502
0.895373 0.263154 -0.282715
0.886525 0.279043 -0.321566
0.914938 0.238209 -0.254116
0.906758 0.253829 -0.313451
0.903127 0.269779 -0.312530
0.894822 0.284732 -0.331407
0.922803 0.240476 -0.194002
0.915208 0.258737 -0.313280
0.911820 0.272707 -0.282384
0.903573 0.288945 -0.321222
0.930152 0.243973 -0.173795
0.923632 0.263080 -0.303040
0.920050 0.276773 -0.272118
0.912400 0.290595 -0.281058
0.938582 0.251160 -0.233417
0.932110 0.268538 -0.312684
0.928269 0.282240 -0.281720
0.920622 0.295358 -0.280686
0.944938 0.252538 -0.173124
0.939848 0.270838 -0.272349
0.935764 0.283047 -0.231427
0.929221 0.304669 -0.330021
0.955241 0.261951 -0.262483
0.948756 0.277625 -0.301775
0.945819 0.295920 -0.330540
0.937517 0.307730 -0.309551
0.962911 0.265998 -0.251941
0.957456 0.283196 -0.311152
0.952638 0.295619 -0.270148
0.945283 0.309612 -0.279070
0.969953 0.269293 -0.231363
0.967114 0.290405 -0.340355
0.963010 0.305840 -0.329154
0.954705 0.318515 -0.318131
0.977790 0.273810 -0.230652
0.974343 0.292935 -0.309705
0.968918 0.305003 -0.268671
0.963595 0.324504 -0.327249
0.985624 0.278320 -0.229862
0.984445 0.300390 -0.338695
0.977575 0.310692 -0.277746
0.971727 0.328316 -0.316415
0.994854 0.284400 -0.248882
0.991214 0.302644 -0.307919
0.985182 0.314357 -0.266867
0.980759 0.334376 -0.325346
0.998176 0.283993 -0.188306
1.001759 0.310342 -0.336687
0.993980 0.320117 -0.275760
0.988731 0.338085 -0.314357
1.009097 0.291806 -0.227021
1.008065 0.312319 -0.305794
1.001425 0.323679 -0.264736
0.997902 0.344214 -0.323097
1.013207 0.292615 -0.186258
1.016481 0.317144 -0.304604
1.010361 0.329507 -0.273445
1.005710 0.347818 -0.311957
1.021715 0.297874 -0.195024
1.024890 0.321959 -0.303331
1.017643 0.332965 -0.262280
1.015017 0.354014 -0.320504
1.032518 0.305217 -0.223473
1.036309 0.330137 -0.331629
1.026714 0.338860 -0.270801
1.022660 0.357513 -0.309217
1.036857 0.306530 -0.192499
1.044927 0.335061 -0.330148
1.033830 0.342213 -0.259498
1.032100 0.363774 -0.317568
1.043191 0.309755 -0.181257
1.050069 0.336344 -0.299003
1.047525 0.353580 -0.307207
1.043786 0.373053 -0.345476
1.051968 0.315148 -0.189670
1.063366 0.346128 -0.336771
1.049981 0.351420 -0.256391
1.049145 0.373490 -0.314290
1.071885 0.330009 -0.276658
1.070724 0.349766 -0.325186
1.064404 0.363190 -0.303787
1.056450 0.376774 -0.302718
1.074290 0.329809 -0.235635
1.080682 0.355982 -0.333174
1.071479 0.366499 -0.292153
1.066148 0.383160 -0.310670
1.088280 0.339329 -0.273083
1.087867 0.359511 -0.321448
1.081237 0.372753 -0.300029
1.073280 0.386336 -0.298961
1.090066 0.338766 -0.232031
1.091835 0.360099 -0.290111
1.088140 0.375953 -0.288261
1.083102 0.392781 -0.306710
1.099609 0.344570 -0.239879
1.104961 0.369205 -0.317367
1.099590 0.383872 -0.305680
1.090060 0.395847 -0.294867
1.102300 0.344906 -0.208616
1.115165 0.375538 -0.324940
1.104748 0.385356 -0.284037
1.100003 0.402350 -0.302410
1.115459 0.353539 -0.235764
1.122000 0.378846 -0.312943
1.114748 0.391726 -0.291505
1.113375 0.412542 -0.329222
1.121469 0.356535 -0.223880
1.132322 0.385235 -0.320307
1.114131 0.387781 -0.240741
1.116846 0.411863 -0.297773
1.133222 0.363965 -0.241020
1.140877 0.390061 -0.317861
1.123954 0.394040 -0.248088
1.132424 0.424169 -0.333944
1.137086 0.365341 -0.219333
1.149416 0.394873 -0.315331
1.130031 0.396741 -0.236028
1.133626 0.421319 -0.292800
1.140640 0.366537 -0.197657
1.147708 0.391100 -0.264528
1.139969 0.403054 -0.243171
1.140048 0.424049 -0.280579
1.165774 0.383896 -0.272193
1.174918 0.411471 -0.348469
1.162550 0.420812 -0.307755
1.148322 0.428698 -0.277907
1.173965 0.388496 -0.269503
1.181503 0.414604 -0.335997
1.164550 0.419757 -0.276216
1.156577 0.433330 -0.275152
1.168128 0.382782 -0.209307
1.192454 0.421312 -0.342617
1.179483 0.430309 -0.302013
1.164813 0.437947 -0.272315
1.190292 0.397647 -0.263879
1.191840 0.418695 -0.301401
1.190223 0.437050 -0.308535
1.190899 0.459657 -0.345473
1.190985 0.396805 -0.232387
1.209909 0.431084 -0.336416
1.196335 0.439737 -0.295934
1.181227 0.447130 -0.266394
1.188670 0.393865 -0.191484
1.218604 0.435943 -0.333185
1.207179 0.446525 -0.302234
1.201295 0.462795 -0.310591
1.209383 0.407492 -0.235905
1.234943 0.446781 -0.358243
1.203017 0.440536 -0.251770
1.207360 0.465284 -0.297858
1.203824 0.402318 -0.185603
1.225416 0.437446 -0.288740
1.224046 0.455927 -0.295596
1.218303 0.472276 -0.303897
1.230754 0.420230 -0.248400
1.244553 0.450407 -0.322972
1.229779 0.458380 -0.282772
1.224177 0.474647 -0.291053
1.247303 0.430689 -0.273195
1.250383 0.453071 -0.310024
1.240819 0.465254 -0.288622
1.235216 0.481680 -0.296865
1.252608 0.433214 -0.260339
1.273101 0.468590 -0.353098
1.257593 0.476786 -0.312964
1.240899 0.483933 -0.283914
1.263714 0.439796 -0.266096
1.267368 0.462497 -0.302676
1.260373 0.476841 -0.290601
1.260456 0.498382 -0.317328
1.274936 0.446438 -0.271708
1.290746 0.478370 -0.345266
1.265792 0.479096 -0.277537
1.260398 0.495638 -0.285687
1.258147 0.433731 -0.193913
1.287305 0.474119 -0.304237
1.286148 0.493338 -0.310562
1.274639 0.505323 -0.300219
1.297727 0.459895 -0.282490
1.308280 0.488063 -0.337083
1.291583 0.495590 -0.297297
1.289135 0.515144 -0.314532
1.296228 0.457772 -0.250922
1.301020 0.481102 -0.286972
1.303172 0.502731 -0.302322
1.297701 0.519867 -0.310337
1.300953 0.459941 -0.237778
1.335497 0.504848 -0.355983
1.295483 0.494728 -0.252485
1.290434 0.511301 -0.260512
1.288479 0.450457 -0.179057
1.331023 0.500002 -0.315050
1.320079 0.512035 -0.293745
1.314744 0.529246 -0.301690
1.327277 0.475732 -0.256852
1.356616 0.517059 -0.355964
1.338598 0.524482 -0.316469
1.319920 0.531171 -0.288204
1.338935 0.482571 -0.261585
1.348116 0.509389 -0.306076
1.323102 0.510655 -0.248799
1.331663 0.538531 -0.292707
1.347086 0.487039 -0.257159
1.374338 0.526779 -0.346449
1.355733 0.533873 -0.307165
1.350389 0.551555 -0.314974
1.362572 0.496409 -0.270583
1.354240 0.510929 -0.269886
1.353518 0.530362 -0.275590
1.358974 0.556250 -0.310157
1.359542 0.493403 -0.239140
1.388240 0.533775 -0.327662
1.372734 0.543165 -0.297523
1.381825 0.572442 -0.340790
1.378988 0.505375 -0.261172
1.400661 0.541166 -0.331519
1.370040 0.539380 -0.266016
1.376039 0.565564 -0.300269
1.375482 0.502097 -0.229806
1.405546 0.543213 -0.317528
1.389596 0.552355 -0.287545
1.384519 0.570182 -0.295199
1.379447 0.503795 -0.216215
1.402486 0.539695 -0.285934
1.405673 0.562654 -0.299973
1.408077 0.586739 -0.325092
1.403356 0.518637 -0.246448
1.426659 0.555314 -0.315811
1.406314 0.561440 -0.277233
1.401368 0.579339 -0.284806
1.395048 0.512268 -0.206493
1.419167 0.548753 -0.275540
1.422585 0.571831 -0.289327
1.425388 0.596133 -0.314195
1.419423 0.527349 -0.236232
1.443801 0.564610 -0.304911
1.455286 0.594260 -0.335741
1.449903 0.613189 -0.343156
1.444294 0.542693 -0.265545
1.468928 0.580726 -0.333851
1.439343 0.580898 -0.278348
1.442542 0.605414 -0.302957
1.443921 0.541541 -0.242880
1.477665 0.585446 -0.328013
1.472759 0.603700 -0.324065
1.467505 0.622698 -0.331394
1.456311 0.548702 -0.245952
1.469216 0.578339 -0.287929
1.451693 0.586764 -0.258529
1.459532 0.614579 -0.291380
1.451109 0.544454 -0.214851
1.490660 0.591811 -0.307585
1.455551 0.588039 -0.244333
1.467965 0.619117 -0.285467
1.476877 0.560254 -0.243129
1.503620 0.599424 -0.309984
1.481133 0.605003 -0.272238
1.480662 0.626902 -0.287878
1.484921 0.564573 -0.237324
1.525629 0.613185 -0.329009
1.489417 0.609446 -0.266204
1.484701 0.628102 -0.273390
1.474461 0.556991 -0.198000
1.502520 0.596233 -0.264123
1.515689 0.626766 -0.293379
1.497440 0.635895 -0.275541
1.528959 0.591134 -0.275350
1.543009 0.622494 -0.316109
1.524140 0.631285 -0.286989
1.514764 0.647106 -0.285779
1.542001 0.598604 -0.277280
1.556303 0.630256 -0.317789
1.532545 0.635772 -0.280515
1.514038 0.644763 -0.262875
1.545511 0.599970 -0.262602
1.564939 0.634863 -0.311076
1.559700 0.653540 -0.306662
1.536152 0.659494 -0.280919
1.558588 0.607444 -0.264270
1.587928 0.649110 -0.328753
1.553976 0.648010 -0.275446
1.525760 0.650021 -0.241767
1.571743 0.614952 -0.265756
1.582064 0.643974 -0.297397
1.576775 0.662617 -0.292898
1.571862 0.682429 -0.299722
1.559999 0.606642 -0.226748
1.590551 0.648478 -0.290432
1.590124 0.670532 -0.293914
1.561121 0.672756 -0.260610
1.567938 0.610847 -0.220115
1.598988 0.652947 -0.283383
1.613444 0.685400 -0.310683
1.608367 0.705755 -0.317370
1.611660 0.637670 -0.269109
1.622523 0.667452 -0.300107
1.627059 0.693440 -0.311217
1.621971 0.713947 -0.317843
1.630291 0.648571 -0.277759
1.651484 0.685504 -0.324329
1.630601 0.694456 -0.295830
1.645644 0.729457 -0.333836
1.628150 0.646366 -0.254708
1.644676 0.679829 -0.293122
1.644231 0.702487 -0.296089
1.644322 0.726734 -0.310412
1.646919 0.657324 -0.262981
1.674075 0.698095 -0.316692
1.647541 0.703365 -0.280642
1.663185 0.738682 -0.318108
1.622982 0.641465 -0.209017
1.619221 0.660823 -0.215961
1.676936 0.722246 -0.303728
1.682232 0.750718 -0.325500
1.647065 0.655746 -0.224818
1.712736 0.721206 -0.331536
1.685505 0.726731 -0.295704
1.675256 0.743980 -0.294402
1.682412 0.677029 -0.255467
1.716101 0.722248 -0.315622
1.720868 0.749590 -0.325541
1.715561 0.771240 -0.331776
1.657360 0.660561 -0.202158
1.708347 0.716033 -0.284599
1.724182 0.750436 -0.309534
1.713645 0.768162 -0.308199
1.698723 0.685532 -0.239658
1.733354 0.731243 -0.298900
1.732806 0.754923 -0.301031
1.716851 0.768784 -0.292232
1.740727 0.710828 -0.276390
1.741888 0.735679 -0.290412
1.719185 0.744273 -0.262778
1.730827 0.777092 -0.291112
1.720515 0.697427 -0.230932
1.733427 0.729069 -0.259657
1.749866 0.763771 -0.283773
1.733792 0.777571 -0.275094
1.780458 0.733761 -0.288772
1.792980 0.766613 -0.317204
1.780940 0.783464 -0.304214
1.747757 0.785855 -0.273691
1.759779 0.720100 -0.243505
1.795908 0.767373 -0.300835
1.818120 0.807211 -0.331335
1.784352 0.810082 -0.301007
1.791425 0.738820 -0.263761
1.827731 0.786811 -0.320584
1.798068 0.792291 -0.285980
1.792937 0.814502 -0.291790
1.752180 0.713765 -0.197506
1.812969 0.776155 -0.282517
1.835672 0.816237 -0.312329
1.824482 0.835034 -0.310925
1.783922 0.732516 -0.217362
1.821398 0.780480 -0.273234
1.814926 0.800941 -0.267413
1.809903 0.823207 -0.273104
1.840243 0.766331 -0.264808
1.877608 0.815492 -0.320136
1.870759 0.837006 -0.313966
1.871086 0.864352 -0.326512
1.830219 0.759321 -0.234430
1.904444 0.831558 -0.331105
1.855481 0.825425 -0.276250
1.844357 0.844100 -0.274861
1.832119 0.759651 -0.218178
1.894992 0.824360 -0.300162
1.888070 0.845825 -0.293908
1.888610 0.873280 -0.306207
1.852481 0.771291 -0.222528
1.922004 0.840494 -0.310585
1.896615 0.850163 -0.283753
1.909317 0.886027 -0.309521
1.898048 0.798313 -0.253698
1.936868 0.848839 -0.306980
1.929696 0.870791 -0.300484
1.936241 0.903036 -0.319229
1.944177 0.825608 -0.284020
1.995505 0.885032 -0.350183
1.963122 0.891583 -0.316616
1.951135 0.911691 -0.315129
1.959007 0.833758 -0.280190
1.979282 0.873546 -0.312434
1.953084 0.883570 -0.285857
1.953682 0.911833 -0.297606
2.012396 0.865363 -0.315710
2.019743 0.898071 -0.334407
2.005745 0.916984 -0.320876
1.968520 0.920437 -0.293205
1.995217 0.853997 -0.278421
1.996590 0.882241 -0.290422
1.989083 0.904625 -0.283598
1.964514 0.916114 -0.269173
2.023215 0.925725 -0.298083
1.998258 0.937641 -0.283758
2.051205 0.942732 -0.305603
2.057878 0.976750 -0.323081
2.066387 0.951304 -0.300074
2.086013 0.994282 -0.329886
2.101258 0.972733 -0.312962
2.133816 1.025126 -0.354808
2.136428 0.994297 -0.325219
2.084068 0.989722 -0.286800
2.138613 0.994313 -0.306467
2.132125 1.020664 -0.310934
2.127607 1.015998 -0.286181
2.182920 1.020319 -0.304739
1.067557 0.299896 0.674819
2.176237 1.047193 -0.309038
2.252232 1.096699 -0.354395
1.146434 0.346953 0.613989
1.103448 0.323620 0.648991
1.097858 0.319645 0.656627
1.114751 0.326040 0.646959
1.126473 0.338570 0.635915
1.107087 0.325375 0.654789
1.117223 0.327225 0.651005
1.101321 0.321309 0.662244
1.090178 0.309668 0.674783
1.074475 0.303232 0.685841
1.119635 0.328373 0.655097
1.131704 0.341069 0.644633
1.077919 0.301487 0.688885
1.111737 0.327587 0.662680
1.114794 0.324888 0.664448
1.098623 0.318690 0.675089
1.085329 0.309707 0.687212