# This PCD file was generated using the MATLAB® pcwrite function
# from Computer Vision System Toolbox®.
# .PCD v.7 - Point Cloud Data file format
VERSION .7
FIELDS x y z
SIZE 4 4 4
TYPE F F F
COUNT 1 1 1
WIDTH 792
HEIGHT 1
VIEWPOINT 0 0 0 1 0 0 0
POINTS 792
DATA ascii
28.821716 2.438258 3.922216
28.643322 2.989488 3.731686
27.172770 2.285916 4.064661
26.877417 2.291398 3.962175
26.570316 2.766785 3.951931
26.479458 2.252745 4.004183
26.212729 2.741506 3.941502
26.123201 2.230000 3.995506
25.729570 2.189375 4.046556
25.376728 2.164783 4.046179
24.982225 2.119793 4.114195
24.611759 2.083603 4.154461
24.285505 2.066119 4.133785
23.939606 2.037995 4.149382
23.619484 2.472068 4.192604
23.574995 1.999165 4.201773
23.311562 2.457876 4.156939
23.252939 1.979222 4.192051
22.964825 2.422040 4.190784
22.917206 1.951067 4.210739
22.649248 2.401082 4.178471
22.592899 1.927074 4.216358
22.277287 2.347887 4.269993
22.260391 1.897329 4.242271
21.960140 2.322731 4.273203
21.962698 1.884255 4.212624
21.625767 2.286291 4.313602
21.642483 1.857979 4.228466
21.275135 2.238513 4.391649
21.291798 1.813423 4.307459
20.940580 2.197857 4.448017
20.948242 1.770566 4.381815
20.630257 2.169673 4.465157
23.136013 3.676565 -0.416090
20.691067 1.774681 4.296326
20.351681 2.159344 4.425230
22.830219 3.679362 -0.512310
20.416142 1.768115 4.247772
22.498528 3.665497 -0.553827
20.107409 1.740731 4.271370
22.129887 3.626917 -0.513901
19.800205 1.712644 4.298185
21.795971 3.608824 -0.539934
19.478172 1.673743 4.363245
21.462841 3.589969 -0.562712
19.174450 1.644262 4.396561
19.117588 1.266395 4.163149
19.082058 0.825040 4.200207
21.114811 3.559669 -0.547043
18.888119 1.624254 4.397684
18.814827 1.238123 4.201124
18.776493 0.796617 4.248152
20.799068 3.549995 -0.598536
18.568079 1.580737 4.481468
20.760014 3.023823 -0.555925
18.544365 1.228438 4.170855
18.526476 0.799322 4.173946
20.483564 3.539601 -0.647081
18.299662 1.569597 4.452953
20.434572 3.006818 -0.576864
18.259331 1.208503 4.178959
18.242279 0.780980 4.182819
20.157267 3.520446 -0.665991
18.042778 1.565492 4.400171
20.106190 2.986537 -0.585745
17.946060 1.168634 4.261759
17.973873 0.771119 4.158426
19.813717 3.487144 -0.637119
19.782379 2.968076 -0.600420
17.667473 1.149840 4.266703
17.695162 0.753817 4.163712
19.433010 3.423540 -0.506214
19.441710 2.936137 -0.567001
17.372356 1.118344 4.319599
17.442020 0.751881 4.108141
19.059200 3.361834 -0.380224
19.144157 2.934111 -0.638559
17.079071 1.086221 4.375496
17.175032 0.740232 4.091282
18.708904 3.315502 -0.304411
18.846344 2.931411 -0.707476
16.784306 1.051054 4.443474
18.621357 2.383317 -0.566545
16.908588 0.727995 4.076921
18.403650 3.303446 -0.342730
18.482489 2.876866 -0.591953
16.520920 1.037092 4.432213
18.345341 2.394632 -0.685266
16.642719 0.715173 4.065054
18.092287 3.285322 -0.360094
18.121716 2.821578 -0.472637
16.245438 1.012852 4.460081
18.014156 2.364060 -0.645874
16.342422 0.676579 4.156858
17.784687 3.269215 -0.383675
17.776566 2.775806 -0.386158
17.693903 2.340072 -0.630835
16.053871 0.644249 4.224064
17.477594 3.252435 -0.404427
17.467377 2.757524 -0.397112
17.377846 2.317832 -0.621975
15.770309 0.613623 4.284906
17.171040 3.234987 -0.422356
17.138176 2.720621 -0.340792
17.013081 2.253612 -0.452919
15.482715 0.577828 4.367115
16.853580 3.206074 -0.400715
16.848267 2.716391 -0.401211
16.683506 2.215431 -0.382048
15.220131 0.559819 4.377758
16.788528 1.822106 -0.740519
16.548513 3.187298 -0.412935
16.555323 2.708948 -0.449848
16.369843 2.188738 -0.354441
14.950134 0.534367 4.418848
16.467028 1.792471 -0.694527
16.257559 3.181375 -0.468584
16.240658 2.680321 -0.421684
16.068192 2.171124 -0.361172
14.678869 0.506068 4.471882
16.120319 1.739213 -0.551912
15.940254 3.147786 -0.429035
15.924685 2.648475 -0.381258
15.767201 2.152867 -0.365156
14.424816 0.491002 4.471254
15.776958 1.685296 -0.405773
15.649775 3.140570 -0.479380
15.643259 2.649362 -0.459066
15.476933 2.143703 -0.403881
15.477235 1.667485 -0.406590
15.334677 3.105690 -0.434078
15.334164 2.621366 -0.431673
15.177012 2.124174 -0.402493
15.168503 1.639855 -0.366989
15.042410 3.094493 -0.469814
15.033413 2.600440 -0.429520
14.868479 2.094286 -0.360731
14.870580 1.620786 -0.362291
14.743380 3.074556 -0.474926
14.751715 2.599421 -0.499767
14.579420 2.083233 -0.391573
14.582474 1.610280 -0.392765
14.453728 3.064794 -0.514853
14.434193 2.556700 -0.417065
14.281799 2.061830 -0.382069
14.277064 1.580786 -0.344828
14.161917 3.051702 -0.542875
14.152715 2.554426 -0.482224
14.001667 2.059256 -0.445673
13.989893 1.569045 -0.370106
13.876316 3.046082 -0.596590
13.862572 2.541260 -0.507206
13.697030 2.026900 -0.392998
13.702887 1.556688 -0.392878
13.592309 3.042530 -0.657297
13.566756 2.519782 -0.501253
13.416903 2.023088 -0.451641
13.416063 1.543718 -0.413143
13.298545 3.024856 -0.668358
13.275370 2.502818 -0.511635
13.121675 1.999236 -0.431696
13.122107 1.520972 -0.392675
13.006931 3.009263 -0.686306
12.986147 2.487802 -0.528965
12.841301 1.994189 -0.485458
12.836069 1.506791 -0.407879
12.705466 2.976881 -0.644819
12.697162 2.472174 -0.543777
12.555524 1.981250 -0.508173
12.550287 1.492003 -0.420599
12.419646 2.968142 -0.686098
12.421274 2.476401 -0.632341
12.274563 1.974967 -0.557140
12.264784 1.476616 -0.430830
12.129066 2.950706 -0.696404
12.132149 2.459540 -0.642252
11.975401 1.939027 -0.488667
11.979581 1.460629 -0.438587
11.828830 2.913842 -0.637505
11.843332 2.442072 -0.649652
11.694715 1.931533 -0.532711
11.694702 1.444046 -0.443871
11.538150 2.892522 -0.633142
11.554846 2.424002 -0.654551
11.418930 1.933081 -0.612835
11.410170 1.426869 -0.446686
11.249245 2.873289 -0.635801
11.271749 2.415526 -0.695299
11.137230 1.924345 -0.652168
11.127239 1.411379 -0.456696
10.966534 2.866859 -0.683777
10.984819 2.398793 -0.704853
10.849531 1.902945 -0.640924
10.847970 1.402117 -0.493284
10.676889 2.843737 -0.671926
10.697026 2.378916 -0.702333
10.563469 1.883366 -0.636833
10.568422 1.392245 -0.527508
10.388831 2.822702 -0.667149
10.409655 2.358446 -0.697325
10.277840 1.863201 -0.630276
10.292515 1.390835 -0.598124
10.101214 2.801076 -0.659885
10.119072 2.327240 -0.651323
9.992667 1.842451 -0.621256
10.007688 1.368413 -0.579144
9.817333 2.789534 -0.688559
9.835437 2.313207 -0.670250
9.711140 1.830703 -0.648489
9.730721 1.365765 -0.645077
9.531052 2.769385 -0.685993
9.549549 2.290983 -0.657822
9.426598 1.808779 -0.634598
9.447153 1.344427 -0.630972
9.243817 2.743325 -0.661741
9.266783 2.278281 -0.681553
9.140103 1.776725 -0.579500
9.161599 1.313505 -0.575537
8.960074 2.729975 -0.683138
8.981589 2.254882 -0.664248
8.861757 1.775125 -0.647980
8.884309 1.311275 -0.644104
8.674310 2.705407 -0.663603
8.698866 2.240980 -0.683161
8.577968 1.749081 -0.617104
8.601486 1.285961 -0.613007
8.392184 2.701445 -0.718710
8.416024 2.226470 -0.699677
8.296727 1.734355 -0.632332
8.321258 1.271288 -0.628178
8.108081 2.686268 -0.732885
8.131864 2.201323 -0.675089
8.015399 1.719028 -0.645172
8.040941 1.256016 -0.640976
7.823064 2.659933 -0.706078
7.848540 2.178114 -0.657757
7.734006 1.703102 -0.655628
7.760561 1.240147 -0.651392
7.539299 2.646197 -0.725067
7.566077 2.161828 -0.667053
7.452184 1.677134 -0.624830
7.480136 1.223680 -0.659431
7.255256 2.626591 -0.722355
7.283581 2.144940 -0.673956
7.171072 1.660032 -0.630507
7.199616 1.197740 -0.626091
6.971114 2.619505 -0.765484
7.000944 2.134915 -0.707514
6.889960 1.642334 -0.633793
6.919241 1.188962 -0.668373
6.687260 2.593458 -0.738647
6.718575 2.109369 -0.680565
6.608207 1.633417 -0.673576
6.638813 1.170713 -0.669275
6.403507 2.572066 -0.728708
6.435455 2.098116 -0.709333
6.327565 1.607494 -0.642935
6.359398 1.143063 -0.628792
6.119354 2.555297 -0.735657
6.153692 2.071413 -0.677588
6.046829 1.585680 -0.629351
6.079423 1.123656 -0.624941
5.835502 2.535323 -0.730547
5.871744 2.049078 -0.662819
5.764221 1.574917 -0.661964
5.797862 1.112423 -0.657705
5.550283 2.522528 -0.751963
5.585757 2.048285 -0.732794
5.483076 1.554237 -0.653318
5.517729 1.091817 -0.649090
5.268682 2.491000 -0.703453
5.303021 2.027188 -0.722897
5.202058 1.532969 -0.642284
5.237722 1.070627 -0.638096
4.982625 2.479568 -0.729677
5.017813 2.015279 -0.749296
4.917754 1.522646 -0.677401
4.954474 1.059704 -0.673416
4.695287 2.470063 -0.763090
4.734289 1.995414 -0.744249
4.636621 1.500174 -0.661570
4.674350 1.037313 -0.657646
4.411437 2.447071 -0.745897
4.448295 1.982239 -0.765789
4.356540 1.474825 -0.633659
4.395270 1.012182 -0.629766
4.125027 2.431165 -0.755165
4.162723 1.965996 -0.775217
4.064530 1.478612 -0.729336
4.110946 0.999382 -0.657850
3.837315 2.417180 -0.771601
3.879856 1.941876 -0.753248
3.778948 1.463421 -0.744999
3.832138 0.973081 -0.625208
3.562297 2.372029 -0.670259
3.600494 1.909948 -0.699945
3.496291 1.440781 -0.729189
3.547091 0.959022 -0.648438
3.265305 2.377128 -0.758648
3.309021 1.903892 -0.750288
3.211326 1.422068 -0.730299
3.259059 0.948560 -0.688602
2.981743 2.351125 -0.729322
3.027787 1.875595 -0.711445
2.930024 1.395970 -0.699997
2.973969 0.931060 -0.697199
2.693078 2.334621 -0.735920
2.734928 1.868198 -0.756779
2.638004 1.387261 -0.744473
2.688510 0.912920 -0.703335
2.404058 2.317470 -0.740023
2.446750 1.850586 -0.761124
2.344949 1.377844 -0.786388
2.395420 0.904651 -0.755339
2.107073 2.312189 -0.789433
2.156722 1.834699 -0.772575
2.063298 1.349888 -0.748737
2.116571 0.874728 -0.708202
1.810534 2.303682 -0.826670
1.875833 1.803995 -0.723999
1.782035 1.321362 -0.708694
1.830137 0.854674 -0.706924
1.521512 2.282032 -0.813620
1.578619 1.796240 -0.768766
1.494287 1.301107 -0.704651
1.543425 0.833981 -0.703159
1.221696 2.274610 -0.855207
1.283834 1.783071 -0.791780
1.206283 1.280214 -0.698116
1.256455 0.812650 -0.696911
0.932003 2.251649 -0.837080
0.984571 1.773868 -0.831280
0.916152 1.260873 -0.698648
0.967366 0.792739 -0.697771
0.638356 2.232975 -0.835436
0.701756 1.743020 -0.782349
0.611778 1.256155 -0.763529
0.679867 0.770123 -0.686510
0.338226 2.220980 -0.859657
0.403175 1.730113 -0.807125
0.314118 1.241950 -0.787481
0.375730 0.763173 -0.749319
0.047873 2.196070 -0.833897
0.103740 1.716485 -0.829241
0.024218 1.218371 -0.770693
0.089340 0.737175 -0.723356
-0.246872 2.175389 -0.824507
-0.185510 1.690664 -0.801281
-0.274762 1.202766 -0.789389
-0.201471 0.714596 -0.713987
-0.557979 2.170976 -0.878519
-0.488435 1.677925 -0.827585
-0.574534 1.186440 -0.805407
-0.499503 0.697384 -0.730618
-0.861015 2.156120 -0.892048
-0.787563 1.659893 -0.832270
-0.853425 1.150189 -0.733513
-0.795908 0.677454 -0.735065
-1.162333 2.138135 -0.893456
-1.089728 1.643419 -0.843704
-1.166391 1.143126 -0.791555
-1.095368 0.658811 -0.746342
-1.459107 2.114666 -0.873428
-1.384996 1.619458 -0.824198
-1.468048 1.124670 -0.799538
-1.385289 0.631539 -0.717072
-1.761337 2.095285 -0.869484
-1.709333 1.619501 -0.905327
-1.767735 1.103386 -0.795387
-1.696419 0.619359 -0.760778
-2.069504 2.079925 -0.881483
-2.003181 1.591860 -0.871000
-2.084369 1.093942 -0.844862
-2.000689 0.600502 -0.773331
-2.386884 2.070876 -0.918583
-2.308172 1.572459 -0.871460
-2.362921 1.054541 -0.760258
-2.302949 0.578952 -0.773706
-2.691125 2.049283 -0.906309
-2.610909 1.550115 -0.859821
-2.692938 1.051846 -0.841457
-2.614521 0.562475 -0.799452
-2.998756 2.029308 -0.900545
-2.919989 1.531457 -0.864050
-2.986141 1.021473 -0.798323
-2.909285 0.533671 -0.766190
-3.322203 2.020203 -0.938160
-3.226758 1.509856 -0.856163
-3.303836 1.006824 -0.826941
-3.213305 0.509937 -0.758280
-3.631346 1.998696 -0.926662
-3.555943 1.502744 -0.910202
-3.632196 0.997452 -0.880377
-3.539895 0.498760 -0.812681
-3.966722 1.994833 -0.985815
-3.867550 1.481752 -0.905746
-3.926570 0.964937 -0.828972
-3.848763 0.475369 -0.808289
-4.303896 1.990037 -1.041712
-4.202835 1.475056 -0.962772
-4.250661 0.949871 -0.857901
-4.164897 0.454969 -0.819525
-4.602266 1.957020 -0.984735
-4.499422 1.441758 -0.906509
-4.586230 0.939941 -0.911285
-4.471789 0.428176 -0.800117
-4.938486 1.948234 -1.025263
-4.837227 1.433339 -0.957298
-4.895637 0.913192 -0.888102
-4.793008 0.408047 -0.814648
-5.269154 1.934031 -1.044365
-5.148452 1.407066 -0.931881
-5.216131 0.891623 -0.889456
-5.115273 0.387084 -0.826113
-5.597372 1.916721 -1.051237
-5.485364 1.394763 -0.967165
-5.544772 0.873158 -0.905968
-5.453109 0.372579 -0.871021
-5.926572 1.898562 -1.054972
-5.831147 1.385715 -1.017258
-5.882010 0.857719 -0.937447
-5.781413 0.351697 -0.885269
-6.241572 1.870709 -1.019602
-6.174914 1.373615 -1.054876
-6.209249 0.835554 -0.938478
-6.107030 0.328148 -0.887262
-6.549114 1.837712 -0.963392
-6.504813 1.352309 -1.053123
-6.552962 0.820226 -0.972397
-6.445208 0.309111 -0.913237
-6.884213 1.819312 -0.966850
-6.835601 1.330150 -1.048187
-6.882315 0.796310 -0.966974
-6.757026 0.276741 -0.872797
-7.232409 1.806541 -0.993715
-7.163226 1.305100 -1.031126
-7.212516 0.771543 -0.958368
-7.089263 0.252424 -0.874325
-7.594386 1.799280 -1.043682
-7.483320 1.275175 -0.993130
-7.580699 0.762847 -1.026754
-7.447200 0.237700 -0.926258
-7.933145 1.778104 -1.036991
-7.807910 1.246483 -0.960970
-7.930045 0.743714 -1.046913
-7.794438 0.216737 -0.947779
-8.068089 1.653794 -0.605036
-8.141459 1.220978 -0.943361
-8.246469 0.708785 -0.992821
-8.108837 0.181067 -0.894800
-8.222425 1.542630 -0.225651
-8.514755 1.212444 -1.001610
-8.597904 0.687821 -1.006205
-8.497385 0.173613 -0.989119
-8.919378 1.692414 -0.927153
-8.868088 1.192958 -1.012173
-8.915092 0.651282 -0.945862
-8.844309 0.148038 -0.991217
-9.256456 1.665695 -0.898682
-9.240669 1.180305 -1.054028
-9.250393 0.621238 -0.917465
-9.196863 0.123191 -0.998585
-5.909207 -0.030950 6.092836
-9.804722 1.733482 -1.264597
-9.560280 1.143294 -0.987810
-9.604700 0.597513 -0.920547
-9.591957 0.112311 -1.080914
-6.199270 -0.041523 6.071644
-10.402578 1.817594 -1.701178
-10.047146 1.174794 -1.229729
-9.978914 0.579932 -0.954647
-9.910303 0.072206 -1.011209
-10.791769 1.805184 -1.735975
-10.548935 1.208302 -1.483046
-10.340635 0.555948 -0.958937
-10.228579 0.031350 -0.938488
-10.961639 1.698275 -1.374262
-10.878826 1.169833 -1.413416
-10.751925 0.548464 -1.045282
-10.570848 -0.002172 -0.905798
-11.302158 1.664104 -1.317720
-10.901506 1.012163 -0.803501
-11.018797 0.487556 -0.870880
-11.026348 0.000237 -1.066820
-11.513983 1.577100 -1.038143
-11.038410 0.902216 -0.407644
-11.243982 0.412456 -0.626333
-11.426262 -0.017984 -1.120148
-11.681833 1.474165 -0.690088
-11.486292 0.909146 -0.543755
-11.749266 0.432742 -0.853899
-11.803144 -0.045300 -1.126644
-11.926567 1.402925 -0.475395
-12.698189 1.187772 -1.926607
-12.347094 0.479885 -1.218355
-12.104614 -0.097036 -1.002439
-12.210287 1.347024 -0.325502
-12.879774 1.089287 -1.586134
-12.864201 0.496116 -1.432798
-12.509127 -0.118605 -1.043579
-12.561064 1.315783 -0.280798
-13.549870 1.680034 -1.837713
-13.046206 0.987336 -1.228365
-13.455101 0.532005 -1.749197
-12.873545 -0.153618 -1.013359
-12.917747 1.285528 -0.240742
-13.957775 1.660267 -1.847113
-13.181065 0.876665 -0.828781
-13.646137 0.440623 -1.428408
-13.217424 -0.195669 -0.946068
-14.318655 1.622131 -1.778330
-13.272457 0.753984 -0.371651
-14.184902 1.053282 -1.762323
-13.930626 0.378611 -1.255098
-13.610262 -0.225167 -0.949768
-14.740089 1.603855 -1.795534
-13.532278 0.688090 -0.177151
-14.070520 0.274190 -0.866287
-13.927731 -0.276499 -0.834000
-15.163359 1.584292 -1.808077
-13.839991 0.637456 -0.053814
-15.098656 1.032161 -1.901209
-14.227306 0.176500 -0.510036
-14.322475 -0.308111 -0.829742
-15.610910 1.570869 -1.848143
-14.130125 0.580978 0.096703
-15.489441 0.997822 -1.861589
-14.582476 0.135889 -0.445141
-14.712982 -0.342337 -0.813021
-16.043673 1.550498 -1.859087
-15.886786 0.964093 -1.825853
-14.857979 0.072458 -0.263781
-15.030516 -0.396259 -0.686901
-13.899982 0.713291 1.694096
-16.466715 1.525147 -1.849241
-16.359978 0.951197 -1.889811
-15.270687 0.045655 -0.272255
-15.358912 -0.448075 -0.573818
-17.013853 1.536489 -2.000917
-16.929234 0.963499 -2.075426
-15.626514 0.002284 -0.196476
-16.850727 0.321907 -1.859983
-15.774576 -0.479760 -0.577375
-17.524010 1.533318 -2.090765
-17.237873 0.899168 -1.898336
-17.262972 0.284657 -1.825624
-16.097193 -0.534760 -0.449144
-17.905947 1.489365 -2.002512
-12.708094 -0.493495 4.641623
-17.652567 0.863740 -1.859800
-17.670300 0.244707 -1.778872
-16.317368 -0.613623 -0.183582
-13.231201 -0.024467 4.582817
-18.312269 1.451430 -1.941328
-18.134758 0.844947 -1.902517
-18.127056 0.215410 -1.790133
-16.776772 -0.638929 -0.230299
-17.982071 -0.371689 -1.791048
-13.537352 -0.061327 4.660067
-18.768234 1.426268 -1.937468
-13.370741 -0.554129 4.719154
-18.540033 0.803701 -1.838766
-13.315145 -1.070500 4.869730
-18.579622 0.183203 -1.788340
-17.214134 -0.671065 -0.240374
-18.445389 -0.404597 -1.806616
-13.367214 -0.231637 5.330763
-19.269257 1.411739 -1.982016
-13.502335 -0.637487 5.013676
-19.051014 0.788300 -1.901503
-19.095978 0.164013 -1.858412
-18.879763 -0.445535 -1.778055
-13.793341 -0.234671 5.258204
-19.735395 1.385308 -1.974894
-19.521193 0.760168 -1.904516
-19.458574 0.107389 -1.730761
-19.296638 -0.491662 -1.721491
-20.159040 1.345592 -1.909410
-19.930140 0.715008 -1.826059
-19.706656 0.024504 -1.462519
-19.581421 -0.565748 -1.499914
-20.442867 1.267910 -1.674036
-20.288530 0.656415 -1.682772
-20.265806 0.009522 -1.562464
-19.966505 -0.620215 -1.397226
-14.823292 -0.320542 5.378019
-20.911701 1.237700 -1.652494
-20.685001 0.606056 -1.580774
-20.595577 -0.056903 -1.385458
-20.429213 -0.660864 -1.380762
-15.394325 -0.294550 5.169168
-21.336468 1.194573 -1.573648
-21.120708 0.563616 -1.519125
-21.218418 -0.063046 -1.540209
-20.841293 -0.712740 -1.299047
-21.695955 1.134054 -1.416582
-15.220011 -0.907063 5.656612
-21.629686 0.536180 -1.533709
-21.733664 -0.094265 -1.561228
-21.332998 -0.751373 -1.301775
-15.028456 -0.615484 6.444534
-22.247648 1.119027 -1.467306
-22.087759 0.495340 -1.483492
-22.157898 -0.145686 -1.473276
-21.826708 -0.791622 -1.298559
-22.694815 1.076795 -1.395357
-22.620808 0.468992 -1.507925
-22.522015 -0.210045 -1.315046
-22.517342 -0.799684 -1.501341
-15.132568 -0.811764 7.161612
-16.400913 -0.519628 5.818903
-23.190287 1.044159 -1.368517
-22.953115 0.398012 -1.309301
-23.021370 -0.249643 -1.297449
-23.091366 -0.831086 -1.564276
-15.444475 -0.848892 7.241011
-16.697350 -0.566364 5.937403
-24.029730 1.087118 -1.691896
-16.048655 -1.164356 6.466450
-23.831123 0.439031 -1.680128
-16.256197 -1.630022 6.312750
-23.570538 -0.282020 -1.323935
-16.502167 -2.045571 5.907366
-23.449322 -0.900658 -1.389605
-16.703167 -0.677927 6.355837
-24.462517 1.035106 -1.579588
-16.449314 -1.189421 6.468920
-24.082840 0.348460 -1.385241
-24.136143 -0.313800 -1.357725
-24.013760 -0.937770 -1.425413
-17.226187 -0.675677 6.246943
-25.028013 1.010486 -1.595530
-17.046583 -1.177416 6.279133
-24.637993 0.317983 -1.398386
-24.641623 -0.358601 -1.320906
-24.518169 -0.986683 -1.390318
-17.499609 -0.728986 6.395243
-25.532751 0.970526 -1.541803
-17.796438 -1.139385 5.950909
-25.097223 0.266654 -1.306757
-25.402407 -0.361530 -1.529547
-25.024141 -1.037238 -1.349062
-17.658615 -0.806448 6.656605
-26.109797 0.943645 -1.550879
-17.830791 -1.240664 6.339975
-25.798094 0.259315 -1.445250
-25.685610 -0.448374 -1.256447
-25.701994 -1.064129 -1.468721
-26.682188 0.913319 -1.545794
-26.289213 0.209837 -1.368296
-26.367884 -0.470084 -1.365686
-26.563192 -1.067687 -1.751875
-27.098089 0.849536 -1.384478
-26.903887 0.180863 -1.401148
-27.481012 -0.426389 -1.867598
-27.265543 -1.098139 -1.865465
-27.921087 0.863730 -1.594370
-28.074026 0.246800 -1.938745
-28.058485 -0.472488 -1.846888
-27.841177 -1.149197 -1.847506
-28.963022 0.915065 -1.985666
-28.684359 0.209468 -1.937555
-28.755636 -0.502739 -1.925840
-28.477613 -1.194398 -1.875975
-29.607630 0.886421 -1.999441
-29.297171 0.170006 -1.928495
-29.367735 -0.548716 -1.915907
-29.087385 -1.245718 -1.869436
-30.292341 0.862257 -2.037413
-29.934706 0.132066 -1.931181
-30.071783 -0.583929 -1.976809
-29.759176 -1.291653 -1.907759
-31.025427 0.843616 -2.105062
-30.679930 0.108678 -2.016523
-30.719271 -0.630195 -1.976213
-30.404097 -1.343718 -1.910978
-31.739679 0.818292 -2.143583
-31.444414 0.084844 -2.104578
-31.369360 -0.678761 -1.967085
-31.081926 -1.394478 -1.931578
-32.335342 0.769601 -2.071089
-32.098854 0.040693 -2.086561
-32.113594 -0.717437 -2.025881
-31.793226 -1.444173 -1.968729
-33.055405 0.739342 -2.091364
-32.755714 -0.005769 -2.059923
-32.800018 -0.766870 -2.024023
-32.469421 -1.500800 -1.964529
-33.840546 0.716502 -2.151609
-33.530823 -0.037717 -2.118292
-33.520149 -0.814869 -2.037954
-33.194672 -1.554805 -1.988958
-34.567291 0.680809 -2.151896
-34.138527 -0.096830 -2.030039
-34.274544 -0.861677 -2.066862
-33.884132 -1.615595 -1.972448
-35.194984 0.626644 -2.063326
-34.865150 -0.141754 -2.025656
-34.993004 -0.915973 -2.054842
-34.693794 -1.666837 -2.038893
-36.029480 0.601478 -2.122942
-35.657753 -0.180827 -2.059813
-35.785332 -0.964623 -2.087534
-35.452156 -1.726637 -2.051455
-36.724915 0.551947 -2.063868
-36.414192 -0.228084 -2.053091
-36.485641 -1.027013 -2.037451
-36.181824 -1.792294 -2.029528
-37.630516 0.530043 -2.148382
-37.213531 -0.273007 -2.065592
-37.196091 -1.091021 -1.983850
-36.850021 -1.866537 -1.950064
-38.395714 0.484162 -2.115412
-38.016167 -0.320915 -2.067007
-38.021584 -1.145573 -2.002516
-37.713188 -1.925802 -2.002817
-39.204079 0.441076 -2.100687
-38.797668 -0.374758 -2.039946
-38.826149 -1.205747 -1.992281
-38.515450 -1.993987 -1.996847
-39.990959 0.391703 -2.057718
-39.606331 -0.428589 -2.019232
-39.666359 -1.265650 -1.993689
-39.353325 -2.062439 -2.002672
-40.895309 0.354516 -2.082422
-40.540894 -0.471304 -2.071920
-40.575539 -1.322349 -2.028437
-40.161636 -2.136691 -1.973993
-41.811707 0.314929 -2.099829
-41.421921 -0.524079 -2.072222
-41.488586 -1.382543 -2.050207
-41.104736 -2.203707 -2.023733
-42.831528 0.284260 -2.169840
-42.339516 -0.576590 -2.082071
-42.372070 -1.449254 -2.036921
-41.977219 -2.279955 -2.010057
-43.655548 0.225245 -2.095457
-43.294090 -0.629088 -2.100573
-43.292168 -1.516370 -2.032824
-42.794319 -2.363690 -1.945723
-44.708687 0.190042 -2.153505
-44.143333 -0.696424 -2.035601
-44.215630 -1.586996 -2.015566
-43.815269 -2.436567 -1.999453
-45.808701 0.155569 -2.222506
-45.248253 -0.741763 -2.117537
-45.277596 -1.650057 -2.069765
-44.713882 -2.521807 -1.958391
-46.820168 0.106267 -2.218294
-46.315758 -0.795580 -2.157091
-46.242043 -1.725359 -2.045740
-45.632263 -2.609364 -1.915003
-47.886574 0.058654 -2.230139
-47.310837 -0.860751 -2.134653
-47.243889 -1.801748 -2.028391
-46.698570 -2.691635 -1.946543
-48.793900 -0.010412 -2.130541
-48.283539 -0.932069 -2.082563
-48.309288 -1.877586 -2.032030
-47.640312 -2.785512 -1.885736
-49.841461 -0.068611 -2.097616
-49.362625 -0.998028 -2.076536
-49.361229 -1.958799 -2.010023
-48.714066 -2.875851 -1.886923
-50.393486 -1.072590 -2.025061
-50.399269 -2.045263 -1.962732
-49.852249 -2.967222 -1.907042
-51.492722 -2.132322 -1.929419
-50.829079 -3.071284 -1.817301
-52.589561 -2.223629 -1.879980
-51.939537 -3.172891 -1.785643
-54.417793 -3.378805 -1.803671
6.924548 -5.932597 30.639267
6.897722 -5.935060 30.625595
6.831710 -5.930093 30.601854
6.886671 -5.936001 30.625582
6.903957 -5.936997 30.635864
6.884425 -5.933420 30.630821
6.866386 -5.936857 30.621923
6.828199 -5.932291 30.609732
6.929794 -5.938579 30.651617
6.882556 -5.934629 30.635172
6.938271 -5.939208 30.657238
6.918767 -5.936217 30.652241
6.937561 -5.939684 30.658957
6.955250 -5.937633 30.668692
6.974064 -5.940515 30.675381
6.917267 -5.937257 30.656012
6.889533 -5.940301 30.644428
6.850942 -5.936514 30.633514
6.907440 -5.940978 30.653595
6.925483 -5.941568 30.662453