# This PCD file was generated using the MATLAB® pcwrite function
# from Computer Vision System Toolbox®.
# .PCD v.7 - Point Cloud Data file format
VERSION .7
FIELDS x y z
SIZE 4 4 4
TYPE F F F
COUNT 1 1 1
WIDTH 798
HEIGHT 1
VIEWPOINT 0 0 0 1 0 0 0
POINTS 798
DATA ascii
26.678102 2.738400 3.935658
26.275227 2.696854 3.985607
25.897379 2.663862 4.008701
25.538198 2.637126 4.012289
25.098434 2.573447 4.140112
23.726044 2.470940 4.156204
23.375837 2.887171 4.246296
23.398308 2.448738 4.151150
22.999193 2.836145 4.326649
23.056753 2.418434 4.174496
22.660046 2.802309 4.353325
22.716976 2.387325 4.201620
22.317844 2.765091 4.392086
22.379023 2.355422 4.232498
21.982456 2.729671 4.426271
24.852568 4.279825 -0.585703
22.062168 2.332563 4.233431
21.667866 2.703868 4.430454
24.482821 4.251838 -0.589647
21.746607 2.308970 4.237726
24.068033 4.196977 -0.505066
21.376492 2.255043 4.347353
23.733923 4.185491 -0.560390
21.069122 2.232417 4.350256
23.287947 4.107951 -0.398836
20.704475 2.176898 4.467897
22.987555 4.113128 -0.506731
20.431608 2.170187 4.417381
22.634537 4.086167 -0.508469
20.141584 2.152911 4.404114
22.635965 3.579223 -0.564919
22.282831 4.058414 -0.506598
19.814032 2.112581 4.472017
22.271872 3.546131 -0.536131
21.932474 4.029873 -0.501143
19.522308 2.091475 4.473635
21.926353 3.522202 -0.538467
21.616293 4.021604 -0.561993
21.610828 3.514977 -0.598700
21.300262 4.012617 -0.619875
21.251133 3.479544 -0.559122
20.972591 3.995005 -0.648378
20.869677 3.428313 -0.462780
18.554831 1.623905 4.364740
18.599316 1.233802 4.227404
20.657188 3.984589 -0.700241
20.572422 3.428894 -0.548676
18.252453 1.592216 4.415487
18.323368 1.220088 4.215843
20.266438 3.920598 -0.571697
20.248249 3.411240 -0.569559
17.940676 1.552762 4.496246
20.071548 2.899143 -0.582684
18.063234 1.214724 4.171001
19.868084 3.847863 -0.412170
19.935959 3.400408 -0.614153
17.690126 1.550693 4.436476
19.738403 2.874748 -0.571154
17.799541 1.206539 4.137587
19.506311 3.798159 -0.328680
19.627602 3.391397 -0.664808
19.399361 2.844880 -0.538298
17.503717 1.177580 4.188116
19.182516 3.774212 -0.331104
19.283951 3.356545 -0.622578
19.079546 2.826204 -0.547327
17.167414 1.121054 4.350691
18.859741 3.749570 -0.330410
18.865900 3.265576 -0.378092
18.784636 2.823525 -0.616892
16.903736 1.108829 4.334675
18.538015 3.724238 -0.326601
18.541273 3.239328 -0.364578
18.476078 2.810647 -0.647381
16.600294 1.069040 4.430889
18.217371 3.698224 -0.319702
18.204689 3.202310 -0.311531
18.141806 2.778005 -0.601862
16.322346 1.044405 4.466049
18.125074 2.282606 -0.580437
17.923510 3.692796 -0.382452
17.911886 3.197400 -0.373755
17.799755 2.737508 -0.525522
16.058611 1.028209 4.467129
17.825609 2.273954 -0.622736
17.616964 3.676081 -0.406122
17.593819 3.171649 -0.360153
17.428976 2.672428 -0.353731
15.808121 1.020472 4.433773
17.523199 2.262398 -0.653093
17.286577 3.637425 -0.353798
17.279976 3.147758 -0.352697
17.125650 2.656858 -0.371773
17.218119 2.247936 -0.671438
16.996542 3.632702 -0.417482
16.984997 3.138374 -0.397528
16.822880 2.640644 -0.387022
16.878227 2.205755 -0.575548
16.677464 3.600716 -0.386631
16.672760 3.113185 -0.384315
16.509272 2.614220 -0.362373
16.529461 2.153887 -0.438997
16.384958 3.592046 -0.435760
16.381245 3.105047 -0.432989
16.196941 2.587156 -0.334757
16.195093 2.110395 -0.336218
16.070713 3.561436 -0.408310
16.057035 3.065938 -0.367676
15.896669 2.569032 -0.341509
15.906511 2.102383 -0.379881
15.768293 3.540845 -0.414991
15.766453 3.056535 -0.410919
15.607473 2.559855 -0.382938
15.597025 2.075688 -0.345924
15.486881 3.540931 -0.493294
15.465660 3.036392 -0.414276
15.298140 2.530911 -0.346806
15.299017 2.057405 -0.346689
15.177774 3.511092 -0.466696
15.185310 3.035854 -0.489735
15.009676 2.520494 -0.382971
15.011499 2.047535 -0.382465
14.888888 3.501939 -0.511961
14.866199 2.994243 -0.412788
14.711874 2.499894 -0.378914
14.695740 2.009971 -0.302290
14.606770 3.500151 -0.582800
14.585973 2.992466 -0.483154
14.414839 2.478684 -0.372162
14.409396 1.998884 -0.332771
14.310841 3.481768 -0.594946
14.298523 2.982490 -0.522888
14.127317 2.466435 -0.400574
14.131926 1.996213 -0.398714
14.030203 3.481397 -0.670286
13.998249 2.956741 -0.503492
13.831551 2.444019 -0.388540
13.837078 1.974895 -0.386204
13.728512 3.453804 -0.649042
13.701015 2.932920 -0.490829
13.552709 2.440119 -0.449842
13.551151 1.961996 -0.409164
13.431734 3.430928 -0.643946
13.420300 2.928689 -0.551300
13.265667 2.426057 -0.470711
13.267342 1.950751 -0.439175
13.131929 3.402139 -0.617285
13.139091 2.923843 -0.609392
12.973310 2.404238 -0.460464
12.979874 1.934406 -0.447592
12.850971 3.399313 -0.682678
12.848475 2.905781 -0.617550
12.693974 2.398522 -0.514484
12.694569 1.919718 -0.463066
12.554161 3.371985 -0.660282
12.561672 2.892159 -0.642210
12.407532 2.382668 -0.527863
12.402810 1.895454 -0.437664
12.258293 3.344074 -0.635235
12.273340 2.875419 -0.654844
12.134022 2.385264 -0.615414
12.118378 1.879597 -0.448112
11.963395 3.315582 -0.607553
11.979170 2.848027 -0.626745
11.845966 2.365834 -0.614330
11.835752 1.865396 -0.465717
11.675228 3.297105 -0.615395
11.685994 2.820063 -0.596029
11.559811 2.348197 -0.620340
11.557531 1.857327 -0.509811
11.392780 3.288612 -0.658932
11.404699 2.811606 -0.639389
11.280617 2.341839 -0.671991
11.278965 1.848657 -0.551542
11.104946 3.268947 -0.661825
11.123067 2.802543 -0.680363
10.988550 2.311173 -0.624924
10.998829 1.837153 -0.581247
10.812781 3.238142 -0.623930
10.831635 2.772844 -0.642080
10.700034 2.284692 -0.594564
10.715082 1.818362 -0.579523
10.530416 3.227863 -0.660141
10.550081 2.762594 -0.678183
10.414577 2.262383 -0.580988
10.436041 1.807909 -0.614103
10.244771 3.209083 -0.665167
10.256110 2.721777 -0.596336
10.130701 2.241867 -0.574608
10.152789 1.787964 -0.607521
9.958477 3.187092 -0.658133
9.971370 2.700390 -0.588987
9.850844 2.230208 -0.604485
9.869993 1.767451 -0.598492
9.671815 3.161903 -0.639015
9.690447 2.688393 -0.617773
9.567553 2.208544 -0.593243
9.590927 1.755241 -0.625898
9.385813 3.136153 -0.617420
9.406309 2.665854 -0.605551
9.287629 2.195711 -0.618340
9.311666 1.742438 -0.650930
9.103769 3.122928 -0.641500
9.128000 2.662607 -0.668198
9.007530 2.182285 -0.641058
9.027113 1.711374 -0.595741
8.822128 3.111718 -0.672821
8.844206 2.638910 -0.651146
8.725102 2.158906 -0.622570
8.748771 1.699628 -0.625723
8.535834 3.076431 -0.614985
8.560965 2.614654 -0.631653
8.445065 2.144314 -0.640509
8.469658 1.685084 -0.643602
8.255941 3.074468 -0.680079
8.279912 2.599716 -0.648460
8.163809 2.122140 -0.626919
8.188919 1.661172 -0.620119
7.972000 3.045877 -0.646303
7.998759 2.584188 -0.662884
7.883549 2.104060 -0.630369
7.909662 1.643285 -0.623489
7.689952 3.029713 -0.658373
7.717528 2.568070 -0.674915
7.603592 2.087724 -0.641159
7.630717 1.627008 -0.634241
7.407848 3.012958 -0.668047
7.436238 2.551364 -0.684565
7.323262 2.063856 -0.620388
7.351254 1.601429 -0.603588
7.125940 3.008531 -0.723627
7.154912 2.534071 -0.691820
7.043493 2.046368 -0.626415
7.072615 1.586184 -0.619354
6.843550 2.977684 -0.680208
6.873572 2.516192 -0.696690
6.763721 2.028298 -0.630066
6.793855 1.568180 -0.622992
6.561910 2.948879 -0.644039
6.592710 2.487982 -0.660376
6.483965 2.009647 -0.631342
6.515111 1.549596 -0.624264
6.279278 2.940066 -0.682779
6.310931 2.478683 -0.699253
6.203529 1.997296 -0.659435
6.235484 1.539064 -0.662210
5.997206 2.920382 -0.680470
6.029675 2.459055 -0.696949
5.922303 1.986617 -0.694868
5.956491 1.519304 -0.658741
5.713263 2.912883 -0.724064
5.746593 2.450942 -0.740734
5.642118 1.966190 -0.689001
5.675960 1.507548 -0.691933
5.429968 2.897099 -0.736267
5.467395 2.418061 -0.685171
5.362035 1.945186 -0.680750
5.396801 1.486614 -0.683714
5.152064 2.855303 -0.649504
5.188628 2.387075 -0.636940
5.082077 1.923609 -0.670120
5.117766 1.465107 -0.673117
4.865297 2.853578 -0.714825
4.902369 2.386755 -0.712275
4.799564 1.910500 -0.695982
4.838877 1.443031 -0.660149
4.579505 2.843586 -0.748743
4.621245 2.364208 -0.698006
4.519570 1.887751 -0.680574
4.557144 1.428854 -0.683788
4.293847 2.830428 -0.770569
4.337859 2.348243 -0.710377
4.239764 1.864432 -0.662786
4.281615 1.397172 -0.627102
4.014973 2.796538 -0.712852
4.059555 2.317397 -0.662292
3.956427 1.849499 -0.681421
3.996807 1.388113 -0.675154
3.729045 2.782175 -0.729826
3.771131 2.312097 -0.718174
3.672628 1.833941 -0.697626
3.714054 1.372098 -0.691563
3.442666 2.767181 -0.744345
3.491230 2.284846 -0.684637
3.392821 1.808860 -0.672638
3.430858 1.355459 -0.705544
3.160539 2.741597 -0.717939
3.205963 2.268816 -0.696968
3.113288 1.783217 -0.645277
3.156726 1.321558 -0.639404
2.873675 2.725370 -0.727558
2.915302 2.261543 -0.745407
2.823802 1.774669 -0.692888
2.868320 1.312018 -0.687368
2.581061 2.718404 -0.773083
2.634233 2.234870 -0.714258
2.533251 1.765428 -0.737963
2.578847 1.301787 -0.732807
2.293110 2.700882 -0.777702
2.342138 2.226272 -0.757679
2.247474 1.746732 -0.741894
2.298444 1.276482 -0.707949
2.004823 2.682728 -0.779837
2.055037 2.207693 -0.760101
1.961369 1.727407 -0.743351
2.015166 1.254695 -0.700031
1.716223 2.663940 -0.779472
1.761254 2.197733 -0.798424
1.681461 1.698763 -0.703827
1.730137 1.234338 -0.699324
1.427332 2.644522 -0.776608
1.473203 2.177858 -0.795816
1.393400 1.680384 -0.709984
1.443122 1.215384 -0.705790
1.122222 2.646338 -0.857069
1.191936 2.148174 -0.752419
1.101313 1.665670 -0.732824
1.157462 1.193769 -0.700113
0.832048 2.625574 -0.849056
0.903712 2.127076 -0.744860
0.814124 1.643837 -0.724329
0.871563 1.171529 -0.691954
0.541655 2.604176 -0.838520
0.605591 2.116730 -0.782509
0.524752 1.623514 -0.722904
0.577614 1.156667 -0.719704
0.242948 2.591753 -0.863428
0.300357 2.112458 -0.846073
0.228859 1.608924 -0.747595
0.293009 1.131150 -0.696907
-0.054499 2.576226 -0.876188
0.010425 2.089348 -0.830763
-0.065743 1.591512 -0.760107
0.006278 1.107008 -0.681210
-0.346009 2.552864 -0.857933
-0.279660 2.065608 -0.812920
-0.363223 1.575522 -0.779520
-0.291671 1.092100 -0.710764
-0.621658 2.512267 -0.771030
-0.569872 2.041238 -0.792540
-0.654576 1.552536 -0.767756
-0.585993 1.072544 -0.718552
-0.941224 2.516050 -0.860886
-0.879068 2.034052 -0.845293
-0.962943 1.543504 -0.819799
-0.895220 1.064006 -0.780800
-1.240822 2.497795 -0.863089
-1.170145 2.008342 -0.819674
-1.262825 1.525377 -0.831144
-1.193703 1.044957 -0.792694
-1.546053 2.483526 -0.881378
-1.471390 1.990827 -0.829184
-1.542935 1.490018 -0.764233
-1.480152 1.015553 -0.754524
-1.828563 2.447550 -0.812613
-1.760278 1.961621 -0.788969
-1.843560 1.470552 -0.770311
-1.782272 0.997056 -0.770569
-2.153692 2.448134 -0.890934
-2.086761 1.962387 -0.877533
-2.155774 1.458548 -0.811272
-2.068914 0.966383 -0.727268
-2.458499 2.429361 -0.891584
-2.379260 1.933989 -0.841328
-2.469300 1.445741 -0.849312
-2.380597 0.952176 -0.766144
-2.749566 2.398384 -0.842966
-2.683173 1.913610 -0.839872
-2.758043 1.413939 -0.800217
-2.684908 0.931511 -0.773937
-3.081778 2.398794 -0.921654
-2.996528 1.898964 -0.863585
-3.064420 1.393593 -0.804586
-2.987010 0.908237 -0.769573
-3.400864 2.386907 -0.950869
-3.301863 1.877114 -0.856512
-3.380718 1.378500 -0.834049
-3.298837 0.889835 -0.790455
-3.718030 2.371941 -0.967852
-3.635765 1.873688 -0.930002
-3.682485 1.352664 -0.814114
-3.605429 0.866945 -0.789789
-4.026594 2.349428 -0.954256
-3.942911 1.850289 -0.917101
-4.000737 1.336003 -0.837723
-3.922354 0.848831 -0.814144
-4.335640 2.326189 -0.937834
-4.250546 1.826168 -0.901384
-4.323439 1.320488 -0.867531
-4.227221 0.822596 -0.798445
-4.685576 2.328939 -1.028347
-4.582165 1.815961 -0.947121
-4.627061 1.292430 -0.839033
-4.546074 0.802900 -0.816875
-5.010298 2.312956 -1.042379
-4.908483 1.800699 -0.971317
-4.937893 1.267550 -0.826107
-4.848691 0.773376 -0.786228
-5.311347 2.280733 -0.989670
-5.228974 1.780454 -0.974121
-5.270619 1.253473 -0.865156
-5.155092 0.744947 -0.761986
-5.633960 2.260989 -0.988638
-5.553934 1.761460 -0.982981
-5.608489 1.240407 -0.910063
-5.505387 0.737115 -0.844673
-5.950013 2.236086 -0.966465
-5.883577 1.743679 -0.997799
-5.933121 1.218813 -0.915276
-5.828310 0.714146 -0.850851
-6.258991 2.206100 -0.923328
-6.225646 1.731123 -1.036531
-6.258708 1.196389 -0.917353
-6.137039 0.683346 -0.817558
-3.483249 0.455218 6.300724
-6.602799 2.194762 -0.958101
-6.538513 1.701507 -0.999813
-6.604614 1.182501 -0.961422
-6.507952 0.679625 -0.926294
-6.865485 2.137603 -0.801687
-6.867348 1.679168 -0.996077
-6.944293 1.163926 -0.984016
-6.818505 0.647164 -0.886726
-7.190580 2.114038 -0.785723
-7.144951 1.630139 -0.872898
-7.277229 1.140740 -0.985315
-7.161511 0.627666 -0.916189
-4.153751 0.357187 6.520031
-7.631035 2.148748 -1.015146
-7.507154 1.622100 -0.934492
-7.607032 1.114857 -0.974428
-7.493658 0.602132 -0.915321
-4.385857 0.328520 6.576426
-7.905401 2.095923 -0.877031
-7.867271 1.611043 -0.983469
-7.954415 1.095411 -0.995895
-7.851883 0.585837 -0.964735
-7.948606 1.930168 -0.261053
-8.216524 1.593107 -1.002203
-8.251877 1.053345 -0.907558
-8.182117 0.556820 -0.948223
-8.120497 1.831666 0.072693
-8.554174 1.568414 -0.990997
-8.583643 1.024994 -0.887129
-8.513079 0.526961 -0.928471
-5.014556 0.208688 6.889343
-8.631527 1.893615 -0.274357
-8.853058 1.525568 -0.897512
-8.951561 1.010018 -0.933729
-8.884541 0.511036 -0.984837
-9.405680 2.069850 -1.111010
-9.205132 1.504970 -0.906153
-9.303343 0.986916 -0.941473
-9.217562 0.479364 -0.958244
-5.912437 0.341799 6.188467
-10.049734 2.177567 -1.659870
-9.572140 1.489083 -0.937294
-9.638020 0.955857 -0.910784
-9.569521 0.453298 -0.963343
-6.181633 0.323046 6.200249
-10.416817 2.157759 -1.665592
-6.181384 -0.049926 6.058355
-10.172613 1.565983 -1.397587
-10.029263 0.944759 -0.980871
-9.908726 0.421473 -0.938723
-6.451524 0.303583 6.214741
-10.761597 2.126955 -1.624615
-10.707022 1.610569 -1.712234
-10.441872 0.939336 -1.081247
-10.239176 0.385602 -0.893377
-6.803641 0.317107 6.086655
-10.948561 2.029867 -1.298172
-10.869886 1.507141 -1.342318
-10.818897 0.918951 -1.108259
-10.613272 0.363032 -0.922430
-11.145573 1.938797 -0.996468
-8.035229 0.276999 4.281477
-11.105263 1.433300 -1.108698
-10.923540 0.802849 -0.652180
-11.086752 0.370453 -1.119232
-11.284031 1.826291 -0.600645
-11.085743 1.266568 -0.439857
-11.160515 0.734228 -0.435028
-11.426048 0.333087 -1.071114
-11.492085 1.743227 -0.331179
-11.727854 1.342698 -0.907360
-11.541208 0.713487 -0.461903
-11.811068 0.308578 -1.096149
-11.798630 1.698545 -0.228191
-12.394808 1.421473 -1.391670
-12.538046 0.888895 -1.496380
-12.146704 0.267853 -1.032402
-12.182266 1.681793 -0.247458
-13.160282 2.042130 -1.824085
-12.534359 1.313172 -0.995972
-13.014235 0.890094 -1.644085
-12.508448 0.233766 -1.007433
-12.530836 1.650674 -0.204473
-13.538641 2.013743 -1.797874
-12.605362 1.184176 -0.500242
-13.407209 1.452844 -1.775295
-13.536549 0.902548 -1.852909
-12.997284 0.234148 -1.179722
-13.912640 1.982449 -1.759453
-12.908112 1.134264 -0.378654
-13.951761 0.879554 -1.881020
-13.282553 0.175792 -1.021143
-14.314392 1.959447 -1.758198
-13.210083 1.083718 -0.254269
-14.223078 1.407923 -1.804474
-14.168526 0.796798 -1.599041
-13.647507 0.138608 -0.984404
-14.712135 1.933438 -1.744423
-13.494869 1.027415 -0.102467
-14.598066 1.372543 -1.759045
-13.887806 0.573099 -0.576761
-13.963917 0.087567 -0.869644
-15.138861 1.915430 -1.766960
-13.844795 0.990890 -0.046013
-15.018019 1.349697 -1.774944
-13.968674 0.457574 -0.116739
-14.418518 0.071162 -0.956785
-15.601213 1.906990 -1.833172
-15.445383 1.327260 -1.794281
-14.285112 0.408629 -0.006727
-14.741161 0.019715 -0.842976
-16.026516 1.884487 -1.837818
-15.874645 1.303522 -1.808815
-14.749403 0.398392 -0.103506
-15.964521 0.721394 -1.822826
-14.977879 -0.053176 -0.604477
-13.781958 1.035457 1.865168
-16.430475 1.853591 -1.805798
-16.277002 1.270258 -1.778446
-15.199568 0.382077 -0.170660
-16.493385 0.718066 -1.968086
-15.275343 -0.111294 -0.452896
-16.905451 1.842693 -1.864574
-16.860876 1.286288 -1.990681
-16.862713 0.671329 -1.883511
-15.571676 -0.170006 -0.298574
-17.453926 1.851189 -2.012379
-17.296984 1.258267 -1.989609
-17.196699 0.614843 -1.747543
-15.979080 -0.204018 -0.292740
-17.881378 1.821428 -1.988850
-12.649862 -0.130349 4.728848
-17.657263 1.208210 -1.881310
-17.649704 0.586607 -1.765873
-16.316238 -0.255026 -0.187393
-17.505571 0.006487 -1.761307
-14.638554 0.749730 2.772614
-18.298079 1.786984 -1.944977
-18.041468 1.163575 -1.800617
-18.104727 0.556948 -1.778957
-16.768023 -0.282210 -0.227938
-17.892567 -0.040935 -1.689713
-15.674002 0.907425 1.955235
-18.752420 1.761516 -1.942902
-18.547993 1.149114 -1.871227
-18.561714 0.525863 -1.786751
-18.377853 -0.068924 -1.738899
-12.642729 -0.048526 6.231871
-19.214705 1.736322 -1.943279
-13.462526 -0.266065 5.064550
-19.051369 1.131402 -1.927986
-19.039185 0.497543 -1.812405
-18.810085 -0.109879 -1.712444
-13.177898 -0.018622 6.006453
-15.594673 0.623892 3.052931
-19.703814 1.716333 -1.968819
-13.538912 -0.359813 5.419447
-19.464003 1.089137 -1.863670
-19.506378 0.464923 -1.817043
-19.268635 -0.147144 -1.711903
-15.517578 0.477381 3.628004
-20.119495 1.675047 -1.897579
-19.934088 1.059280 -1.863331
-19.791937 0.391280 -1.595184
-19.431986 -0.243570 -1.346302
-13.798628 -0.083853 6.126692
-20.503918 1.624468 -1.784111
-20.246740 0.990685 -1.668434
-20.209778 0.345446 -1.529800
-19.858973 -0.288939 -1.299480
-20.849585 1.563248 -1.621731
-20.609371 0.933269 -1.530712
-20.692984 0.311703 -1.534878
-20.312794 -0.330797 -1.277971
-15.326124 0.068507 5.229256
-21.357159 1.541004 -1.641399
-21.056065 0.893888 -1.486145
-21.080254 0.256744 -1.422264
-20.813740 -0.365832 -1.303583
-14.413294 -0.264415 6.689919
-21.768389 1.493509 -1.544441
-15.425838 -0.476367 5.408401
-21.411934 0.833043 -1.332830
-15.070875 -1.053509 5.877846
-21.724678 0.251195 -1.594288
-21.297289 -0.405996 -1.300762
-22.186569 1.446435 -1.450245
-21.979445 0.816776 -1.410900
-15.468184 -1.079073 5.864315
-22.094400 0.189672 -1.449100
-21.762781 -0.451132 -1.269974
-14.970413 -0.350344 6.904421
-22.678934 1.415092 -1.431168
-22.429731 0.773291 -1.350561
-22.483763 0.131006 -1.321915
-22.283422 -0.488747 -1.292265
-15.268745 -0.389794 6.994482
-16.216991 -0.177218 5.986692
-23.200140 1.388256 -1.434963
-23.056904 0.764424 -1.473045
-22.893305 0.075036 -1.212217
-22.887785 -0.514863 -1.395329
-15.778996 -0.383538 6.866426
-23.880783 1.394208 -1.596619
-15.493391 -0.884909 7.024265
-23.640520 0.743706 -1.537090
-16.252661 -1.238139 6.291183
-23.487986 0.050893 -1.291822
-23.386536 -0.560526 -1.375130
-16.017097 -0.438493 7.028587
-24.600950 1.405008 -1.784618
-15.901411 -0.906050 7.006176
-24.082657 0.692656 -1.444164
-16.556129 -1.284704 6.393591
-24.065426 0.021025 -1.342373
-16.520329 -1.746033 6.285629
-23.976770 -0.593928 -1.441860
-17.166100 -0.302197 6.272512
-24.894953 1.322313 -1.527222
-16.617367 -0.870126 6.682526
-24.622702 0.658921 -1.445007
-24.541235 -0.028617 -1.279543
-24.417023 -0.652481 -1.344833
-18.245832 -0.188554 5.617599
-25.404434 1.283936 -1.483265
-17.530115 -0.801851 6.180103
-24.989529 0.590636 -1.264021
-25.130753 -0.061080 -1.323126
-25.040485 -0.685540 -1.425701
-17.886089 -0.372233 6.395487
-25.943771 1.249645 -1.460728
-17.596828 -0.893871 6.531504
-25.829704 0.607996 -1.544453
-25.567043 -0.120835 -1.206257
-25.547016 -0.738036 -1.379734
-17.786007 -0.499687 6.905231
-26.599392 1.236103 -1.541080
-26.148716 0.527802 -1.303616
-26.289993 -0.136716 -1.359867
-26.019226 -0.797115 -1.292938
-27.107410 1.191014 -1.470169
-26.739441 0.494644 -1.319084
-27.003483 -0.157566 -1.489964
-27.155609 -0.768054 -1.831573
-27.609306 1.142961 -1.386326
-27.499790 0.487851 -1.482521
-27.947311 -0.147301 -1.820141
-27.729279 -0.819328 -1.816261
-28.793667 1.219014 -1.916599
-28.506969 0.518274 -1.856701
-28.591000 -0.185903 -1.855118
-28.305061 -0.872537 -1.793621
-29.465397 1.195384 -1.960190
-29.183731 0.489444 -1.910751
-29.230350 -0.227842 -1.874958
-28.978916 -0.915771 -1.850403
-30.140461 1.169346 -1.994858
-29.826767 0.452281 -1.922874
-29.835262 -0.277201 -1.853466
-29.618977 -0.965934 -1.865086
-30.728703 1.125367 -1.942757
-30.465092 0.411702 -1.920017
-30.570095 -0.311389 -1.934959
-30.254295 -1.019230 -1.864769
-31.500130 1.110022 -2.037216
-31.272125 0.393966 -2.050781
-31.248360 -0.356260 -1.954773
-30.929958 -1.070452 -1.888515
-32.214985 1.081745 -2.070229
-31.924313 0.349628 -2.036114
-31.899094 -0.407456 -1.939945
-31.639091 -1.120737 -1.928898
-32.864109 1.039761 -2.036961
-32.571289 0.301914 -2.006504
-32.613720 -0.453278 -1.967121
-32.320869 -1.176884 -1.934216
-33.523186 0.996751 -2.001377
-33.297707 0.262775 -2.030998
-33.269630 -0.509175 -1.934502
-32.974499 -1.238660 -1.905193
-34.316799 0.971802 -2.061859
-34.042904 0.223124 -2.058010
-34.083626 -0.549028 -2.017132
-33.692619 -1.296468 -1.917328
-35.004642 0.927422 -2.025990
-34.673973 0.165130 -1.982861
-34.799854 -0.603607 -2.008671
-34.476418 -1.350782 -1.968987
-35.797398 0.895675 -2.059330
-35.424885 0.120336 -1.990444
-35.526714 -0.659875 -1.996552
-35.256039 -1.408755 -2.003662
-36.506344 0.848491 -2.016087
-36.186813 0.073817 -1.993729
-36.256279 -0.718751 -1.974522
-35.991470 -1.473940 -1.991318
-37.289551 0.808869 -2.016376
-36.943798 0.023546 -1.980610
-36.988441 -0.780236 -1.942543
-36.681641 -1.545983 -1.933113
-38.196609 0.782853 -2.093323
-37.816189 -0.015990 -2.039207
-37.819759 -0.834536 -1.970936
-37.478378 -1.611579 -1.942261
-38.970470 0.735057 -2.059376
-38.595589 -0.070132 -2.015884
-38.589767 -0.898309 -1.941273
-38.278301 -1.680111 -1.940281
-39.746964 0.684474 -2.014771
-39.304459 -0.135399 -1.930210
-39.395027 -0.961757 -1.923874
-39.016068 -1.756715 -1.881035
-40.624355 0.643550 -2.026989
-40.244453 -0.177874 -1.993465
-40.268833 -1.022101 -1.940506
-39.821514 -1.830971 -1.857197
-41.505291 0.599347 -2.026791
-41.048691 -0.238936 -1.948154
-41.212223 -1.079829 -1.989464
-40.827656 -1.893755 -1.957027
-42.489204 0.563823 -2.079990
-42.029583 -0.284823 -2.007614
-42.093300 -1.146890 -1.980663
-41.739193 -1.967433 -1.975544
-43.368988 0.511832 -2.048527
-42.981537 -0.337847 -2.031071
-43.010994 -1.214453 -1.981133
-42.545868 -2.051836 -1.909691
-44.402851 0.473796 -2.100887
-43.903797 -0.397768 -2.019287
-43.898499 -1.288167 -1.946918
-43.405098 -2.135918 -1.865013
-45.390560 0.426161 -2.106529
-44.888409 -0.455543 -2.031490
-44.957848 -1.352079 -2.006256
-44.520088 -2.207588 -1.968395
-46.492371 0.386668 -2.165569
-45.995529 -0.506149 -2.102806
-45.987782 -1.422644 -2.029079
-45.411251 -2.297121 -1.912937
-47.530659 0.335735 -2.167324
-46.954063 -0.574746 -2.064735
-46.919231 -1.504526 -1.974838
-46.407333 -2.384212 -1.907116
-48.572777 0.280837 -2.153942
-48.027069 -0.637331 -2.079117
-48.025093 -1.578014 -2.009098
-47.346886 -2.478294 -1.850880
-49.480556 0.208326 -2.045494
-49.035183 -0.709789 -2.037529
-49.100765 -1.658087 -2.006916
-48.444233 -2.568021 -1.872051
-50.633053 0.155812 -2.061825
-50.046429 -0.786048 -1.981270
-50.110825 -1.746701 -1.949291
-49.450378 -2.666575 -1.822170
-51.234653 -0.852586 -2.007889
-51.088902 -1.841241 -1.857414
-50.563885 -2.764186 -1.816479
-52.288239 -1.926675 -1.871403
-51.567436 -2.870962 -1.731392
-53.544594 -2.013858 -1.895802
-52.687675 -2.976904 -1.693520
-54.655193 -2.113929 -1.822155
-54.084881 -3.076845 -1.784271
6.775923 -5.371233 30.539553
6.783192 -5.369506 30.547754
6.728863 -5.371240 30.522133
6.754207 -5.369565 30.539082
6.745307 -5.372671 30.534304
6.771811 -5.370588 30.548731
6.762855 -5.373446 30.544092
6.752601 -5.370586 30.542814
6.734405 -5.373636 30.534342
6.751823 -5.371098 30.544689
6.770611 -5.374504 30.551451
6.713843 -5.370841 30.531939
6.732738 -5.374745 30.538412
6.740983 -5.371952 30.544882
6.759907 -5.375408 30.551296
6.758958 -5.372786 30.553858
6.787276 -5.375943 30.563713
6.720993 -5.376420 30.541119