# This PCD file was generated using the MATLAB® pcwrite function
# from Computer Vision System Toolbox®.
# .PCD v.7 - Point Cloud Data file format
VERSION .7
FIELDS x y z
SIZE 4 4 4
TYPE F F F
COUNT 1 1 1
WIDTH 748
HEIGHT 1
VIEWPOINT 0 0 0 1 0 0 0
POINTS 748
DATA ascii
55.911285 -54.582134 5.118729
57.997238 -54.041080 0.639709
56.890358 -53.387585 0.515762
56.907280 -54.126026 0.515106
56.286179 -53.447754 0.540146
56.333862 -54.174831 0.501369
55.733620 -53.497841 0.509277
55.701889 -54.235565 0.573017
55.195072 -53.545654 0.469166
55.188068 -54.274567 0.502457
54.604881 -53.605453 0.506817
54.633842 -54.321999 0.493431
54.035400 -53.661648 0.527683
54.070145 -54.372040 0.506981
53.520866 -53.706505 0.482975
53.503269 -54.423523 0.535316
52.944923 -53.765850 0.533192
52.956459 -54.471825 0.546104
52.411758 -53.816441 0.533325
52.417816 -54.519257 0.555180
51.919960 -53.858315 0.482288
51.909569 -54.561218 0.529499
51.275196 -53.936401 0.667599
48.497997 -55.205360 4.853054
48.069195 -54.619022 4.775806
48.096939 -55.232937 4.764656
47.625462 -54.659195 4.757988
47.647839 -55.271053 4.755665
47.220345 -54.690681 4.686409
47.221687 -55.304859 4.718121
46.753212 -54.737717 4.720333
46.775799 -55.343452 4.719021
46.329643 -54.774788 4.691772
46.352364 -55.377739 4.690945
45.887085 -54.817169 4.701927
45.909893 -55.416779 4.701622
45.466434 -54.854702 4.682735
45.469353 -55.456028 4.717228
45.047165 -54.892460 4.668098
45.050526 -55.490990 4.703236
44.629322 -54.930439 4.657990
44.633133 -55.526173 4.693764
44.212955 -54.968636 4.652382
44.217216 -55.561565 4.688786
43.798111 -55.007038 4.651249
43.821636 -55.592716 4.653267
43.384830 -55.045647 4.654568
43.408508 -55.628536 4.657040
43.217850 -56.228218 4.679367
42.959557 -55.088188 4.688789
42.983349 -55.667873 4.691746
42.798431 -56.263462 4.707985
42.869164 -56.830154 4.619137
42.580994 -55.118477 4.638996
42.587143 -55.700760 4.677826
42.273144 -55.129185 4.450565
42.302013 -55.706348 4.445137
42.004925 -56.325836 4.698280
42.030712 -56.895908 4.698864
41.782719 -55.192112 4.640270
41.807121 -55.764954 4.644436
41.616653 -56.355885 4.686153
41.642647 -56.923717 4.687061
41.377327 -55.231678 4.665123
41.423077 -55.796265 4.624767
41.229572 -56.386131 4.678017
41.259991 -56.950909 4.670212
41.006935 -55.261593 4.622128
41.019287 -55.833229 4.654156
40.860237 -56.412781 4.637615
40.874268 -56.979115 4.666321
40.620884 -55.296627 4.619022
40.645927 -55.862759 4.624348
40.459133 -56.447208 4.673626
40.489811 -57.007511 4.666374
40.220169 -55.336731 4.656219
40.245384 -55.900070 4.661976
40.075855 -56.478027 4.677330
40.106663 -57.036091 4.670349
39.837044 -55.372120 4.661121
39.862476 -55.933228 4.667255
39.693920 -56.509029 4.684937
39.724857 -57.064854 4.678223
39.470585 -55.402843 4.633286
39.515488 -55.956898 4.593887
39.343857 -56.532742 4.622833
39.344440 -57.093792 4.689972
39.104881 -55.433773 4.609058
39.134621 -55.990440 4.606632
38.949165 -56.567837 4.674835
38.980408 -57.119740 4.668613
38.739975 -55.464905 4.588417
38.755196 -56.024155 4.623234
38.571175 -56.599365 4.693874
38.587914 -57.152172 4.725014
38.365135 -55.499836 4.599129
38.391632 -56.053787 4.606583
38.208954 -56.627377 4.679546
38.244087 -57.174576 4.664509
37.988144 -55.536133 4.622879
38.000805 -56.092072 4.667904
37.847622 -56.655579 4.668751
37.882851 -57.201099 4.653904
37.640076 -55.563057 4.575859
37.653393 -56.117844 4.621262
37.476990 -56.686703 4.689556
37.508865 -57.230900 4.684280
37.252197 -55.604439 4.644321
37.292847 -56.148033 4.615345
37.131062 -56.711636 4.648323
37.163162 -57.254704 4.643234
36.905697 -55.631752 4.604206
36.933273 -56.178406 4.612934
36.772503 -56.740395 4.648014
36.791767 -57.284828 4.680836
36.546833 -55.663986 4.604977
36.574692 -56.208954 4.614002
36.427589 -56.765739 4.613392
36.447411 -57.309025 4.646507
36.188999 -55.696396 4.609226
36.217148 -56.239674 4.618549
36.083073 -56.791290 4.582001
37.310463 -56.435158 0.802219
37.387650 -57.019920 0.671021
35.820187 -55.733646 4.654789
37.082085 -55.854881 0.798103
36.996162 -56.444202 0.563793
33.801170 -57.846260 10.787140
36.738655 -55.260632 0.537579
33.608772 -56.962147 10.767357
36.775513 -55.859230 0.532700
33.462936 -57.429218 10.854376
33.477184 -57.876808 10.893980
33.289764 -56.540188 10.771296
33.382469 -56.963684 10.551136
33.186386 -57.448570 10.811359
33.201229 -57.895561 10.851192
33.081226 -56.531990 10.490566
33.105980 -56.982838 10.498949
32.923542 -57.463741 10.722973
32.916996 -57.916706 10.839666
32.780125 -56.562111 10.526821
32.794338 -57.015305 10.573771
32.635929 -57.486965 10.723261
32.673332 -57.927078 10.686653
32.493343 -56.586620 10.518042
32.513390 -57.036797 10.546072
32.390228 -57.496529 10.572266
32.417339 -57.940651 10.574108
32.212124 -56.609013 10.492701
32.225079 -57.061459 10.549814
32.122627 -57.513264 10.500404
32.137531 -57.960957 10.550608
31.923851 -56.634975 10.498835
31.947254 -57.082287 10.517664
31.832756 -57.537888 10.517895
31.860378 -57.980721 10.519978
31.636337 -56.661072 10.507658
31.671864 -57.102310 10.478357
31.548473 -57.560947 10.518726
31.564653 -58.006325 10.569435
31.342831 -56.690674 10.548191
31.375990 -57.131363 10.528725
31.251385 -57.589195 10.580444
31.236664 -58.042549 10.767496
31.072363 -56.709217 10.494537
31.079416 -57.161484 10.591623
31.029177 -57.589111 10.314203
31.159454 -57.999283 9.858807
30.761873 -56.749058 10.627874
30.870596 -57.151852 10.258484
31.005575 -57.508152 9.094151
31.118927 -57.939934 8.705223
30.734619 -56.634274 9.401398
30.868002 -57.041336 8.903175
30.860067 -57.470795 8.370228
30.875355 -57.945126 8.449276
30.669170 -56.530960 8.260765
30.707214 -56.999763 8.229053
30.573410 -57.490101 8.311703
30.574419 -57.969803 8.469288
30.390116 -56.545006 8.154377
30.411657 -57.023087 8.210655
30.264521 -57.519382 8.373291
30.281662 -57.991913 8.452835
30.094017 -56.569115 8.138420
30.109276 -57.050385 8.234093
29.971037 -57.542297 8.359230
29.990870 -58.013538 8.429169
29.798145 -56.593407 8.125111
29.814503 -57.074043 8.221039
29.684364 -57.562187 8.308464
29.696850 -58.036671 8.427769
29.502531 -56.617878 8.114449
29.526333 -57.094131 8.171303
29.384832 -57.588654 8.338982
29.404839 -58.059307 8.419155
29.213150 -56.638241 8.067093
29.225748 -57.121883 8.202827
29.098038 -57.608932 8.293331
29.119043 -58.079517 8.373669
28.912159 -56.667336 8.101017
28.937473 -57.142365 8.158234
28.805336 -57.632561 8.289680
28.827301 -58.102520 8.370205
28.622717 -56.688091 8.058823
28.648836 -57.163063 8.116158
28.512976 -57.656357 8.288635
28.535900 -58.125687 8.369335
28.323090 -56.717468 8.098106
28.338737 -57.199486 8.244572
28.225821 -57.677235 8.250603
28.249748 -58.146492 8.331432
28.033676 -56.738609 8.061054
28.060158 -57.213261 8.128590
27.938360 -57.698326 8.215080
27.963293 -58.167511 8.296032
27.743967 -56.759964 8.026535
27.763855 -57.240845 8.163490
27.646463 -57.722660 8.221725
27.672359 -58.191212 8.302834
27.450096 -56.785652 8.034138
27.476353 -57.261406 8.121750
27.358805 -57.744148 8.191257
27.385708 -58.212624 8.272472
27.160206 -56.807404 8.004707
27.186636 -57.283958 8.102352
27.067446 -57.768818 8.203041
27.098818 -58.234241 8.244614
26.870087 -56.829361 7.977810
26.894432 -57.309349 8.115276
26.779676 -57.790695 8.177631
26.811710 -58.256065 8.219257
26.579758 -56.851524 7.953449
26.609224 -57.327034 8.041363
26.491711 -57.812771 8.154728
26.521599 -58.280464 8.236240
26.284870 -56.880928 8.001129
26.316601 -57.353653 8.069328
26.203573 -57.835052 8.134350
26.234470 -58.302666 8.215927
25.995876 -56.901455 7.962013
26.027977 -57.375248 8.040188
25.915283 -57.857533 8.116478
25.945604 -58.326805 8.228027
25.704590 -56.926178 7.965164
25.738579 -57.397911 8.023514
25.626863 -57.880215 8.101124
25.658457 -58.349384 8.212738
25.414259 -56.949104 7.950977
25.449060 -57.420773 8.009373
25.336962 -57.905907 8.128162
25.372625 -58.369900 8.160053
25.124662 -56.969296 7.909481
25.159445 -57.443829 7.997753
25.048698 -57.928951 8.117859
25.082790 -58.397366 8.229610
24.834852 -56.987782 7.850605
24.870361 -57.464588 7.958771
24.717539 -58.126068 10.623703
24.752201 -58.552761 10.617823
24.515440 -57.273510 10.551203
24.543394 -57.013279 7.863918
24.550108 -57.705090 10.573063
24.538015 -58.274639 5.111362
24.583162 -58.014599 0.338657
24.247908 -57.289604 10.487757
24.181961 -57.718113 3.951565
24.180452 -57.461311 0.160252
24.224098 -58.283188 4.788826
24.227396 -58.046955 0.395176
23.960466 -57.051468 7.758820
23.954737 -56.908680 0.242268
23.856031 -57.734879 3.801647
23.822840 -57.490833 0.159966
23.901440 -58.271214 4.069607
23.667864 -57.071899 7.720039
23.707043 -57.541924 7.728443
23.597485 -56.938293 0.243542
23.546200 -57.821518 4.702114
23.582096 -58.310123 4.301819
23.379732 -57.112213 7.892841
23.417929 -57.575867 7.851616
23.346449 -57.331341 4.792206
23.226118 -57.842949 4.627613
23.259964 -58.334991 4.267235
23.083683 -57.121849 7.739735
23.124247 -57.593246 7.768066
23.029593 -57.359650 4.818806
22.872356 -57.805202 3.638416
22.934832 -58.356571 4.165604
22.879032 -58.273281 2.528675
22.799417 -58.154446 0.193047
22.791626 -57.146629 7.748428
22.830704 -57.614071 7.726933
22.524063 -57.024586 0.216270
22.394279 -57.613136 0.219944
22.618992 -58.391521 4.326283
22.501688 -57.175243 7.799458
22.542814 -57.645218 7.817833
22.267534 -57.920536 4.600433
22.037876 -57.644402 0.245220
22.297661 -58.418564 4.330070
22.204878 -57.192204 7.723763
22.244247 -57.660320 7.702194
22.139856 -58.142906 7.724945
21.942677 -57.941856 4.517284
21.916830 -58.397755 3.349625
21.921581 -57.229237 7.869305
21.952246 -57.685669 7.718555
21.851168 -58.170773 7.782379
21.528166 -57.885803 3.182503
21.558697 -58.406372 2.950993
21.615454 -57.236866 7.689529
21.667200 -57.717960 7.826958
21.553921 -58.191441 7.722904
21.119341 -57.854553 2.220314
21.198128 -58.418652 2.615490
21.040958 -58.323177 0.593834
21.322239 -57.261749 7.701118
21.365410 -57.733921 7.719181
21.272942 -58.224442 7.864960
20.647343 -57.793140 0.735336
20.858242 -58.446022 2.591892
21.042204 -57.299068 7.854115
21.081984 -57.766453 7.832581
20.966450 -58.240204 7.721222
20.250948 -57.797215 0.308838
20.344360 -58.390411 0.751446
20.734928 -57.311207 7.722092
20.775003 -57.780796 7.700348
20.675041 -58.266365 7.749077
19.896036 -57.829758 0.352798
19.948166 -58.402760 0.357811
20.447374 -57.340954 7.790894
20.477617 -57.803490 7.679970
20.392956 -58.297318 7.858833
19.588556 -58.433117 0.355179
20.146418 -57.360584 7.743481
20.199825 -57.838554 7.830601
20.083303 -58.314621 7.733154
19.227407 -58.463306 0.345814
19.843100 -57.379665 7.688889
19.888762 -57.853848 7.706516
19.802517 -58.345844 7.847912
18.867073 -58.494202 0.349567
19.568705 -57.417442 7.854187
19.598372 -57.881413 7.753330
19.490063 -58.363792 7.727741
18.500942 -58.523693 0.316921
19.248833 -57.427849 7.696400
19.307056 -57.908432 7.792793
19.191462 -58.388168 7.719109
19.234221 -58.859623 7.710228
18.141201 -58.555550 0.337002
18.950573 -57.451859 7.699192
18.983955 -57.921307 7.627777
18.920513 -58.422474 7.890682
18.960247 -58.891304 7.862122
17.779858 -58.587246 0.350380
18.652020 -57.476089 7.704636
18.717478 -57.959583 7.830128
18.597794 -58.439228 7.739426
18.636183 -58.910435 7.700840
17.413410 -58.618027 0.337399
18.344627 -57.496521 7.663654
18.386040 -57.971157 7.641327
18.313698 -58.468990 7.827309
18.331341 -58.935047 7.670639
17.046288 -58.649109 0.327717
18.068531 -57.531574 7.801956
18.095648 -57.999695 7.701195
17.987059 -58.486507 7.681938
18.054508 -58.965946 7.800472
17.747303 -57.546951 7.697811
17.804016 -58.027725 7.753777
17.687960 -58.512596 7.696598
17.734072 -58.988060 7.697098
17.449448 -57.572872 7.723774
17.479557 -58.045017 7.642559
17.404600 -58.542881 7.792233
17.443062 -59.016323 7.753525
17.149534 -57.598217 7.742638
17.205872 -58.079174 7.788437
17.078848 -58.562977 7.685104
17.136059 -59.041931 7.734268
16.836628 -57.619202 7.705757
16.878876 -58.097111 7.683029
16.789642 -58.592152 7.756664
16.819643 -59.066452 7.678795
16.555964 -57.651810 7.817589
16.571692 -58.121628 7.678116
16.480963 -58.617203 7.743130
16.555365 -59.099323 7.860107
16.209721 -57.662857 7.650455
16.270800 -58.148232 7.705151
16.150543 -58.638359 7.645027
16.210247 -59.120430 7.693497
15.888762 -57.683296 7.602985
15.938840 -58.167259 7.608879
15.878231 -58.671326 7.792488
15.890516 -59.145882 7.646809
15.525301 -59.097767 6.172119
15.625906 -57.721561 7.790405
15.668813 -58.202057 7.767349
15.540432 -58.692230 7.681004
15.599243 -59.175373 7.719341
15.283691 -57.736717 7.671432
15.337139 -58.222301 7.686703
15.228509 -58.718414 7.679039
15.275205 -59.201103 7.668846
14.981145 -57.763737 7.709751
15.003447 -58.242958 7.609306
14.937262 -58.748310 7.757000
15.008077 -59.233593 7.833481
14.656777 -57.785339 7.674046
14.743936 -58.279819 7.804161
14.588959 -58.769493 7.635803
14.639094 -59.255337 7.634930
14.342382 -57.810055 7.679741
14.383410 -58.296051 7.646442
14.288892 -58.798595 7.690609
14.325259 -59.283455 7.641670
14.062175 -57.843262 7.802929
14.068539 -58.322140 7.654968
13.997832 -58.829090 7.776783
14.057332 -59.316078 7.804394
13.699925 -57.857582 7.661869
13.776869 -58.352802 7.742714
13.644544 -58.851414 7.665344
13.710828 -59.341774 7.711689
13.383513 -57.883133 7.676514
13.427979 -58.373531 7.652359
13.356407 -58.882729 7.766647
13.383475 -59.369659 7.689095
13.116943 -57.919495 7.845638
13.111256 -58.400444 7.669842
13.002783 -58.906223 7.671398
13.089656 -59.400497 7.774044
12.723365 -57.929825 7.639202
12.823019 -58.432224 7.775398
12.659706 -58.931667 7.617592
12.722095 -59.426197 7.644024
12.378370 -57.951103 7.587708
12.436795 -58.449024 7.600658
12.394804 -58.966141 7.793373
12.394601 -59.455307 7.640491
12.113085 -57.987965 7.764935
12.131268 -58.478806 7.665054
12.022929 -58.989368 7.670639
12.117207 -59.487907 7.781170
11.742299 -58.005470 7.654205
11.839860 -58.510708 7.769711
11.676012 -59.015877 7.626789
11.726504 -59.513855 7.614868
11.390044 -58.027184 7.603352
11.450112 -58.529404 7.615448
11.384639 -59.048103 7.735779
11.410413 -59.544701 7.658382
11.112384 -58.062035 7.751301
11.114811 -58.556179 7.614361
11.035750 -59.075260 7.698475
11.119668 -59.577076 7.770054
10.750840 -58.083202 7.688484
10.837883 -58.590611 7.764992
10.685276 -59.102814 7.664734
10.740541 -59.605343 7.661568
10.398645 -58.106583 7.657120
10.456545 -58.612507 7.659096
10.363791 -59.133209 7.708477
10.389012 -59.635479 7.631149
10.072077 -58.134407 7.693752
10.087863 -58.636703 7.594154
10.026486 -59.162666 7.718475
10.113669 -59.669163 7.788597
9.717422 -58.158512 7.669380
9.811815 -58.671700 7.753361
9.640616 -59.188999 7.621777
9.713169 -59.698128 7.654579
9.341114 -58.180214 7.602997
9.408591 -58.693241 7.622261
9.284486 -59.218094 7.602371
9.341670 -59.728817 7.598190
9.003777 -58.207905 7.631588
9.047222 -58.719929 7.595852
9.022075 -59.253765 7.795952
9.034107 -59.762051 7.691498
8.745600 -58.246185 7.835659
8.793170 -58.757500 7.809082
8.584905 -59.278496 7.610863
8.693452 -59.794487 7.715054
8.284595 -58.258854 7.608555
8.366817 -58.778854 7.653732
8.224986 -59.308723 7.602398
8.283592 -59.825451 7.597439
7.923023 -58.284912 7.602634
7.988768 -58.805508 7.611279
7.933723 -59.343197 7.741528
7.922869 -59.858250 7.592445
7.608944 -58.317009 7.698906
7.626507 -58.834122 7.608715
7.554707 -59.373119 7.704159
7.649639 -59.893295 7.770435
7.232191 -58.342224 7.673367
7.335011 -58.868977 7.752697
7.173845 -59.403500 7.670876
7.233818 -59.925674 7.665142
6.830837 -58.365398 7.607498
6.898319 -58.892502 7.614956
6.772766 -59.433483 7.606205
6.833324 -59.958954 7.600117
6.445755 -58.391048 7.581417
6.518507 -58.921227 7.597263
6.481672 -59.468891 7.758018
6.467810 -59.993286 7.610298
6.153780 -58.426682 7.735325
6.146578 -58.951057 7.601261
6.063461 -59.499126 7.674965
6.177128 -60.028885 7.765160
5.752350 -58.451653 7.690525
5.855150 -58.986874 7.758160
5.632837 -59.529575 7.579166
5.752811 -60.063267 7.677269
5.299875 -58.472549 7.563110
5.394186 -59.011593 7.612389
5.263052 -59.562927 7.601582
5.325645 -60.098251 7.594261
4.908440 -58.499969 7.553699
4.978937 -59.040146 7.558910
4.912233 -59.597317 7.662582
4.915579 -60.133942 7.550888
4.575991 -58.533108 7.652035
4.606691 -59.071938 7.587849
4.540834 -59.631374 7.692673
4.624531 -60.170589 7.719315
4.202869 -58.563026 7.684994
4.253969 -59.105270 7.655102
4.106913 -59.664040 7.623760
4.232523 -60.207130 7.718517
3.771736 -58.588696 7.628040
3.900972 -59.138893 7.725964
3.691189 -59.697845 7.594032
3.776691 -60.244129 7.619526
3.327604 -58.614120 7.559078
3.421539 -59.166283 7.596416
3.273468 -59.732174 7.569023
3.380932 -60.281670 7.627949
2.907484 -58.642162 7.537540
2.981020 -59.196514 7.540340
2.875238 -59.767490 7.582542
2.919680 -60.319893 7.539322
2.512527 -58.672676 7.562771
2.586641 -59.229614 7.565094
2.540863 -59.804558 7.701225
-1.292906 -59.727440 1.773338
1.041332 -60.366493 5.262474
-1.223288 -60.378845 1.749104
2.198769 -58.709339 7.717587
-1.709061 -58.437393 1.772057
0.629869 -59.193813 5.210880
-1.386082 -59.104305 2.133488
0.600109 -59.812721 5.385277
0.692305 -60.407558 5.406250
0.167753 -58.631058 5.309776
0.268124 -59.232807 5.341061
0.178732 -59.851910 5.424953
0.293993 -60.449253 5.478615
-0.233658 -58.666576 5.386314
-0.132462 -59.270458 5.416969
-0.198521 -59.892174 5.535316
-0.082258 -60.491070 5.588295
-0.589876 -58.705280 5.532787
-0.487942 -59.310181 5.562901
-0.575632 -59.932720 5.649563
-0.481197 -60.533440 5.669003
-1.008886 -58.740402 5.593052
-0.934933 -59.346828 5.581642
-0.975725 -59.973297 5.735085
-0.857422 -60.575851 5.786644
-1.411142 -58.776936 5.682243
-1.313385 -59.386322 5.702911
-1.376158 -60.014225 5.824909
-1.256819 -60.618885 5.875732
-1.766375 -58.816414 5.840202
-1.691587 -59.426090 5.828091
-1.776894 -60.055500 5.919052
-1.656525 -60.662266 5.969128
-2.216543 -58.851051 5.873615
-2.087431 -59.465599 5.933140
-2.147886 -60.097282 6.057526
-2.050501 -60.705887 6.074856
-2.571150 -58.891068 6.039433
-2.465229 -59.505932 6.066322
-2.573017 -60.139103 6.128288
-2.456667 -60.750061 6.168900
-2.973833 -58.928902 6.145573
-2.897690 -59.545116 6.132240
-2.980453 -60.181381 6.227505
-2.857018 -60.794468 6.275295
-3.426199 -58.964790 6.193314
-3.293877 -59.585621 6.250191
-3.350912 -60.224037 6.378239
-3.232719 -60.838673 6.417454
-3.804602 -59.004486 6.339798
-3.671265 -59.626850 6.395828
-3.802324 -60.267010 6.431580
-3.683090 -60.884869 6.469986
-4.233137 -59.042297 6.428341
-4.098709 -59.667313 6.483418
-4.185093 -60.310291 6.575230
-4.083946 -60.930313 6.589699
-4.687790 -59.079491 6.490990
-4.558620 -59.707592 6.537369
-4.605888 -60.353996 6.676876
-4.484789 -60.976086 6.713802
-5.091755 -59.119141 6.619957
-4.980974 -59.749020 6.642555
-5.039967 -60.398151 6.768021
-4.937262 -61.023571 6.781261
-5.547846 -59.157215 6.692783
-5.410141 -59.790730 6.744915
-5.461512 -60.442638 6.879280
-5.338463 -61.070068 6.914627
-5.952082 -59.197586 6.831066
-5.839695 -59.832836 6.852158
-5.916311 -60.487770 6.957760
-5.792248 -61.118423 6.992275
-6.382757 -59.237396 6.943966
-6.242977 -59.875656 6.994179
-6.345261 -60.533115 7.071400
-6.220238 -61.166439 7.105110
-6.840597 -59.276768 7.032188
-6.699724 -59.918228 7.081356
-6.801403 -60.579144 7.160385
-6.641764 -61.214630 7.230247
-7.299164 -59.316597 7.125813
-7.130100 -59.961502 7.203335
-7.231066 -60.625301 7.284096
-7.070158 -61.263409 7.352848
-7.785809 -59.356136 7.195721
-7.615374 -60.004761 7.271908
-7.715767 -60.672585 7.354557
-7.560343 -61.314655 7.414833
-8.218252 -59.397644 7.329327
-8.094866 -60.048592 7.353619
-8.340048 -60.722454 7.286640
-8.259096 -61.373695 7.266144
-8.922842 -59.432896 7.188587
-8.812166 -60.091869 7.197235
-9.051687 -60.774586 7.141235
-8.941832 -61.433109 7.148605
-9.582987 -59.470394 7.107285
-9.464254 -60.136528 7.121941
-9.768229 -60.827858 7.005695
-9.621935 -61.493328 7.047562
-10.346388 -59.506771 6.936352
-11.488497 -60.179844 5.694458
-11.769232 -60.905964 5.614464
-11.619059 -61.604607 5.653366
-12.346968 -59.520130 5.575886
-12.224062 -60.228275 5.585857
-12.534811 -60.963814 5.482182
-12.383036 -61.671211 5.519699
-13.174845 -59.559879 5.395710
-13.021826 -60.277897 5.431988
-13.327009 -61.023323 5.339863
-13.115847 -61.737576 5.431297
-14.008524 -59.600983 5.227268
-13.854013 -60.328869 5.261890
-14.160807 -61.084896 5.174477
-14.034788 -61.812523 5.181698
-14.847879 -59.643444 5.070660
-14.721197 -60.381302 5.076412
-15.007563 -61.147991 5.014172
-14.821386 -61.883186 5.074474
-15.692759 -59.687248 4.925961
-15.498320 -60.434685 4.990932
-16.917055 -60.441639 3.697281
-17.215364 -61.245350 3.636909
-17.209742 -62.023861 3.525665
-17.624334 -59.718918 3.827312
-17.620314 -60.497490 3.715084
-17.956823 -61.309704 3.625740
-17.980742 -62.097374 3.487850
-18.307810 -59.768795 3.874424
-18.296270 -60.554050 3.768768
-18.701517 -61.375088 3.624695
-18.665319 -62.167938 3.539841
-19.054129 -59.818951 3.878380
-19.042433 -60.612045 3.772537
-19.419004 -61.440651 3.659912
-19.382353 -62.240753 3.574837
-19.765368 -59.870445 3.924862
-19.761187 -60.670757 3.812424
-20.169577 -61.508026 3.679020
-20.193392 -62.318787 3.541985
-20.555834 -59.922306 3.916939
-20.574518 -60.731415 3.785095
-20.953783 -61.577320 3.682865
-20.946768 -62.395050 3.571655
-21.334196 -59.975357 3.932652
-21.291075 -60.792011 3.851616
-21.710199 -61.646740 3.722866
-21.764750 -62.475323 3.561035
-22.123377 -60.029427 3.952866
-22.110968 -60.854851 3.846241
-22.531637 -61.719128 3.723236
-22.523920 -62.553658 3.611984
-22.915560 -60.084560 3.984024
-22.910780 -60.918495 3.870979
-23.387846 -61.793682 3.710400
-23.340471 -62.635746 3.630032
-23.829142 -60.140514 3.934258
-23.697783 -60.982975 3.919151
-24.152826 -61.866257 3.783100
-23.994356 -62.710449 3.788170
-24.826590 -60.197735 3.837009
-24.495367 -61.048622 3.972176
-23.559000 -61.892708 4.900494
-23.345816 -62.717941 4.948250
-24.299967 -60.255978 4.898621
-24.032049 -61.092976 4.984730
-24.263361 -61.963604 5.024307
-23.976610 -62.791649 5.124233
-24.983515 -60.313953 5.048244
-24.729956 -61.157398 5.120216
-24.591761 -62.865154 5.320366
-25.627504 -60.372589 5.236309
-25.404776 -61.222153 5.282761
-26.055937 -61.287136 5.471748
24.007198 -60.252171 41.075249
23.952736 -60.252075 41.049473
23.926998 -60.257648 41.034523
24.021887 -60.251633 41.089882
23.950417 -60.252586 41.053741
23.933216 -60.257633 41.043995
23.993782 -60.253769 41.078953
23.983686 -60.251247 41.076366
24.001732 -60.253376 41.085316
23.982748 -60.251465 41.078228
24.000874 -60.253574 41.087017
23.981827 -60.251678 41.080093
24.000029 -60.253773 41.088730
23.944946 -60.253849 41.064590
23.954298 -60.257103 41.068680
23.952942 -60.253601 41.071056
23.971333 -60.256073 41.079350
23.997585 -60.254360 41.093910