# This PCD file was generated using the MATLAB® pcwrite function
# from Computer Vision System Toolbox®.
# .PCD v.7 - Point Cloud Data file format
VERSION .7
FIELDS x y z
SIZE 4 4 4
TYPE F F F
COUNT 1 1 1
WIDTH 770
HEIGHT 1
VIEWPOINT 0 0 0 1 0 0 0
POINTS 770
DATA ascii
0.650759 -0.334908 -0.190434
0.624877 -0.335053 -0.210446
0.617486 -0.355046 -0.236867
0.578552 -0.361776 -0.270566
0.634990 -0.344493 -0.229529
0.653485 -0.318302 -0.202248
0.658551 -0.330278 -0.215010
0.607915 -0.344576 -0.263102
0.688011 -0.312498 -0.193124
0.687893 -0.298211 -0.186155
0.662105 -0.328194 -0.233697
0.636853 -0.327637 -0.254668
0.727631 -0.288603 -0.168897
0.672607 -0.306867 -0.225373
0.696068 -0.307727 -0.216810
0.653194 -0.317993 -0.259528
0.736597 -0.283249 -0.179183
0.658340 -0.314920 -0.265381
0.735241 -0.284107 -0.191502
0.693372 -0.294587 -0.234952
0.745718 -0.277808 -0.189284
0.692420 -0.295042 -0.247706
0.721399 -0.292565 -0.231090
0.674045 -0.305554 -0.282621
0.800845 -0.244529 -0.139809
0.749003 -0.262196 -0.199178
0.799415 -0.245436 -0.151712
0.713466 -0.282609 -0.256438
0.764413 -0.266670 -0.208924
0.735664 -0.269712 -0.239062
0.780305 -0.257096 -0.198521
0.757561 -0.256994 -0.221293
0.773982 -0.260976 -0.218455
0.767998 -0.250888 -0.218439
0.816957 -0.234998 -0.169186
0.756280 -0.257551 -0.246258
0.821425 -0.232342 -0.173443
0.777713 -0.245113 -0.227777
0.825925 -0.229668 -0.177654
0.766414 -0.251528 -0.255828
0.809366 -0.239760 -0.213310
0.824976 -0.217728 -0.181807
0.835021 -0.224267 -0.185938
0.776693 -0.245424 -0.265189
0.844769 -0.218415 -0.182031
0.776660 -0.245348 -0.277771
0.869710 -0.203347 -0.153878
0.823267 -0.218454 -0.218121
0.853930 -0.212981 -0.189931
0.807688 -0.227320 -0.254588
0.853583 -0.213257 -0.201946
0.797670 -0.232982 -0.283280
0.877944 -0.198536 -0.173091
0.798017 -0.232685 -0.295853
0.863044 -0.207651 -0.209665
0.828045 -0.215348 -0.259066
0.872606 -0.201916 -0.205169
0.828333 -0.215087 -0.271432
0.844648 -0.192803 -0.240111
0.834146 -0.185632 -0.248150
0.872621 -0.201981 -0.217191
0.838370 -0.209234 -0.267180
0.853927 -0.175160 -0.227003
0.900765 -0.184950 -0.178980
0.857780 -0.198009 -0.246017
0.859462 -0.184286 -0.239378
0.844311 -0.179617 -0.255913
0.896110 -0.187856 -0.199239
0.848818 -0.203052 -0.275083
0.844659 -0.179001 -0.268163
0.909879 -0.179560 -0.185743
0.867908 -0.192019 -0.253533
0.846265 -0.190853 -0.289226
0.849878 -0.175915 -0.271961
0.905529 -0.182287 -0.206095
0.873014 -0.189000 -0.257213
0.883710 -0.170443 -0.233275
0.878378 -0.161111 -0.233017
0.914686 -0.176797 -0.200885
0.878149 -0.185966 -0.260842
0.875115 -0.174786 -0.262501
0.860401 -0.169696 -0.279398
0.915052 -0.176661 -0.212758
0.870067 -0.190492 -0.290249
0.875838 -0.174114 -0.274682
0.888313 -0.155241 -0.239900
0.945522 -0.158183 -0.164091
0.888500 -0.179852 -0.267942
0.885493 -0.168657 -0.269549
0.888863 -0.154511 -0.251937
0.941528 -0.160703 -0.184437
0.893716 -0.176772 -0.271413
0.890722 -0.165570 -0.272994
0.902742 -0.147127 -0.237867
0.933670 -0.165587 -0.213648
0.898958 -0.173678 -0.274831
0.913001 -0.153390 -0.241346
0.899083 -0.148479 -0.258601
0.950723 -0.155277 -0.190371
0.908379 -0.168199 -0.269414
0.918018 -0.150430 -0.244518
0.912749 -0.141223 -0.244259
0.963385 -0.147641 -0.175620
0.925867 -0.158120 -0.246213
0.906564 -0.156224 -0.283008
0.909403 -0.142392 -0.265057
0.960006 -0.149802 -0.196118
0.918858 -0.162019 -0.275901
0.928124 -0.144472 -0.250707
0.922853 -0.135265 -0.250447
0.987977 -0.132805 -0.145493
0.951810 -0.143134 -0.216733
0.913260 -0.152038 -0.298338
0.919820 -0.136251 -0.271303
0.973192 -0.141946 -0.192732
0.929435 -0.155785 -0.282175
0.922630 -0.146755 -0.292538
0.933049 -0.129257 -0.256430
1.011575 -0.118556 -0.114558
0.976769 -0.128732 -0.186422
0.955021 -0.129338 -0.232605
0.930332 -0.130059 -0.277337
0.982511 -0.136456 -0.198022
0.936356 -0.151634 -0.297254
0.948610 -0.132403 -0.262468
0.954907 -0.117581 -0.235103
1.019714 -0.113764 -0.119076
0.960211 -0.137960 -0.254950
0.968665 -0.121541 -0.228979
0.940934 -0.123817 -0.283157
1.002542 -0.124401 -0.175840
0.947254 -0.145218 -0.303169
0.958986 -0.126296 -0.268035
0.935107 -0.126054 -0.313309
1.014017 -0.117471 -0.159950
0.970470 -0.131922 -0.260392
0.960623 -0.125098 -0.279886
0.951623 -0.117527 -0.288762
1.001385 -0.125349 -0.208033
0.958242 -0.138753 -0.308863
0.969445 -0.120143 -0.273391
0.960583 -0.112653 -0.282305
1.009488 -0.120494 -0.201216
0.980812 -0.125840 -0.265625
0.985037 -0.111676 -0.248343
0.976452 -0.104509 -0.257300
1.010934 -0.119735 -0.212751
0.972655 -0.130350 -0.305100
0.993483 -0.106944 -0.241538
0.985036 -0.099858 -0.250532
1.044526 -0.099170 -0.131632
0.991232 -0.119715 -0.270648
1.008419 -0.098864 -0.216053
0.986750 -0.098456 -0.262204
1.020554 -0.114081 -0.217274
0.983671 -0.123876 -0.310280
0.990601 -0.107709 -0.283464
0.995232 -0.093867 -0.255266
1.052921 -0.094238 -0.135481
1.001728 -0.113548 -0.275460
1.005432 -0.099692 -0.257812
0.984185 -0.098389 -0.304265
1.039208 -0.102848 -0.193515
1.007003 -0.110451 -0.277786
1.013670 -0.095086 -0.250674
1.018155 -0.081977 -0.222304
1.061374 -0.089275 -0.139159
1.021263 -0.102285 -0.251880
1.015736 -0.093643 -0.262236
1.010658 -0.084809 -0.261979
1.059926 -0.090312 -0.159778
1.014688 -0.105871 -0.291700
1.023865 -0.089102 -0.254934
1.015834 -0.081772 -0.264112
1.078211 -0.079112 -0.114312
1.034322 -0.094689 -0.246638
1.026105 -0.087558 -0.266451
1.021026 -0.078725 -0.266193
1.068745 -0.085138 -0.163312
1.025501 -0.099527 -0.296033
1.045366 -0.077406 -0.221022
1.037753 -0.070477 -0.230269
1.067908 -0.085819 -0.184026
1.033636 -0.094823 -0.288610
1.036538 -0.081440 -0.270455
1.031457 -0.072608 -0.270196
1.069932 -0.084728 -0.195267
1.039011 -0.091672 -0.290613
1.044445 -0.077033 -0.262833
1.047642 -0.064680 -0.233953
1.087053 -0.074213 -0.149159
1.052084 -0.084207 -0.263883
1.047032 -0.075289 -0.274247
1.041948 -0.066459 -0.273988
1.079286 -0.079246 -0.198596
1.049807 -0.085345 -0.294455
1.054823 -0.070952 -0.266468
1.057585 -0.058853 -0.237437
1.095711 -0.069140 -0.152145
1.064893 -0.076768 -0.257857
1.067384 -0.064275 -0.239349
1.052496 -0.060280 -0.277566
1.086417 -0.075166 -0.211368
1.058316 -0.080296 -0.307711
1.065255 -0.064842 -0.269893
1.067581 -0.052999 -0.240718
1.104414 -0.064044 -0.154954
1.072922 -0.072002 -0.270838
1.077407 -0.058406 -0.242530
1.077347 -0.048057 -0.222959
1.098142 -0.068204 -0.204684
1.069369 -0.073825 -0.311159
1.084668 -0.054382 -0.234357
1.086834 -0.043279 -0.205062
1.113160 -0.058925 -0.157588
1.077041 -0.069399 -0.303099
1.087477 -0.052513 -0.245508
1.069292 -0.049672 -0.303492
1.107637 -0.062648 -0.207441
1.082527 -0.066189 -0.304662
1.094615 -0.048562 -0.237191
1.096341 -0.037717 -0.207771
1.121944 -0.053786 -0.160044
1.101879 -0.055312 -0.237983
1.097592 -0.046596 -0.248282
1.090697 -0.039086 -0.257780
1.109833 -0.061758 -0.249045
1.093533 -0.059752 -0.307622
1.104605 -0.042721 -0.239824
1.097852 -0.035288 -0.249344
1.130766 -0.048629 -0.162322
1.111878 -0.049466 -0.240566
1.107749 -0.040658 -0.250851
1.100999 -0.033063 -0.260386
1.125062 -0.052559 -0.222173
1.102825 -0.054258 -0.320155
1.107467 -0.040151 -0.281470
1.108026 -0.029342 -0.251810
1.139621 -0.043453 -0.164422
1.121917 -0.043599 -0.242946
1.117944 -0.034701 -0.253215
1.116702 -0.025043 -0.233332
1.140981 -0.042859 -0.185064
1.120507 -0.044175 -0.283381
1.118124 -0.033926 -0.283828
1.126805 -0.020298 -0.204906
1.148508 -0.038262 -0.166342
1.127381 -0.040222 -0.274660
1.128175 -0.028726 -0.255372
1.121717 -0.020960 -0.264971
1.144612 -0.041139 -0.226397
1.126805 -0.040313 -0.315159
1.134798 -0.025083 -0.246506
1.128483 -0.017395 -0.256123
1.157424 -0.033057 -0.168082
1.137934 -0.034062 -0.276720
1.137017 -0.023342 -0.267201
1.127655 -0.016341 -0.296577
1.155677 -0.034580 -0.218325
1.141908 -0.031681 -0.287558
1.144926 -0.019172 -0.248325
1.138758 -0.011398 -0.257969
1.166366 -0.027840 -0.169642
1.152233 -0.025900 -0.248863
1.148730 -0.016731 -0.259064
1.138541 -0.009989 -0.298420
1.169752 -0.025966 -0.180266
1.153819 -0.024793 -0.279409
1.155082 -0.013248 -0.249940
1.149062 -0.005388 -0.259607
1.183482 -0.017048 -0.091632
1.166752 -0.017674 -0.210731
1.154560 -0.012443 -0.300307
1.149455 -0.003624 -0.300043
1.177933 -0.021297 -0.191510
1.164442 -0.018599 -0.280933
1.165262 -0.007312 -0.251349
1.159389 0.000634 -0.261036
1.184316 -0.017373 -0.172218
1.172581 -0.014036 -0.251784
1.173277 -0.003306 -0.222136
1.160393 0.002751 -0.301445
1.187228 -0.015880 -0.192654
1.174223 -0.012839 -0.292196
1.179052 -0.000163 -0.212732
1.173607 0.007386 -0.222451
1.193320 -0.012127 -0.173234
1.180418 -0.009289 -0.282818
1.183037 0.002380 -0.223188
1.174028 0.009546 -0.272748
1.194607 -0.011886 -0.223513
1.185039 -0.006538 -0.293306
1.185682 0.004584 -0.253549
1.180106 0.012702 -0.263268
1.204044 -0.005576 -0.144145
1.193648 -0.001823 -0.243906
1.190126 0.007392 -0.263946
1.184553 0.015675 -0.273668
1.206358 -0.004637 -0.184397
1.195871 -0.000232 -0.294198
1.195916 0.010542 -0.254339
1.193153 0.018768 -0.224159
1.211369 -0.001618 -0.174720
1.201781 0.003148 -0.284576
1.202600 0.013769 -0.224699
1.196865 0.021693 -0.244427
1.215545 0.000709 -0.184967
1.206716 0.006080 -0.294871
1.206161 0.016503 -0.254923
1.202944 0.024465 -0.224717
1.220409 0.003641 -0.175189
1.213494 0.009785 -0.255151
1.209436 0.019512 -0.305103
1.205642 0.027945 -0.274869
1.223971 0.005202 -0.225335
1.216521 0.012020 -0.335309
1.216415 0.022467 -0.255300
1.212744 0.030164 -0.225077
1.229456 0.008902 -0.175476
1.223188 0.015600 -0.285471
1.220447 0.025914 -0.305396
1.216198 0.034084 -0.275150
1.233774 0.010901 -0.225546
1.228433 0.018708 -0.295559
1.226674 0.028430 -0.255469
1.221692 0.036895 -0.265216
1.238507 0.014163 -0.175580
1.234045 0.021674 -0.245594
1.231462 0.032316 -0.305467
1.226342 0.041126 -0.305201
1.243581 0.016600 -0.225560
1.239415 0.025268 -0.325573
1.236935 0.034392 -0.255432
1.232102 0.042943 -0.265178
1.247560 0.019422 -0.175501
1.244730 0.028177 -0.295499
1.241819 0.036567 -0.225347
1.237356 0.047523 -0.305050
1.252606 0.022149 -0.195386
1.249972 0.031162 -0.285373
1.247196 0.040351 -0.255187
1.242512 0.048989 -0.264930
1.256611 0.024678 -0.175240
1.255593 0.034485 -0.295185
1.253491 0.045109 -0.304942
1.248367 0.053916 -0.304676
1.263191 0.027987 -0.224993
1.261023 0.037637 -0.294946
1.257452 0.046305 -0.254736
1.252917 0.055028 -0.264472
1.265658 0.029929 -0.174795
1.267701 0.041691 -0.324613
1.264498 0.051497 -0.304346
1.258431 0.058610 -0.274143
1.272988 0.033672 -0.224414
1.271386 0.043591 -0.284322
1.267702 0.052251 -0.254077
1.261759 0.058629 -0.223908
1.274697 0.035173 -0.174169
1.277301 0.047082 -0.293900
1.273358 0.055752 -0.263642
1.268975 0.064726 -0.273359
1.283489 0.039660 -0.233606
1.285292 0.051954 -0.333322
1.277941 0.058189 -0.253212
1.273703 0.067085 -0.262926
1.283728 0.040409 -0.173360
1.285269 0.051463 -0.253078
1.283741 0.061772 -0.262659
1.281351 0.073048 -0.302223
1.286512 0.042226 -0.152978
1.292760 0.055984 -0.282407
1.288167 0.064116 -0.252140
1.284077 0.073098 -0.261839
1.292745 0.045635 -0.172369
1.295491 0.057387 -0.251955
1.297451 0.070601 -0.301227
1.292318 0.079403 -0.300963
1.306366 0.052613 -0.261236
1.310969 0.067014 -0.360623
1.298376 0.070030 -0.250863
1.294434 0.079098 -0.260543
1.301748 0.050850 -0.171197
1.308750 0.065248 -0.280406
1.304459 0.073775 -0.260066
1.303266 0.085744 -0.299481
1.313220 0.056886 -0.230036
1.318441 0.071100 -0.319295
1.308566 0.075931 -0.249379
1.304772 0.085084 -0.259038
1.310732 0.056051 -0.169843
1.320551 0.072141 -0.288708
1.319328 0.083269 -0.298042
1.310997 0.089071 -0.268100
1.323092 0.062600 -0.228447
1.329662 0.077595 -0.317489
1.318733 0.081815 -0.247690
1.315087 0.091054 -0.257324
1.319696 0.061238 -0.168308
1.326041 0.075075 -0.247351
1.319954 0.081855 -0.217159
1.325090 0.098375 -0.295856
1.325631 0.064571 -0.177337
1.335287 0.080606 -0.275998
1.328874 0.087681 -0.245797
1.325375 0.097005 -0.255404
1.328636 0.066409 -0.166592
1.346439 0.087300 -0.314357
1.335368 0.091659 -0.254614
1.335960 0.104661 -0.293714
1.341149 0.073145 -0.214839
1.347394 0.087668 -0.283696
1.338987 0.093528 -0.243699
1.335634 0.102937 -0.253276
1.337550 0.071563 -0.164697
1.351125 0.089763 -0.272713
1.345613 0.097581 -0.252383
1.346797 0.110925 -0.291353
1.357826 0.082385 -0.251894
1.369899 0.101107 -0.349924
1.349067 0.099353 -0.241398
1.345861 0.108847 -0.250941
1.353767 0.080536 -0.201757
1.363404 0.096920 -0.280042
1.362743 0.108371 -0.289037
1.357598 0.117166 -0.288774
1.368027 0.088277 -0.249405
1.381580 0.107855 -0.347074
1.359113 0.105155 -0.238894
1.356052 0.114733 -0.248401
1.347368 0.077630 -0.121384
1.364477 0.097228 -0.228605
1.373507 0.114586 -0.286240
1.368360 0.123380 -0.285978
1.378189 0.094145 -0.246711
1.387265 0.110949 -0.314810
1.376923 0.116334 -0.275046
1.373725 0.126477 -0.284499
1.364109 0.086901 -0.157937
1.390789 0.112919 -0.303536
1.376132 0.115204 -0.244453
1.379080 0.129567 -0.282966
1.388311 0.099986 -0.243812
1.398416 0.117384 -0.311617
1.387475 0.122422 -0.271968
1.376315 0.126428 -0.242706
1.391081 0.101681 -0.232625
1.401769 0.119254 -0.300274
1.394905 0.126933 -0.279998
1.389753 0.135724 -0.279738
1.398388 0.105798 -0.240710
1.416349 0.127919 -0.337118
1.389008 0.122405 -0.230173
1.386381 0.132233 -0.239553
1.381634 0.097009 -0.152543
1.412700 0.125557 -0.296791
1.405531 0.133059 -0.276555
1.400378 0.141849 -0.276295
1.400942 0.107560 -0.208632
1.420568 0.130157 -0.304559
1.408437 0.134508 -0.265176
1.407989 0.146623 -0.284068
1.403157 0.108932 -0.197413
1.416093 0.127317 -0.264390
1.416106 0.139153 -0.272898
1.410950 0.147941 -0.272639
1.415762 0.115907 -0.224359
1.431563 0.136492 -0.300696
1.418839 0.140500 -0.261465
1.418678 0.152781 -0.280254
1.396281 0.105544 -0.136931
1.413286 0.125372 -0.213055
1.426625 0.145211 -0.269029
1.421467 0.153998 -0.268771
1.417203 0.117022 -0.192246
1.442499 0.142789 -0.296613
1.429186 0.146457 -0.257544
1.429310 0.158902 -0.276225
1.430416 0.124344 -0.218806
1.436813 0.139249 -0.256653
1.437085 0.151232 -0.264949
1.442635 0.167739 -0.302449
1.438196 0.128728 -0.226288
1.453373 0.149048 -0.292310
1.439472 0.152377 -0.253416
1.437131 0.163014 -0.262572
1.434125 0.126666 -0.196058
1.447085 0.145159 -0.252473
1.447483 0.157214 -0.260658
1.453601 0.174048 -0.297925
1.448008 0.134372 -0.222184
1.473171 0.160640 -0.315902
1.449697 0.158257 -0.249081
1.447495 0.168975 -0.258178
1.424661 0.121779 -0.135998
1.466494 0.156526 -0.276107
1.457816 0.163155 -0.256159
1.458575 0.176127 -0.274541
1.448136 0.134722 -0.189957
1.487473 0.168931 -0.320285
1.459855 0.164097 -0.244541
1.460825 0.177028 -0.262864
1.449498 0.135596 -0.178554
1.477058 0.162598 -0.271325
1.468081 0.169054 -0.251453
1.462916 0.177837 -0.251198
1.470789 0.147373 -0.222629
1.485591 0.167570 -0.278097
1.482916 0.178270 -0.276697
1.471193 0.182984 -0.257989
1.468841 0.146435 -0.201855
1.487550 0.168624 -0.266330
1.478275 0.174909 -0.246540
1.473107 0.183691 -0.246286
1.466597 0.145326 -0.181170
1.509854 0.181787 -0.309631
1.493490 0.184341 -0.271476
1.494731 0.198072 -0.289518
1.478282 0.151855 -0.197137
1.501452 0.176677 -0.270266
1.505650 0.191786 -0.287028
1.510267 0.208170 -0.314109
1.486602 0.156541 -0.203812
1.520923 0.188140 -0.303968
1.503985 0.190364 -0.266043
1.515848 0.211372 -0.311187
1.491347 0.159263 -0.201298
1.526425 0.191296 -0.301053
1.516379 0.197941 -0.281344
1.521407 0.214561 -0.308208
1.499835 0.164044 -0.207768
1.528213 0.192248 -0.289052
1.529026 0.205663 -0.296442
1.526943 0.217736 -0.305173
1.500780 0.164672 -0.196128
1.522319 0.188646 -0.259085
1.527023 0.204043 -0.275445
1.517840 0.210932 -0.266208
1.505467 0.167358 -0.193473
1.523653 0.189336 -0.247204
1.524725 0.202254 -0.254548
1.537948 0.224043 -0.298938
1.510134 0.170032 -0.190770
1.548212 0.203785 -0.288843
1.533716 0.207642 -0.260439
1.532047 0.219469 -0.269066
1.534949 0.183823 -0.232398
1.553601 0.206872 -0.285655
1.534964 0.208119 -0.248490
1.548858 0.230292 -0.292482
1.535810 0.184400 -0.220564
1.542840 0.200402 -0.247071
1.560022 0.223657 -0.289448
1.554277 0.233395 -0.289172
1.524013 0.177980 -0.182381
1.560208 0.210577 -0.270321
1.545111 0.213928 -0.242226
1.559671 0.236482 -0.285807
1.558233 0.196986 -0.240756
1.569622 0.216043 -0.275765
1.554277 0.219412 -0.247747
1.552870 0.231389 -0.256212
1.554659 0.195104 -0.220104
1.587604 0.226568 -0.298490
1.555163 0.219678 -0.235759
1.570382 0.242610 -0.278917
1.550797 0.193057 -0.199575
1.580178 0.222081 -0.268905
1.581448 0.235914 -0.275664
1.575699 0.245650 -0.275391
1.577667 0.208019 -0.239529
1.615950 0.243098 -0.325752
1.582415 0.236225 -0.263486
1.580989 0.248674 -0.271812
1.578187 0.208395 -0.227523
1.590630 0.228055 -0.261833
1.592004 0.241947 -0.268451
1.586253 0.251681 -0.268179
1.573990 0.206154 -0.207025
1.609291 0.238965 -0.283817
1.574971 0.230999 -0.222225
1.591489 0.254672 -0.264495
1.588013 0.214008 -0.220608
1.619200 0.244707 -0.288501
1.602450 0.247913 -0.261028
1.596697 0.257647 -0.260757
1.597576 0.219392 -0.225518
1.624588 0.247783 -0.284597
1.603050 0.248010 -0.248822
1.601878 0.260604 -0.256967
1.583473 0.211645 -0.188317
1.648684 0.261876 -0.314212
1.612785 0.253812 -0.253395
1.607030 0.263544 -0.253126
1.607371 0.224981 -0.218214
1.649518 0.262266 -0.301664
1.650873 0.277270 -0.307739
1.630705 0.278681 -0.282498
1.626867 0.235879 -0.239380
1.659817 0.268227 -0.305752
1.642092 0.271518 -0.278640
1.640751 0.284819 -0.286627
1.617055 0.230503 -0.210715
1.665336 0.271374 -0.301438
1.642573 0.271542 -0.266224
1.641365 0.284758 -0.274166
1.636870 0.241581 -0.231488
1.670823 0.274501 -0.297068
1.652691 0.277558 -0.270199
1.651473 0.290929 -0.278089
1.591157 0.216244 -0.145984
1.636294 0.254109 -0.227459
1.652984 0.277474 -0.257778
1.651898 0.290760 -0.265621
1.626240 0.235806 -0.191006
1.681697 0.280695 -0.288165
1.658142 0.280411 -0.253477
1.667014 0.300193 -0.277403
1.651650 0.249999 -0.219276
1.687084 0.283762 -0.283632
1.663268 0.283329 -0.249124
1.657292 0.293417 -0.248851
1.619761 0.232323 -0.159150
1.692437 0.286808 -0.279045
1.673502 0.289406 -0.252686
1.672525 0.302914 -0.260373
1.661349 0.255517 -0.210889
1.697755 0.289833 -0.274405
1.694228 0.301961 -0.271916
1.672574 0.302526 -0.247903
1.666151 0.258248 -0.206623
1.718944 0.302169 -0.293374
1.704756 0.308203 -0.275055
1.698421 0.318890 -0.274768
1.654629 0.251890 -0.178807
1.708286 0.295821 -0.264965
1.704724 0.307927 -0.262423
1.703710 0.321896 -0.269942
1.675659 0.263651 -0.197947
1.713499 0.298782 -0.260166
1.715299 0.314193 -0.265348
1.708962 0.324880 -0.265063
1.708107 0.281774 -0.232158
1.718675 0.301722 -0.255314
1.736832 0.327202 -0.283499
1.735648 0.341717 -0.290897
1.707464 0.281469 -0.219755
1.723815 0.304640 -0.250412
1.720198 0.316714 -0.247792
1.730208 0.337784 -0.270418
1.740659 0.300013 -0.253087
1.773686 0.333756 -0.306353
1.725282 0.319599 -0.242812
1.740948 0.344301 -0.272848
1.671387 0.261464 -0.149807
1.728330 0.307099 -0.232897
1.758389 0.339696 -0.275405
1.740683 0.343726 -0.260068
1.727746 0.292917 -0.212922
1.778986 0.336659 -0.287879
1.758014 0.339218 -0.262568
1.757057 0.353861 -0.269743
1.750075 0.305408 -0.230311
1.784373 0.339712 -0.282367
1.768936 0.345674 -0.264613
1.767963 0.360468 -0.271727
1.778596 0.321353 -0.254681
1.818837 0.359773 -0.313706
1.768367 0.345083 -0.251788
1.767520 0.359788 -0.258847
1.759937 0.310994 -0.219951
1.800902 0.349181 -0.278503
1.802669 0.365852 -0.282772
1.778456 0.366410 -0.260608
1.794829 0.330492 -0.251010
1.829958 0.366068 -0.301820
1.802126 0.365274 -0.269723
1.777819 0.365617 -0.247743
1.769643 0.316486 -0.209395
1.787532 0.341171 -0.238178
1.813325 0.371881 -0.271081
1.812284 0.387278 -0.277948
1.805003 0.336246 -0.239752
1.840899 0.372257 -0.289712
1.812586 0.371188 -0.258047
1.811670 0.386496 -0.264857
1.797691 0.332204 -0.219887
1.840203 0.371748 -0.276497
1.823805 0.377804 -0.259178
1.828854 0.397079 -0.272969
1.839889 0.355781 -0.256364
1.876265 0.392704 -0.305458
1.822870 0.376997 -0.246163
1.816021 0.388516 -0.245870
1.813668 0.341185 -0.215531
1.850761 0.377711 -0.264188
1.852589 0.394893 -0.267834
1.888083 0.434036 -0.315964
1.856468 0.365099 -0.251097
1.906032 0.409866 -0.313095
1.832973 0.382699 -0.234075
1.850692 0.409846 -0.261209
1.848820 0.360861 -0.231218
1.867444 0.387244 -0.258500
1.863019 0.400776 -0.255137
1.849688 0.408836 -0.248043
1.866641 0.370835 -0.238606
1.917141 0.416130 -0.299454
1.893430 0.419057 -0.275635
1.861024 0.415671 -0.248410
1.858693 0.366426 -0.218882
1.903380 0.407999 -0.272449
1.898728 0.422041 -0.268898
1.910194 0.446500 -0.288577
1.915818 0.398337 -0.265727
1.953897 0.437343 -0.312134
1.878303 0.409385 -0.235705
1.871163 0.421380 -0.235407
1.921039 0.401276 -0.258913
1.965984 0.444276 -0.311429
1.909173 0.427920 -0.255267
1.914541 0.448496 -0.268024
1.926209 0.404184 -0.252047
1.964990 0.443584 -0.297530
1.940389 0.446648 -0.274250
1.913337 0.447366 -0.254533
1.931327 0.407061 -0.245129
1.950616 0.435101 -0.270833
1.919412 0.433675 -0.241429
1.950955 0.470786 -0.279519
1.916203 0.398635 -0.219048
1.982523 0.453574 -0.289076
1.924453 0.436507 -0.234434
1.923567 0.453113 -0.240462
1.948186 0.416508 -0.237444
1.940958 0.429263 -0.237396
1.956094 0.455468 -0.252457
1.968153 0.480901 -0.270935
1.988062 0.474611 -0.269885
1.926945 0.454547 -0.219992
1.993319 0.477558 -0.262191
2.005374 0.503628 -0.280250
1.998518 0.480471 -0.254445
1.997246 0.498140 -0.260181
2.031060 0.499929 -0.270612
2.015989 0.509573 -0.264292
2.043219 0.507044 -0.268405
2.028031 0.516783 -0.262153
2.062347 0.518369 -0.271854
2.019495 0.511060 -0.242277
2.045285 0.526903 -0.251519
2.072831 0.524224 -0.254909
1.848661 0.403191 -0.077701
2.062466 0.536973 -0.240393
1.757626 0.345634 0.012842
1.438010 0.140611 0.272679
1.414627 0.130590 0.289003
1.410204 0.123802 0.296118
1.401319 0.122197 0.301525
1.411176 0.124342 0.297892
1.452706 0.154245 0.266348
1.382857 0.107248 0.320463
1.366929 0.100592 0.330905
1.354209 0.089970 0.342446
1.396788 0.119178 0.311773
1.421410 0.130365 0.298227
1.404968 0.124221 0.308382
1.466982 0.157722 0.270287
1.450034 0.152255 0.280306
1.458529 0.157471 0.277614