# This PCD file was generated using the MATLAB® pcwrite function
# from Computer Vision System Toolbox®.
# .PCD v.7 - Point Cloud Data file format
VERSION .7
FIELDS x y z
SIZE 4 4 4
TYPE F F F
COUNT 1 1 1
WIDTH 794
HEIGHT 1
VIEWPOINT 0 0 0 1 0 0 0
POINTS 794
DATA ascii
28.859104 2.473966 3.914091
27.598839 2.354502 4.036901
27.232439 2.332409 4.023327
26.827097 2.292571 4.068577
26.429932 2.254095 4.110806
26.097027 2.241165 4.070757
25.698343 2.198322 4.129778
25.263935 2.137464 4.249563
24.946793 2.126681 4.205622
23.895924 2.040483 4.257589
23.592382 2.480872 4.276093
23.573025 2.021525 4.244297
23.209759 2.427783 4.364187
23.210974 1.982027 4.300682
22.854872 2.386818 4.415325
22.895954 1.963931 4.286289
22.536386 2.363312 4.412163
22.572229 1.940114 4.291945
22.180758 2.318074 4.479357
22.254717 1.918010 4.292662
21.860701 2.290380 4.491684
24.670860 3.853252 -0.514606
21.919559 1.885183 4.330538
21.528187 2.254035 4.532789
24.260117 3.801591 -0.438730
21.586342 1.851565 4.372084
23.920757 3.788525 -0.485699
21.241369 1.809662 4.442858
23.496635 3.724465 -0.367146
20.930386 1.784509 4.457495
23.137869 3.696483 -0.363806
20.607567 1.751099 4.501223
22.806547 3.683576 -0.408442
20.312757 1.732045 4.496538
22.471495 3.667244 -0.441204
20.023247 1.714831 4.486158
22.476501 3.164139 -0.508192
22.103733 3.628863 -0.401178
19.696955 1.674232 4.557188
22.109045 3.128425 -0.467226
21.803572 3.632264 -0.496880
19.405890 1.653130 4.561684
21.797016 3.124754 -0.536278
21.474789 3.616292 -0.528584
21.436634 3.089972 -0.496897
19.039650 1.244112 4.380810
21.138781 3.594232 -0.539522
21.038698 3.029027 -0.365484
18.738750 1.215961 4.419331
18.774473 0.820798 4.297676
20.842375 3.598151 -0.635456
20.744932 3.033239 -0.460165
18.439533 1.187144 4.460953
18.509542 0.814590 4.259201
20.450928 3.534455 -0.507208
20.412725 3.011345 -0.463274
18.142029 1.157671 4.505653
20.246038 2.506542 -0.505705
18.229815 0.798688 4.259129
20.066671 3.472604 -0.383593
20.118677 3.014163 -0.552448
17.860973 1.137196 4.517479
19.934420 2.497329 -0.548136
17.951019 0.782164 4.261787
19.674938 3.401888 -0.229040
19.791483 2.993371 -0.558363
17.591833 1.123345 4.505035
19.579979 2.458444 -0.479509
17.698406 0.780974 4.203844
19.364908 3.389435 -0.267315
19.465269 2.971855 -0.561127
19.241896 2.428468 -0.443422
17.375202 0.733588 4.329704
19.027605 3.354784 -0.230785
19.046537 2.880684 -0.317026
18.950121 2.429210 -0.521955
17.082657 0.703802 4.386189
18.732483 3.351689 -0.299160
18.724586 2.857677 -0.312702
18.627783 2.407496 -0.515980
16.791973 0.673398 4.445641
18.410799 3.326389 -0.292511
18.400419 2.831412 -0.296204
18.332687 2.404467 -0.579998
16.516285 0.651533 4.471365
18.103064 3.311167 -0.319101
18.077530 2.804450 -0.276575
17.976870 2.354701 -0.467295
16.225893 0.617635 4.545752
18.014450 1.899628 -0.603767
17.786425 3.287181 -0.315535
17.771626 2.789599 -0.299557
17.620920 2.301784 -0.341730
15.978060 0.612920 4.503176
17.707890 1.886625 -0.625074
17.476877 3.267909 -0.327244
17.457077 2.766393 -0.292208
17.289288 2.265150 -0.277008
15.724163 0.603069 4.481310
17.392767 1.866076 -0.615814
17.170992 3.250664 -0.345249
17.152470 2.750206 -0.309492
16.974390 2.239978 -0.255245
17.055130 1.826509 -0.529373
16.845526 3.213860 -0.296129
16.825338 2.712840 -0.250187
16.683571 2.233585 -0.304667
16.717043 1.783964 -0.430265
16.549755 3.203388 -0.336000
16.530968 2.703023 -0.289438
16.370531 2.207099 -0.277153
16.381565 1.740746 -0.327780
16.245970 3.184163 -0.345526
16.242153 2.697696 -0.344622
16.058798 2.179963 -0.246691
16.067595 1.712938 -0.287420
15.955956 3.177795 -0.398598
15.939970 2.678892 -0.350794
15.769218 2.171636 -0.288050
15.757738 1.686780 -0.253460
15.640350 3.143767 -0.356274
15.628254 2.649176 -0.316931
15.479652 2.162674 -0.326862
15.469458 1.678358 -0.291784
15.348402 3.133413 -0.394758
15.337646 2.639360 -0.354900
15.182827 2.145785 -0.334967
15.171450 1.660121 -0.289894
15.061245 3.127827 -0.449343
15.056616 2.639179 -0.427788
14.872476 2.113674 -0.283937
14.855324 1.622887 -0.209761
14.760087 3.105396 -0.445339
14.749706 2.610126 -0.395033
14.584117 2.102826 -0.314880
14.568597 1.612589 -0.240170
14.466312 3.090438 -0.466734
14.459568 2.598417 -0.425304
14.289332 2.084063 -0.314947
14.281982 1.601672 -0.268068
14.200369 3.109962 -0.607639
14.169552 2.586082 -0.453033
13.999381 2.069544 -0.331320
14.003921 1.599318 -0.331476
13.889814 3.072142 -0.548813
13.861292 2.550035 -0.393208
13.703732 2.047121 -0.316669
13.709196 1.577990 -0.316353
13.608235 3.071497 -0.619125
13.580183 2.546721 -0.453569
13.424339 2.043518 -0.375429
13.415339 1.556058 -0.298584
13.301771 3.035150 -0.564260
13.298583 2.542779 -0.511551
13.137115 2.029585 -0.393724
13.137146 1.551859 -0.354641
13.009327 3.017078 -0.572830
13.016512 2.538213 -0.567152
12.851871 2.017467 -0.419058
12.844412 1.528722 -0.331753
12.713905 2.993001 -0.559877
12.720385 2.512539 -0.544235
12.565041 2.002316 -0.432371
12.566019 1.523301 -0.382971
12.419257 2.968323 -0.544308
12.431664 2.496503 -0.556807
12.284808 1.996248 -0.481482
12.274501 1.498973 -0.354996
12.116286 2.926900 -0.469070
12.130992 2.459407 -0.490499
12.008669 1.996823 -0.556976
11.997499 1.494622 -0.410995
11.839542 2.930619 -0.552988
11.856533 2.465163 -0.583986
11.716146 1.970170 -0.524574
11.707204 1.469114 -0.377975
11.550966 2.912207 -0.558319
11.563216 2.437101 -0.550770
11.435236 1.962261 -0.566492
11.428590 1.461270 -0.419548
11.267786 2.903929 -0.599350
11.281102 2.428854 -0.591648
11.144110 1.934434 -0.529024
11.144673 1.443707 -0.420130
10.974888 2.873580 -0.561487
10.992752 2.407256 -0.582148
10.863257 1.925317 -0.566084
10.875042 1.452847 -0.534285
10.691784 2.864087 -0.597628
10.706068 2.387615 -0.579750
10.577869 1.905960 -0.562176
10.595173 1.443161 -0.568813
10.400392 2.832573 -0.554707
10.420815 2.369922 -0.584497
10.289986 1.878804 -0.526834
10.310120 1.421526 -0.552521
10.114708 2.813856 -0.557194
10.126589 2.326263 -0.490515
10.004854 1.855886 -0.508314
10.022998 1.392521 -0.504669
9.831799 2.802551 -0.586033
9.846109 2.317557 -0.528831
9.724386 1.844379 -0.535707
9.743539 1.381055 -0.531963
9.544973 2.777309 -0.564426
9.564499 2.305703 -0.555132
9.440858 1.822694 -0.521994
9.460986 1.359956 -0.518026
9.262102 2.764800 -0.588434
9.282701 2.293240 -0.579050
9.160366 1.809991 -0.544603
9.181504 1.347299 -0.540558
8.976794 2.741051 -0.571548
8.995548 2.257470 -0.513639
8.877552 1.787144 -0.526049
8.900217 1.327291 -0.531530
8.692038 2.716729 -0.552214
8.714715 2.246349 -0.542389
8.597122 1.773251 -0.543880
8.620711 1.313444 -0.549301
8.411005 2.713022 -0.607521
8.433184 2.232103 -0.559090
8.315109 1.749252 -0.520504
8.339588 1.290036 -0.525749
8.127949 2.698098 -0.621910
8.151551 2.217253 -0.573406
8.035952 1.743663 -0.572403
8.061391 1.283954 -0.577734
7.843274 2.664095 -0.566397
7.869841 2.201803 -0.585333
7.754478 1.718503 -0.544241
7.781415 1.266082 -0.578646
7.560689 2.647997 -0.575962
7.587930 2.183253 -0.585190
7.474082 1.702233 -0.552544
7.501336 1.243172 -0.557682
7.278024 2.628670 -0.573481
7.306049 2.159125 -0.563286
7.193740 1.694793 -0.597340
7.221840 1.226362 -0.563587
6.995435 2.614001 -0.587902
7.024611 2.139409 -0.558352
6.913236 1.667907 -0.562012
6.942341 1.208959 -0.567118
6.712935 2.593485 -0.580624
6.743712 2.111658 -0.521971
6.632829 1.649853 -0.563175
6.662859 1.190966 -0.568281
6.428483 2.598509 -0.667454
6.461059 2.113089 -0.599432
6.351495 1.640567 -0.600840
6.382486 1.181198 -0.606075
6.147657 2.558521 -0.587830
6.179412 2.094060 -0.597017
6.070839 1.621308 -0.597240
6.104353 1.151012 -0.553736
5.865180 2.538836 -0.583006
5.897456 2.076905 -0.601896
5.790264 1.601459 -0.591261
5.824731 1.133451 -0.557535
5.579459 2.536720 -0.643311
5.614015 2.066525 -0.633427
5.511803 1.571737 -0.544044
5.543558 1.121849 -0.588194
5.294325 2.526158 -0.672245
5.329992 2.055504 -0.662540
5.229446 1.559999 -0.572159
5.262393 1.107432 -0.606714
5.013838 2.494303 -0.621637
5.050544 2.024271 -0.611835
4.946539 1.547623 -0.597864
4.982855 1.085875 -0.593624
4.731252 2.472210 -0.607201
4.766119 2.012021 -0.636135
4.666158 1.525403 -0.582342
4.703484 1.063736 -0.578159
4.442253 2.470069 -0.667400
4.481993 1.996697 -0.648336
4.382565 1.511778 -0.603224
4.420936 1.049651 -0.599237
4.162998 2.436506 -0.609621
4.203863 1.963767 -0.590494
4.097551 1.499801 -0.631371
4.141616 1.026323 -0.579000
3.872689 2.433050 -0.664900
3.917748 1.952076 -0.617188
3.817020 1.475773 -0.608646
3.862525 1.002420 -0.556398
3.584490 2.421255 -0.688833
3.628859 1.944552 -0.660709
3.533412 1.457983 -0.612570
3.579283 0.986485 -0.570253
3.303888 2.391036 -0.643070
3.347158 1.919519 -0.634270
3.243577 1.450889 -0.662392
3.295622 0.969914 -0.581665
3.010091 2.388094 -0.700459
3.060750 1.903488 -0.643950
2.957788 1.434068 -0.671057
3.006470 0.961188 -0.629398
2.721766 2.371822 -0.707367
2.773959 1.886816 -0.651163
2.677104 1.407616 -0.638666
2.716254 0.951760 -0.674597
2.431653 2.357419 -0.721352
2.479702 1.881396 -0.703941
2.390937 1.389548 -0.642437
2.429336 0.935318 -0.688248
2.148613 2.329826 -0.685017
2.193291 1.861029 -0.696545
2.098278 1.379766 -0.682236
2.151112 0.905648 -0.641460
1.853134 2.321631 -0.722675
1.905144 1.842398 -0.696270
1.817646 1.351496 -0.642557
1.871825 0.877513 -0.601969
1.558365 2.310236 -0.748194
1.615027 1.825477 -0.703072
1.530567 1.331510 -0.638887
1.577603 0.867514 -0.646793
1.268137 2.290703 -0.742550
1.326236 1.805552 -0.697784
1.243228 1.310886 -0.632729
1.293003 0.844374 -0.631290
0.975807 2.272996 -0.743895
1.037200 1.784986 -0.689993
0.955655 1.289623 -0.624075
1.006462 0.822675 -0.622929
0.677251 2.262009 -0.771175
0.740197 1.773081 -0.717815
0.658017 1.278652 -0.660706
0.719706 0.800340 -0.612076
0.377818 2.250302 -0.795803
0.442313 1.760458 -0.742990
0.353170 1.273475 -0.723293
0.422528 0.787571 -0.646591
0.088107 2.225664 -0.770443
0.143571 1.747118 -0.765520
0.063920 1.250171 -0.706907
0.134987 0.763916 -0.630653
-0.203782 2.202832 -0.752022
-0.147233 1.723867 -0.747444
-0.234373 1.234854 -0.726023
-0.170428 0.755793 -0.688526
-0.507222 2.191465 -0.778196
-0.444996 1.706837 -0.755228
-0.533462 1.218817 -0.742466
-0.465815 0.736816 -0.695980
-0.818718 2.186587 -0.829866
-0.748092 1.693655 -0.779249
-0.821348 1.191376 -0.708866
-0.757036 0.713140 -0.681797
-1.109555 2.159287 -0.794144
-1.039882 1.668397 -0.753393
-1.121530 1.173947 -0.720024
-1.053438 0.692789 -0.684008
-1.415505 2.145709 -0.812122
-1.351970 1.660546 -0.800240
-1.414743 1.149447 -0.700176
-1.352948 0.673717 -0.693027
-1.709210 2.119478 -0.780569
-1.634061 1.624936 -0.731552
-1.737269 1.147443 -0.781254
-1.655794 0.655892 -0.708778
-2.024573 2.111560 -0.821074
-1.955964 1.622292 -0.800953
-2.039954 1.127786 -0.784143
-1.967643 0.643198 -0.750032
-2.316139 2.081596 -0.774874
-2.251868 1.596528 -0.773861
-2.329202 1.096986 -0.737450
-2.255555 0.612164 -0.703785
-2.659223 2.093264 -0.893272
-2.565091 1.583376 -0.800070
-2.647216 1.086287 -0.781668
-2.560585 0.592132 -0.711275
-2.951837 2.061854 -0.841560
-2.858766 1.554016 -0.758282
-2.951743 1.064444 -0.776281
-2.872318 0.575202 -0.734667
-3.274590 2.053069 -0.879671
-3.191767 1.552483 -0.834463
-3.253766 1.039819 -0.758823
-3.166780 0.545993 -0.699179
-3.579971 2.029553 -0.859442
-3.498770 1.530403 -0.824167
-3.571894 1.024673 -0.784969
-3.483251 0.529438 -0.726185
-3.914553 2.026035 -0.919138
-3.815882 1.514087 -0.838728
-3.891190 1.008700 -0.808117
-3.800893 0.512059 -0.750195
-4.241071 2.014719 -0.948101
-4.140537 1.501274 -0.868706
-4.198373 0.983842 -0.791361
-4.132888 0.501364 -0.808191
-4.565495 2.000264 -0.964809
-4.463110 1.485458 -0.886415
-4.522977 0.968256 -0.817736
-4.422646 0.465488 -0.743042
-4.901355 1.991763 -1.005760
-4.797103 1.475198 -0.928490
-4.841870 0.947833 -0.822666
-4.743211 0.445681 -0.758093
-5.199883 1.957566 -0.943565
-5.107961 1.449197 -0.903502
-5.179434 0.936480 -0.870249
-5.064827 0.425040 -0.770088
-5.516204 1.933926 -0.923975
-5.448048 1.439300 -0.948336
-5.504107 0.916331 -0.878086
-5.401982 0.410876 -0.815548
-5.844116 1.916198 -0.928495
-5.793467 1.430548 -0.998865
-5.848362 0.905095 -0.928179
-5.725930 0.388510 -0.821241
-6.142768 1.879904 -0.857944
-6.102964 1.400024 -0.955698
-6.156371 0.873504 -0.884390
-6.039463 0.359895 -0.796587
-6.498922 1.875993 -0.919119
-6.435682 1.381181 -0.963650
-6.499420 0.858521 -0.918877
-6.392148 0.348409 -0.859436
-6.845282 1.864481 -0.949896
-6.749807 1.351193 -0.923550
-6.843997 0.842585 -0.949945
-6.719191 0.323459 -0.855595
-7.177072 1.843309 -0.941639
-7.060150 1.318419 -0.871593
-7.173903 0.818098 -0.941778
-7.047094 0.297662 -0.848589
-7.526078 1.829926 -0.965616
-7.407331 1.303166 -0.896849
-7.525230 0.802180 -0.974985
-7.408706 0.285009 -0.909966
-7.755394 1.753284 -0.730072
-7.785129 1.301043 -0.980661
-7.840344 0.768430 -0.924702
-7.755620 0.264343 -0.931948
-7.819815 1.595369 -0.158829
-8.139950 1.285762 -1.007511
-8.172693 0.741364 -0.906847
-8.086853 0.235825 -0.914921
-8.005087 1.501959 0.148466
-8.457352 1.251613 -0.951611
-8.505762 0.713438 -0.885744
-8.457932 0.221821 -0.974234
-8.988985 1.791966 -1.131004
-8.774824 1.216713 -0.892721
-8.892735 0.706603 -0.966665
-8.804558 0.196542 -0.976805
-9.363668 1.781914 -1.171579
-9.141644 1.202592 -0.926786
-9.228081 0.676786 -0.938587
-9.125290 0.160241 -0.923262
-5.807073 -0.018148 6.239071
-9.991455 1.885035 -1.683960
-9.633308 1.239865 -1.191534
-9.582405 0.653305 -0.942001
-9.478241 0.134819 -0.927782
-6.058493 -0.044748 6.285784
-10.341551 1.857538 -1.654312
-10.200386 1.304213 -1.580109
-9.975266 0.643131 -1.011099
-9.832396 0.108417 -0.928692
-6.503606 0.012037 5.983395
-10.673433 1.820936 -1.586899
-10.596413 1.293530 -1.634430
-10.389490 0.638821 -1.110426
-10.168781 0.074491 -0.891361
-10.798994 1.696085 -1.149334
-10.779020 1.196188 -1.298859
-10.609037 0.561156 -0.853212
-10.563410 0.059147 -0.954081
-7.944157 0.340198 4.469650
-10.898497 1.563647 -0.678036
-10.820625 1.046224 -0.723747
-10.761595 0.460731 -0.483572
-11.038532 0.068272 -1.149706
-11.178988 1.507983 -0.528627
-10.976837 0.943975 -0.362478
-11.738075 1.231803 -1.669868
-11.152477 0.445169 -0.530294
-11.424051 0.045456 -1.177523
-11.407824 1.431925 -0.292698
-11.353720 0.925400 -0.381052
-12.081417 1.194203 -1.606083
-11.994652 0.580686 -1.325825
-11.760950 0.005736 -1.116262
-11.664354 1.367510 -0.105444
-12.246677 1.091403 -1.244686
-12.544857 0.610520 -1.604412
-12.087831 -0.037948 -1.034769
-12.089678 1.367332 -0.191023
-13.093874 1.747157 -1.806858
-12.344843 0.966949 -0.782490
-13.044168 0.619749 -1.783989
-12.513142 -0.053069 -1.109877
-12.439102 1.336622 -0.147467
-13.457716 1.713423 -1.754967
-12.520048 0.872030 -0.454107
-13.474245 0.603881 -1.840908
-12.920071 -0.075683 -1.146708
-13.875311 1.697995 -1.781792
-12.823708 0.822034 -0.332018
-13.847952 0.568514 -1.801804
-13.243662 -0.123763 -1.045889
-14.273260 1.673649 -1.771233
-13.094248 0.760731 -0.157719
-14.161507 1.112348 -1.787975
-13.788971 0.401512 -1.099216
-13.604729 -0.162117 -0.999891
-14.672516 1.648151 -1.756397
-13.406805 0.713052 -0.046661
-14.559565 1.084379 -1.774479
-13.680607 0.224741 -0.342550
-14.015734 -0.188117 -1.024233
-15.100748 1.630888 -1.777805
-13.801863 0.690818 -0.054771
-15.008715 1.070951 -1.829994
-13.821810 0.124994 0.026775
-14.317545 -0.244682 -0.880266
-11.459288 0.262113 4.050339
-15.609541 1.638381 -1.907295
-15.432341 1.047436 -1.839878
-14.358061 0.138020 -0.179411
-14.623924 -0.300420 -0.741678
-15.991402 1.601630 -1.846317
-15.834990 1.015785 -1.812843
-14.739632 0.105133 -0.153166
-15.960938 0.440616 -1.878117
-14.855297 -0.375426 -0.495035
-13.805164 0.747901 1.772242
-16.442911 1.585799 -1.876953
-16.313524 1.005001 -1.885483
-15.191587 0.089754 -0.218924
-16.491693 0.438756 -2.021820
-15.153070 -0.433662 -0.343325
-14.045630 0.682049 1.970327
-16.960749 1.588475 -1.989532
-16.882313 1.017788 -2.071815
-16.740005 0.359808 -1.768742
-15.560650 -0.465926 -0.340822
-17.452770 1.580362 -2.056484
-17.238026 0.967002 -1.958473
-17.169014 0.327643 -1.759258
-15.904737 -0.514638 -0.246302
-14.359232 0.501276 2.583408
-17.804401 1.527900 -1.929874
-12.554565 -0.474150 4.797848
-17.605354 0.918633 -1.857269
-17.647444 0.306179 -1.807873
-16.212879 -0.572417 -0.100872
-17.486441 -0.281626 -1.783241
-13.111761 0.003110 4.690029
-18.258226 1.504556 -1.931900
-18.063110 0.893737 -1.869408
-18.104210 0.277198 -1.819565
-17.899141 -0.323482 -1.741943
-18.726088 1.483284 -1.944160
-13.232439 -0.528722 4.849180
-18.535042 0.870611 -1.891769
-13.115555 -1.056941 5.077559
-18.581308 0.251168 -1.849258
-18.355659 -0.357228 -1.750652
-12.789074 -0.331353 6.003744
-19.214514 1.465701 -1.973988
-19.027666 0.850740 -1.931717
-19.023533 0.214885 -1.827034
-18.807894 -0.393740 -1.746304
-13.458788 -0.264082 5.621325
-19.630363 1.425992 -1.906605
-13.520990 -0.686603 5.397953
-19.441711 0.808752 -1.866276
-19.410799 0.164359 -1.730789
-19.224310 -0.439449 -1.690548
-15.494299 0.164333 3.621338
-20.046900 1.385095 -1.834637
-19.881687 0.771811 -1.826687
-19.798208 0.112792 -1.630421
-19.274914 -0.560544 -1.186903
-20.425783 1.332954 -1.712994
-20.195364 0.702730 -1.631100
-20.243311 0.072753 -1.593914
-19.893490 -0.567303 -1.367771
-14.762344 -0.273624 5.403811
-20.959208 1.319626 -1.766445
-20.578348 0.649778 -1.515076
-20.683199 0.029974 -1.544781
-20.323431 -0.613710 -1.314495
-21.313143 1.258544 -1.605927
-21.026291 0.610873 -1.469418
-21.222118 0.006282 -1.602345
-20.904312 -0.633215 -1.428387
-14.190851 -0.646218 6.911121
-21.725464 1.211227 -1.508022
-14.646170 -0.974727 6.257721
-21.435957 0.561677 -1.374260
-15.028721 -1.390620 5.896582
-21.711239 -0.030021 -1.594059
-21.311270 -0.687442 -1.334320
-14.728073 -0.625947 6.731676
-22.191248 1.175590 -1.463951
-22.038448 0.553938 -1.487236
-22.075636 -0.093088 -1.440453
-21.751797 -0.736867 -1.272598
-14.847242 -0.707723 7.015762
-22.658316 1.138505 -1.414429
-22.557829 0.525131 -1.497833
-22.526804 -0.140066 -1.377750
-22.488743 -0.736079 -1.527679
-15.477821 -0.670176 6.753944
-16.324675 -0.474189 5.855654
-23.397598 1.162687 -1.646881
-22.964420 0.470224 -1.379299
-22.999298 -0.184549 -1.331493
-22.960962 -0.784358 -1.482315
-15.656435 -0.739061 6.978640
-24.163658 1.188602 -1.890682
-15.283018 -1.260749 7.226889
-23.739908 0.490589 -1.643185
-16.077665 -1.601126 6.456881
-23.575878 -0.211462 -1.387177
-16.378536 -2.004119 5.994368
-23.400238 -0.839796 -1.395332
-16.909372 -0.569246 6.101284
-24.480707 1.110420 -1.657223
-16.345488 -1.148078 6.533251
-24.060274 0.414298 -1.420189
-24.086390 -0.252937 -1.364368
-23.964417 -0.876439 -1.431896
-16.793550 -0.706374 6.639109
-24.969973 1.069441 -1.596195
-24.559778 0.373183 -1.377457
-24.584703 -0.298552 -1.321201
-24.524395 -0.916152 -1.454208
-17.541239 -0.656806 6.310610
-25.425287 1.019456 -1.494541
-17.507971 -1.131895 6.194269
-25.137957 0.345412 -1.405586
-25.204165 -0.325125 -1.390923
-25.079905 -0.958886 -1.462395
-17.467115 -0.783029 6.799906
-26.029959 0.999100 -1.532448
-17.434134 -1.252579 6.684984
-25.754290 0.322323 -1.461010
-25.578482 -0.395797 -1.209755
-25.595209 -1.009888 -1.421738
-26.659082 0.980970 -1.583080
-26.223906 0.269265 -1.364075
-26.231276 -0.421503 -1.292843
-26.619944 -0.988632 -1.865330
-27.161695 0.934703 -1.503502
-26.867014 0.246043 -1.425117
-27.429632 -0.362773 -1.878548
-27.185816 -1.038221 -1.848782
-28.239664 0.998914 -1.948563
-28.014696 0.309048 -1.943649
-28.036055 -0.403845 -1.885651
-27.819208 -1.080704 -1.886162
-28.917513 0.980152 -2.005100
-28.624762 0.272233 -1.943348
-28.703775 -0.438083 -1.938477
-28.455648 -1.125463 -1.915222
-29.584120 0.956152 -2.039452
-29.274218 0.239514 -1.968315
-29.345289 -0.479162 -1.955894
-29.095030 -1.172503 -1.935925
-30.239023 0.927022 -2.051926
-29.919218 0.203240 -1.978168
-30.049303 -0.513881 -2.017456
-29.737249 -1.221829 -1.948219
-30.971823 0.908972 -2.120514
-30.716917 0.188804 -2.109692
-30.756960 -0.551206 -2.069542
-30.382204 -1.273449 -1.952042
-31.716078 0.889513 -2.185585
-31.421354 0.155857 -2.146408
-31.407549 -0.599483 -2.060516
-31.060049 -1.323739 -1.973270
-32.311836 0.841224 -2.113651
-32.075836 0.112154 -2.129009
-32.060635 -0.650065 -2.042915
-31.832312 -1.365841 -2.062408
-33.031902 0.811462 -2.134602
-32.732754 0.066141 -2.102985
-32.777615 -0.694934 -2.067230
-32.485962 -1.424762 -2.039280
-33.693321 0.768960 -2.096115
-33.492386 0.032480 -2.149574
-33.497768 -0.742435 -2.081844
-33.172844 -1.482602 -2.032650
-34.504852 0.747763 -2.165787
-34.115662 -0.023971 -2.074398
-34.314529 -0.781012 -2.160957
-33.955788 -1.532982 -2.091434
-35.304859 0.721037 -2.212036
-34.904972 -0.059685 -2.119675
-34.978519 -0.841578 -2.106236
-34.711197 -1.589553 -2.114758
-35.998150 0.674451 -2.162945
-35.674335 -0.101573 -2.135876
-35.731392 -0.894314 -2.109322
-35.430386 -1.652869 -2.097263
-36.796917 0.640798 -2.182003
-36.454899 -0.145263 -2.147503
-36.503185 -0.948017 -2.114075
-36.160122 -1.718025 -2.076019
-37.607101 0.605326 -2.195908
-37.222717 -0.193909 -2.136528
-37.197975 -1.013409 -2.048962
-36.860439 -1.788827 -2.021011
-38.372368 0.559968 -2.163651
-37.993416 -0.245378 -2.115005
-38.096184 -1.059683 -2.120899
-37.691597 -1.850482 -2.050755
-39.180767 0.517437 -2.149685
-38.774975 -0.298685 -2.088676
-38.804077 -1.129660 -2.041153
-38.493912 -1.918114 -2.045540
-39.992180 0.471910 -2.124512
-39.608131 -0.349058 -2.085884
-39.644325 -1.188984 -2.043350
-39.364441 -1.983239 -2.075161
-40.904881 0.436370 -2.155468
-40.551022 -0.390236 -2.144894
-40.619202 -1.238636 -2.124157
-40.181221 -2.056353 -2.052654
-41.821495 0.397336 -2.173458
-41.432281 -0.442484 -2.145744
-41.565701 -1.295235 -2.168556
-41.116325 -2.123461 -2.097317
-42.775055 0.358966 -2.200321
-42.383270 -0.490818 -2.178226
-42.383358 -1.367673 -2.111168
-41.997360 -2.198567 -2.089729
-43.765972 0.321008 -2.235157
-43.271515 -0.549907 -2.153515
-43.303692 -1.434238 -2.107662
-42.881592 -2.277009 -2.069618
-44.719082 0.274208 -2.229008
-44.221539 -0.606284 -2.153828
-44.294643 -1.498554 -2.133961
-43.835999 -2.354117 -2.080162
-45.785469 0.236500 -2.277687
-45.284786 -0.655322 -2.209435
-45.255749 -1.569512 -2.124695
-44.760262 -2.437157 -2.055595
-46.822449 0.190772 -2.290009
-46.293243 -0.714307 -2.212872
-46.322227 -1.636015 -2.164333
-45.713062 -2.522081 -2.033550
-47.931686 0.148522 -2.328262
-47.399250 -0.768358 -2.258446
-47.290520 -1.714595 -2.126442
-46.711681 -2.608038 -2.023705
-48.942471 0.090906 -2.289589
-48.398354 -0.836937 -2.221603
-48.399254 -1.786685 -2.155930
-47.713757 -2.697851 -1.999332
-49.913368 0.024941 -2.211369
-49.374786 -0.911622 -2.155243
-49.408695 -1.870524 -2.108902
-48.762196 -2.789122 -1.985584
-50.483875 -0.978904 -2.148937
-50.421162 -1.958230 -2.047192
-49.840130 -2.883087 -1.971386
-51.541069 -2.042924 -2.029137
-50.939037 -2.980377 -1.951099
-51.997738 -3.084041 -1.890423
-53.967640 -2.214824 -2.037678
-53.252708 -3.183076 -1.918747
-54.521000 -3.286750 -1.932850
6.885883 -5.891334 30.619455
6.886170 -5.894987 30.618565
6.856608 -5.891412 30.611231
6.875118 -5.895920 30.618542
6.928683 -5.894768 30.645857
6.919786 -5.897540 30.641058
6.872869 -5.893338 30.623779
6.854836 -5.896761 30.614864
6.862713 -5.893646 30.622065
6.881419 -5.897890 30.628944
6.870996 -5.894547 30.628128
6.852829 -5.898056 30.619522
6.870089 -5.895152 30.630316
6.888916 -5.899173 30.636915
6.906429 -5.896682 30.647112
6.925277 -5.900118 30.653687
6.877960 -5.900226 30.637390
6.876854 -5.897160 30.640415
6.895857 -5.900916 30.646574
6.913893 -5.901519 30.655447