# This PCD file was generated using the MATLAB® pcwrite function
# from Computer Vision System Toolbox®.
# .PCD v.7 - Point Cloud Data file format
VERSION .7
FIELDS x y z
SIZE 4 4 4
TYPE F F F
COUNT 1 1 1
WIDTH 1052
HEIGHT 1
VIEWPOINT 0 0 0 1 0 0 0
POINTS 1052
DATA ascii
35.197418 -7.753864 3.518419
35.373592 -8.266602 3.325438
35.232132 -7.693393 2.966431
35.486229 -8.196932 2.682364
35.246181 -7.636149 2.426569
35.440350 -8.156981 2.207634
35.214283 -7.587788 1.929455
35.433090 -8.108521 1.678497
32.404430 -8.156477 4.752787
32.412926 -8.662476 4.749489
32.055832 -8.183348 4.682425
32.077034 -8.684446 4.664309
31.651943 -8.223204 4.685463
31.635715 -8.728327 4.714241
31.262177 -8.260517 4.677908
31.270882 -8.757232 4.676397
30.874035 -8.298105 4.675049
30.858463 -8.796570 4.705496
30.487568 -8.335960 4.676863
30.496384 -8.826021 4.676579
30.126553 -8.368456 4.651608
30.135483 -8.855743 4.651876
29.737450 -8.408233 4.670444
29.315567 -8.456665 4.742149
28.982365 -8.484308 4.697895
28.700783 -8.499619 4.584160
28.390862 -8.522198 4.514139
28.081223 -8.545041 4.447409
27.842812 -9.074593 4.821718
27.744747 -8.575111 4.425356
27.602341 -9.080879 4.661354
27.457592 -8.592896 4.332113
27.253052 -9.112526 4.669903
27.064522 -8.638735 4.409231
26.868252 -9.153148 4.741159
26.757629 -8.662559 4.356359
26.648075 -9.155231 4.555557
26.368992 -8.708785 4.442179
26.302395 -9.187547 4.575220
26.043995 -8.738585 4.430521
25.983791 -9.213840 4.556177
25.720131 -8.768597 4.422409
25.696182 -9.232900 4.489161
25.397438 -8.798820 4.417833
25.374222 -9.260878 4.485348
24.998558 -8.851250 4.555059
24.995274 -9.303900 4.588921
24.722385 -8.869484 4.479986
24.753067 -9.312505 4.453403
24.441437 -8.889331 4.416342
24.472122 -9.331241 4.389927
24.142147 -8.914880 4.390556
24.154305 -9.360039 4.399496
23.825466 -8.946093 4.403109
23.856014 -9.384121 4.377193
23.680676 -9.846653 4.453133
23.623966 -10.299522 4.597973
23.527985 -8.972045 4.383667
23.562954 -9.407186 4.349110
23.424438 -9.859594 4.356087
23.351500 -10.315757 4.537399
23.248802 -8.992767 4.331738
23.266148 -9.431676 4.332916
23.145813 -9.878185 4.306065
23.044109 -10.339740 4.551029
22.952633 -9.019129 4.318260
22.965858 -9.457580 4.328720
22.816019 -9.909905 4.366447
22.716574 -10.368580 4.612825
22.640444 -9.051088 4.343687
22.658127 -9.486094 4.345591
22.543007 -9.927822 4.313328
22.445971 -10.385420 4.560963
22.329773 -9.083210 4.372433
22.343449 -9.517197 4.383738
22.265984 -9.947029 4.271891
22.154816 -10.407126 4.557007
22.085625 -9.093983 4.259853
22.099730 -9.527951 4.271357
21.973083 -9.970708 4.269493
21.901112 -10.420675 4.474180
21.796726 -9.119770 4.249222
21.827099 -9.547387 4.224718
21.697006 -9.990320 4.233604
21.627068 -10.439079 4.439314
21.516445 -9.143067 4.223282
21.531162 -9.574228 4.235449
21.421286 -10.010136 4.200396
21.384556 -10.450334 4.333807
21.225227 -9.170561 4.227531
21.244059 -9.598846 4.230890
21.130722 -10.034371 4.206617
21.137333 -10.462763 4.239609
20.935041 -9.198225 4.234728
20.969091 -9.620070 4.201633
20.856110 -10.054573 4.178892
20.863243 -10.481825 4.212219
20.675198 -9.215452 4.171164
20.705559 -9.637930 4.147366
20.581928 -10.074970 4.153818
20.604206 -10.497452 4.150423
20.415154 -9.232907 4.109995
20.449169 -9.653642 4.077040
20.318892 -10.092434 4.103540
20.330685 -10.516917 4.128197
20.126940 -9.261124 4.125422
20.160843 -9.680197 4.092649
20.034962 -10.116341 4.111609
20.057648 -10.536572 4.108603
19.853539 -9.284245 4.106512
19.887375 -9.702209 4.073864
19.779226 -10.132138 4.047714
19.798759 -10.552833 4.054205
19.570648 -9.311478 4.118238
19.601036 -9.729088 4.095106
19.476753 -10.162577 4.117416
19.503134 -10.579111 4.105446
19.308311 -9.331041 4.076567
19.328957 -9.751451 4.081682
19.234562 -10.174664 4.020939
19.257917 -10.592212 4.018454
19.027027 -9.358611 4.093693
19.057449 -9.773994 4.070864
18.959934 -10.197216 4.020895
18.983486 -10.613499 4.018600
18.793150 -9.366898 3.972246
18.811337 -9.787457 3.987148
18.692219 -10.217903 4.004572
18.715988 -10.633197 4.002447
18.485775 -9.406451 4.079525
18.516235 -9.819608 4.056997
18.421982 -10.239782 4.000259
18.445959 -10.653950 3.998312
18.239483 -9.420339 4.000490
18.272995 -9.832340 3.968512
18.161114 -10.258810 3.969965
18.185329 -10.672267 3.968168
17.966969 -9.446003 4.009129
17.989002 -9.861330 4.015350
17.883492 -10.284045 3.999323
17.919218 -10.692505 3.959522
17.626413 -9.503738 4.258558
17.593033 -9.937104 4.456200
17.604336 -10.310411 4.040943
17.650888 -10.713774 3.962950
17.397810 -9.510513 4.129723
17.312855 -9.967255 4.519197
17.199167 -10.384525 4.545612
17.255341 -10.776168 4.429724
17.077005 -9.561918 4.337887
17.042234 -9.994115 4.556206
17.111929 -10.339810 3.901615
17.242931 -10.715220 3.505825
16.865677 -9.560278 4.146376
16.996872 -9.921129 3.740292
17.078676 -10.270408 3.006462
17.946396 -9.927674 -0.356525
17.966743 -10.401599 -0.323524
16.816185 -9.473566 3.302187
17.764854 -9.469041 -0.352879
17.654884 -9.948158 -0.401363
17.675842 -10.421627 -0.368164
17.462589 -9.007572 -0.474674
17.480240 -9.486729 -0.425453
17.351677 -9.973737 -0.395203
17.373194 -10.446054 -0.361759
17.158569 -9.035545 -0.467651
17.183702 -9.510222 -0.447159
17.111752 -9.972445 -0.657818
17.152094 -10.440878 -0.702099
16.861820 -9.059977 -0.486866
16.933184 -9.510785 -0.669827
16.824902 -9.990849 -0.724358
16.837147 -10.469969 -0.642166
16.600748 -9.063625 -0.668343
16.639605 -9.532623 -0.706001
16.504494 -10.024801 -0.632584
16.534227 -10.495100 -0.627975
16.299160 -9.091029 -0.663071
16.325909 -9.565602 -0.642208
15.662163 -10.310490 2.047712
15.665241 -10.751493 2.172474
15.520399 -9.424566 1.779724
16.009714 -9.111275 -0.713467
15.552278 -9.859195 1.765287
16.035069 -9.586760 -0.682732
15.399061 -10.327999 1.993879
15.382614 -10.777764 2.226551
15.239700 -9.452125 1.804529
15.694379 -9.148823 -0.624744
15.290068 -9.874835 1.692545
15.742237 -9.609234 -0.710911
15.135518 -10.345747 1.942333
15.128702 -10.792156 2.136267
14.952971 -9.484679 1.871008
15.402022 -9.171909 -0.650288
14.974502 -9.922956 1.915648
15.435425 -9.640523 -0.658199
14.871552 -10.363731 1.893091
14.866755 -10.810002 2.087399
14.682772 -9.506474 1.852085
15.106421 -9.197630 -0.653656
14.696653 -9.949626 1.945910
15.133381 -9.669804 -0.622238
14.607182 -10.381950 1.846148
15.022655 -10.146631 -0.648571
14.604408 -10.828083 2.040817
14.409557 -9.530869 1.855169
14.819094 -9.217545 -0.703388
14.426107 -9.972187 1.939444
14.846684 -9.689674 -0.671860
14.334680 -10.405006 1.850691
14.725250 -10.173048 -0.628029
14.341682 -10.846395 1.996519
14.138310 -9.554242 1.850891
14.163355 -9.989653 1.886242
14.559586 -9.709798 -0.718979
14.074386 -10.420919 1.778879
14.434509 -10.195974 -0.644199
14.078596 -10.864938 1.954515
13.874385 -9.571857 1.799881
13.894441 -10.011560 1.874699
14.260830 -9.738571 -0.684841
14.143915 -10.219112 -0.657795
13.820726 -10.880631 1.875313
13.598154 -9.600355 1.839746
13.971030 -9.761234 -0.707138
13.565453 -10.443623 1.533335
13.856075 -10.240657 -0.688564
13.556636 -10.899656 1.837849
13.322991 -9.628983 1.882122
13.677526 -9.787231 -0.697277
13.275174 -10.480110 1.685623
13.569286 -10.261539 -0.726704
13.292245 -10.918907 1.802692
13.058026 -9.648378 1.848059
13.107302 -10.061935 1.696266
13.390326 -9.808254 -0.734196
13.005799 -10.502355 1.682295
13.273243 -10.289781 -0.683163
13.027575 -10.938384 1.769836
12.784374 -9.677304 1.895317
12.837872 -10.084704 1.694065
13.097509 -9.834646 -0.719166
12.738747 -10.523019 1.661531
12.986561 -10.311099 -0.716217
12.758468 -10.961061 1.778961
13.019483 -10.775005 -0.700405
12.511854 -9.706351 1.945042
12.564799 -10.111732 1.733845
12.809198 -9.857141 -0.741119
12.472573 -10.543016 1.633190
12.699619 -10.332657 -0.746769
12.501304 -10.975056 1.671350
12.733030 -10.796527 -0.730904
12.244008 -9.730913 1.957638
12.296273 -10.134845 1.736433
12.201882 -10.567586 1.656796
12.409002 -10.357934 -0.735119
12.231213 -10.998881 1.695068
12.443727 -10.820480 -0.729103
11.976645 -9.755642 1.972605
12.030470 -10.155121 1.711639
11.935721 -10.587993 1.633137
12.118864 -10.383394 -0.720905
11.969632 -11.015615 1.621758
12.157082 -10.842458 -0.754578
11.706259 -9.786219 2.039488
11.755147 -10.188598 1.818176
11.667323 -10.611187 1.641619
11.828540 -10.409894 -0.694187
11.703518 -11.036222 1.600439
11.867454 -10.867540 -0.737759
11.438504 -9.814630 2.088957
11.485065 -10.217157 1.877552
11.401684 -10.631158 1.612680
11.442131 -11.051357 1.501793
11.580180 -10.890669 -0.748257
11.171286 -9.844281 2.150726
11.218946 -10.240896 1.889648
11.131121 -10.658943 1.675611
11.175025 -11.072450 1.485075
11.290834 -10.916832 -0.716393
11.037196 -9.543554 -0.723667
11.073487 -10.007574 -0.710541
10.969069 -10.476160 -0.767944
11.006165 -10.936880 -0.771679
10.750755 -9.563259 -0.767681
10.787918 -10.026688 -0.764523
10.681882 -10.499277 -0.780899
10.717893 -10.962733 -0.744736
10.463156 -9.585440 -0.789349
10.500424 -10.049939 -0.776234
10.394610 -10.522621 -0.791344
10.431286 -10.986023 -0.755161
10.175124 -9.608955 -0.798565
10.212858 -10.073417 -0.785439
10.106617 -10.549449 -0.759426
10.144617 -11.009537 -0.763084
9.886650 -9.637048 -0.765511
9.924804 -10.100917 -0.752312
9.819592 -10.573211 -0.764854
9.858266 -11.030597 -0.808414
9.598974 -9.652332 -0.849224
9.637595 -10.121040 -0.796318
9.532512 -10.593991 -0.807648
9.571181 -11.057228 -0.771427
9.310812 -9.680839 -0.811142
9.349750 -10.142378 -0.827858
9.245508 -10.621394 -0.768200
9.284457 -11.081403 -0.771847
9.022707 -9.705239 -0.810307
9.061850 -10.166761 -0.827026
8.958677 -10.646597 -0.756145
8.997760 -11.105793 -0.769768
8.734640 -9.729856 -0.806957
8.774702 -10.194122 -0.793816
8.671527 -10.670444 -0.761528
8.711110 -11.130399 -0.765182
8.445285 -9.750483 -0.840847
8.485858 -10.215262 -0.827778
8.383203 -10.692207 -0.794289
8.423148 -11.152689 -0.797993
8.157009 -9.775558 -0.832458
8.198048 -10.240296 -0.819405
8.096048 -10.717295 -0.784683
8.136312 -11.177750 -0.788399
7.867304 -9.797735 -0.851360
7.908843 -10.262848 -0.838364
7.806885 -10.739570 -0.812401
7.849587 -11.203018 -0.776299
7.578995 -9.823254 -0.837936
7.620413 -10.287436 -0.834900
7.519632 -10.765104 -0.797768
7.560575 -11.226059 -0.801548
7.287412 -9.843876 -0.871613
7.330610 -10.310481 -0.848797
7.226903 -10.784926 -0.860203
7.271027 -11.249366 -0.824261
6.998985 -9.869846 -0.853130
7.042734 -10.336403 -0.830349
6.939293 -10.810934 -0.840508
6.984079 -11.275314 -0.804611
6.707318 -9.892001 -0.871773
6.750818 -10.358194 -0.859016
6.651883 -10.837144 -0.818306
6.697331 -11.301464 -0.782455
6.415172 -9.914421 -0.887852
6.459182 -10.381124 -0.875179
6.360841 -10.860690 -0.833305
6.407950 -11.326081 -0.787621
6.126691 -9.941061 -0.861755
6.167087 -10.404320 -0.888779
6.069351 -10.884499 -0.845734
6.117256 -11.350375 -0.800159
6.140060 -10.232817 1.836843
5.835115 -9.964956 -0.862820
6.207321 -10.681438 2.080986
6.137875 -11.130493 2.286032
6.203046 -11.562978 2.513292
5.871824 -10.254744 1.835812
5.540894 -9.987151 -0.881058
5.936805 -10.700212 2.040071
5.584000 -10.453164 -0.888424
5.858248 -11.143939 2.156879
5.930752 -11.580640 2.423363
5.252559 -10.014446 -0.847340
5.643625 -10.705227 1.833565
5.294676 -10.479606 -0.864628
5.581382 -11.160557 2.069897
5.651477 -11.596492 2.296333
4.953543 -10.034281 -0.889969
5.372527 -10.726358 1.817453
5.002775 -10.504619 -0.858032
5.309731 -11.180923 2.034855
4.902171 -10.983682 -0.849827
5.376665 -11.615463 2.221367
4.659342 -10.058231 -0.890514
5.103786 -10.749367 1.823484
4.709252 -10.529062 -0.858719
5.029791 -11.198244 1.952932
4.607481 -11.008099 -0.859180
5.097342 -11.633732 2.129171
4.364821 -10.082438 -0.888447
4.831793 -10.770996 1.812201
4.415409 -10.553761 -0.856789
4.312309 -11.032787 -0.865906
4.813018 -11.651348 2.019852
4.071639 -10.107830 -0.873936
4.583635 -10.804778 1.950890
4.113157 -10.574748 -0.901436
4.024947 -11.060997 -0.820782
4.537974 -11.672966 1.982172
3.774916 -10.131611 -0.876434
3.816607 -10.599211 -0.904022
4.183245 -11.253718 1.742474
3.725835 -11.084897 -0.841934
4.248128 -11.690862 1.868309
3.766251 -11.550476 -0.876175
3.472358 -10.152917 -0.905655
3.523223 -10.625494 -0.884342
3.916827 -11.279475 1.778967
3.424145 -11.108464 -0.870193
3.970453 -11.713153 1.835789
3.470151 -11.576632 -0.875050
3.176453 -10.178165 -0.893005
3.227905 -10.651241 -0.871845
3.631567 -11.299167 1.719841
3.121556 -11.132349 -0.895687
3.680453 -11.732830 1.746983
3.175564 -11.603539 -0.861458
2.882322 -10.204559 -0.867947
2.922563 -10.673442 -0.905586
3.366834 -11.325990 1.770958
2.826076 -11.159014 -0.879288
3.400415 -11.755777 1.719675
2.886735 -11.632124 -0.815861
2.586123 -10.230294 -0.850021
2.634637 -10.702730 -0.848682
3.150424 -11.366946 2.048920
2.520026 -11.182887 -0.909058
2.662369 -11.675434 -0.464783
2.261873 -10.244832 -0.955887
2.315217 -10.721066 -0.935387
2.232473 -11.212481 -0.848293
2.781709 -11.790611 1.419193
2.273520 -11.682054 -0.882885
1.957594 -10.268555 -0.961536
2.007116 -10.744238 -0.960693
1.918477 -11.235167 -0.901726
2.595349 -11.834540 1.828535
1.970915 -11.708654 -0.887772
1.657334 -10.294298 -0.945015
1.700366 -10.768462 -0.973434
2.326840 -11.438369 2.056734
1.605366 -11.258816 -0.942493
2.789577 -11.949209 3.803158
1.656095 -11.733337 -0.938465
2.336047 -10.668613 3.019627
1.354426 -10.319447 -0.935444
2.135781 -11.015440 2.028414
1.404805 -10.796576 -0.934925
2.120824 -11.479089 2.342024
1.307939 -11.286834 -0.912495
2.516937 -11.970367 3.755304
1.932005 -11.865035 1.399105
1.356703 -11.761436 -0.918304
1.915689 -10.638858 2.434938
1.046158 -10.343180 -0.942410
2.437440 -11.204206 4.295567
1.096991 -10.821379 -0.942085
2.202157 -11.583195 3.720795
0.990438 -11.310585 -0.957138
2.302775 -12.002054 3.942270
1.953986 -11.942620 2.587715
1.042148 -11.787243 -0.953472
2.121613 -10.817735 4.243135
1.718356 -10.686510 2.731489
0.737184 -10.367223 -0.946522
2.023652 -11.183315 3.710827
0.783358 -10.845095 -0.965683
2.141333 -11.649532 4.478760
0.687097 -11.338041 -0.940887
2.037275 -12.024922 3.928093
0.752150 -11.817568 -0.889118
1.501779 -10.726435 2.942791
0.414271 -10.387440 -0.995785
1.900277 -11.242240 4.227867
0.471351 -10.869844 -0.976707
1.890135 -11.673271 4.504452
0.386099 -11.366314 -0.912239
1.568906 -12.017179 3.184435
0.444045 -11.845227 -0.889629
0.103552 -10.412144 -0.994026
1.278512 -11.174106 2.959791
0.155801 -10.894239 -0.994396
1.696711 -11.708475 4.733990
0.051900 -11.388404 -0.996029
2.189721 -12.170861 6.309315
1.663086 -12.094556 4.464529
0.118842 -11.870808 -0.944916
-0.221889 -10.433109 -1.037170
1.527248 -11.321754 4.744911
0.943064 -11.182357 2.753508
-0.160707 -10.918978 -1.009098
-0.224802 -11.422030 -0.875431
1.976766 -12.196952 6.411720
1.470855 -12.127447 4.696112
-0.182540 -11.900295 -0.910778
0.743104 -10.810249 3.166306
-0.496503 -10.468863 -0.905518
1.306168 -11.351908 4.871460
0.695972 -11.212431 2.856438
-0.452120 -10.950005 -0.934856
-0.570214 -11.443313 -0.981705
1.791245 -12.226503 6.601931
1.154058 -12.143476 4.508320
-0.518922 -11.925483 -0.988594
-0.832233 -10.488083 -0.971317
0.461954 -11.245195 2.999557
-0.775661 -10.974036 -0.962811
0.950812 -11.781469 4.839647
-0.870102 -11.473255 -0.932083
1.515711 -12.244469 6.497860
-0.827433 -11.954836 -0.967709
-0.350399 -10.716297 1.498793
-1.166763 -10.508534 -1.024300
0.211444 -11.274112 3.087545
-1.109583 -10.996516 -1.016140
0.120755 -11.712149 3.090551
-1.209994 -11.496933 -1.003208
1.274714 -12.267212 6.510763
-1.154757 -11.982308 -1.000996
-0.195015 -10.849705 2.851486
-1.468295 -10.537906 -0.969921
0.074870 -11.325941 3.518719
-1.407490 -11.027025 -0.952484
0.930336 -11.904773 6.345299
-0.090446 -11.746983 3.295462
-1.517004 -11.526468 -0.966732
1.105989 -12.298265 6.744013
-1.461308 -12.012632 -0.964706
0.811152 -11.175938 6.613792
-1.821397 -10.555304 -1.063709
-0.248257 -11.339773 3.383345
-1.763073 -11.046509 -1.056175
0.641184 -11.920620 6.231203
-0.367069 -11.771609 3.303537
-1.846924 -11.552898 -0.993523
0.746308 -12.308595 6.411011
-1.793922 -12.040480 -1.001205
0.549030 -11.192256 6.576223
-0.405858 -11.385509 3.731743
-2.065063 -11.076982 -0.996071
-0.584229 -11.804996 3.483738
-2.161439 -11.582077 -0.969978
0.469934 -12.328825 6.336863
-2.108036 -12.070733 -0.977856
0.323001 -11.217092 6.644405
-2.460091 -10.608026 -1.034103
0.261577 -11.577298 6.352970
-2.404084 -11.101019 -1.036507
0.116587 -11.962099 6.181267
-2.510532 -11.606932 -1.037338
0.164405 -12.346884 6.190413
-0.809114 -12.254459 3.502787
-2.446394 -12.099019 -1.017311
0.142746 -11.251602 6.836098
-2.790734 -10.632656 -1.042770
-0.052872 -11.587770 6.189941
-0.164828 -11.981056 6.113428
-2.823169 -11.637246 -0.998184
-0.165238 -12.363626 5.991127
-2.754911 -12.130555 -0.969055
-0.106062 -11.271500 6.842678
-1.594643 -10.968564 2.948483
-3.136643 -10.654757 -1.085453
-0.278525 -11.614086 6.273020
-3.058323 -11.155065 -1.032520
-0.133147 -12.039400 6.869314
-3.178949 -11.662519 -1.068012
-0.292152 -12.398690 6.337194
-3.091999 -12.159911 -0.992630
-0.260737 -11.310251 7.093105
-3.469619 -10.680164 -1.087498
-0.194768 -11.689532 7.148527
-0.801199 -11.593224 5.595510
-3.408487 -11.179152 -1.081539
-0.370869 -12.063112 6.906910
-3.503900 -11.692194 -1.050484
-0.377292 -12.436275 6.776573
-1.916607 -12.311942 2.849300
-3.452274 -12.187905 -1.068665
-0.568125 -11.319126 6.955645
-3.784936 -10.709467 -1.039982
-0.501126 -11.701641 7.010439
-3.745572 -11.205969 -1.089901
-0.848052 -12.059905 6.353827
-1.940366 -11.936177 3.648657
-3.825730 -11.722620 -1.020538
-0.742612 -12.451288 6.501347
-1.823839 -12.368628 3.811716
-3.770046 -12.219839 -1.029625
-0.783526 -11.345965 7.052183
-4.214482 -10.718159 -1.266155
-0.734739 -11.725463 7.060503
-2.175986 -11.513606 3.550816
-4.064779 -11.235961 -1.048725
-0.949617 -12.099953 6.739550
-4.243521 -11.743001 -1.218285
-4.110941 -12.250408 -1.042995
-1.242674 -11.329645 6.571644
-4.470273 -10.759271 -1.064674
-0.917863 -11.756586 7.232388
-4.434587 -11.259117 -1.124142
-1.396365 -12.103085 6.297220
-4.509663 -11.780349 -1.043327
-0.820794 -12.529587 7.548275
-1.388576 -12.490788 6.203758
-4.511371 -12.277393 -1.191071
-1.512739 -11.348459 6.554956
-4.818691 -10.784100 -1.080994
-1.474286 -11.736506 6.534445
-4.743448 -11.291422 -1.048916
-1.071238 -12.184809 7.657059
-1.736102 -12.118889 6.126532
-4.833490 -11.811789 -1.003704
-1.395090 -12.532184 6.803699
-4.784392 -12.313519 -1.031887
-1.698964 -11.381612 6.732586
-5.172458 -10.808682 -1.102890
-2.382351 -11.673801 5.076893
-5.112511 -11.316027 -1.107861
-1.953714 -12.147291 6.242838
-5.210443 -11.838528 -1.079647
-1.525596 -12.564481 7.100163
-1.750967 -11.435718 7.202311
-5.507037 -10.836990 -1.075703
-1.967779 -11.784650 6.618153
-5.446630 -11.345816 -1.080982
-1.532574 -12.233538 7.761614
-2.571712 -12.139357 5.478760
-5.535942 -11.870699 -1.033283
-1.453642 -12.607798 7.834049
-5.477934 -12.377168 -1.043697
-2.018328 -11.454803 7.191334
-2.888156 -11.320784 5.317745
-5.880035 -10.859811 -1.126675
-2.206264 -11.810061 6.681686
-5.781350 -11.375945 -1.050789
-1.672343 -12.266027 8.011927
-2.511906 -12.193310 6.209164
-5.870152 -11.902438 -1.001881
-2.000734 -12.615823 7.204388
-5.820125 -12.409944 -1.030678
-2.462214 -11.448072 6.813517
-2.598206 -11.817677 6.422413
-6.142260 -11.403418 -1.071453
-2.324278 -12.255602 7.180143
-2.908738 -12.207244 5.953089
-6.230703 -11.932382 -1.021290
-1.963931 -12.655661 7.837988
-6.180326 -12.442227 -1.050320
-2.612734 -11.485793 7.060986
-6.540401 -10.920179 -1.028118
-2.569367 -11.874119 7.049223
-3.204230 -11.802688 5.736420
-3.965196 -11.717069 4.162857
-2.426991 -12.291893 7.516960
-3.183997 -12.232086 5.962528
-3.818483 -12.181958 4.659678
-1.882091 -12.696079 8.541037
-2.492939 -12.667094 7.281660
-6.528903 -12.475587 -1.039204
-2.995003 -11.490540 6.835342
-4.188641 -11.324330 4.430410
-6.913150 -10.944954 -1.058918
-2.685455 -11.912727 7.360220
-4.013397 -11.768918 4.673979
-6.859620 -11.460687 -1.083527
-2.720689 -12.312981 7.460020
-6.973966 -11.992287 -1.084530
-2.233021 -12.715542 8.345078
-3.765208 -12.647531 5.254730
-6.900640 -12.508353 -1.069302
-7.260522 -10.973867 -1.032330
-2.882607 -11.942048 7.501961
-7.220185 -11.489970 -1.083954
-3.016251 -12.334511 7.406336
-3.877195 -12.272595 5.713720
-4.065795 -12.674526 5.236990
-7.228885 -12.543484 -1.006226
-4.784268 -11.370933 4.448502
-7.649966 -10.997772 -1.081970
-3.298111 -11.949317 7.219183
-4.741333 -11.804575 4.422997
-7.595704 -11.518307 -1.107243
-3.318249 -12.356166 7.347069
-4.115524 -12.301514 5.812708
-2.828029 -12.761287 8.197109
-3.875900 -12.720876 6.172573
-7.635371 -12.575891 -1.090881
-5.123052 -11.389750 4.387188
-8.032163 -11.023401 -1.109692
-3.165046 -12.011039 7.993380
-4.986608 -11.835277 4.538076
-7.944900 -11.549830 -1.073471
-4.306266 -12.333619 6.002144
-4.184808 -12.747077 6.130484
-5.016568 -12.717306 4.557055
-8.016511 -12.609931 -1.117912
-3.973637 -11.590579 7.087502
-5.753470 -11.373816 3.793915
-8.392371 -11.052429 -1.089375
-4.388021 -11.944322 6.221157
-5.193047 -11.869604 4.725714
-8.308969 -11.580404 -1.062531
-4.637580 -12.356771 5.929277
-3.341338 -12.811931 8.229937
-4.438434 -12.775610 6.197411
-8.347135 -12.646208 -1.044014
-4.311929 -11.604994 6.985964
-8.777625 -11.079025 -1.109001
-4.458992 -11.987629 6.622232
-5.945839 -11.854919 3.916721
-8.707812 -11.608398 -1.109039
-4.874410 -12.386166 6.035145
-4.880100 -12.798605 5.925259
-8.745318 -12.680710 -1.089455
-4.652975 -11.619989 6.888418
-9.144938 -11.108358 -1.089638
-4.621776 -12.021984 6.848320
-9.069667 -11.640315 -1.081409
-6.117800 -12.359148 4.358646
-9.203757 -12.185965 -1.108101
-4.866779 -12.835475 6.478104
-5.685294 -12.812577 5.022627
-9.096587 -12.717149 -1.043308
-4.942018 -11.641592 6.890133
-9.518231 -11.137568 -1.075054
-4.866039 -12.049216 6.927914
-6.330246 -11.928465 4.369787
-9.462159 -11.670178 -1.102009
-5.181008 -12.454082 6.539198
-6.408394 -12.388728 4.408270
-9.571658 -12.220295 -1.083630
-6.044332 -12.840825 4.938618
-9.493184 -12.752806 -1.071587
-5.232069 -11.663553 6.894972
-9.887593 -11.167758 -1.047863
-5.225849 -12.067443 6.811394
-6.732406 -11.948078 4.231447
-9.821101 -11.703362 -1.057884
-6.542277 -12.426513 4.728058
-9.935445 -12.255301 -1.046638
-4.799486 -12.906826 7.602968
-6.294800 -12.872228 5.048670
-9.881532 -12.789240 -1.078190
-5.558970 -11.682179 6.842951
-10.273250 -11.196786 -1.042473
-5.419991 -12.099150 6.982536
-5.500078 -12.519899 7.003176
-6.990415 -12.448737 4.516443
-10.346242 -12.288499 -1.082989
-10.266261 -12.826282 -1.071941
-10.691430 -11.223189 -1.084042
-4.476078 -12.213807 9.025539
-6.027285 -12.100513 6.471909
-6.898866 -12.036858 5.037094
-5.519664 -12.558665 7.458241
-10.743455 -12.322984 -1.089088
-3.220585 -13.001786 11.143213
-10.678306 -12.863318 -1.104187
-4.831964 -11.854331 8.980993
-4.834386 -12.230314 8.892418
-11.006776 -11.797807 -1.072895
-4.771108 -12.629125 9.133598
-11.115796 -12.359111 -1.048347
-4.594173 -13.007334 9.334610
-5.981368 -12.984621 7.100313
-11.034343 -12.901885 -1.038296
-5.220180 -11.864805 8.810293
-5.420132 -12.232439 8.408886
-11.401486 -11.830551 -1.063496
-5.152555 -12.649534 8.971270
-6.320850 -13.012988 7.041395
-5.590737 -11.878003 8.678154
-5.344602 -12.279284 8.975838
-8.141055 -12.099225 4.631145
-5.152064 -12.685221 9.409714
-7.206031 -12.607903 6.237389
-4.141720 -13.072534 10.893848
-6.283020 -13.046503 7.574715
-6.112970 -11.879027 8.325428
-8.183639 -11.699364 5.180120
-5.753706 -12.294700 8.787600
-8.116387 -12.149013 5.185846
-12.183923 -11.898201 -1.014851
-5.497473 -12.707772 9.312325
-6.554706 -12.670470 7.710056
-12.369491 -12.465309 -1.102428
-6.967786 -13.071715 6.994186
-12.280141 -13.017914 -1.085720
-6.158292 -11.921868 8.701702
-12.524554 -11.388434 -0.788277
-6.561522 -12.287683 8.014778
-8.283353 -12.186081 5.438934
-12.632365 -11.929456 -1.067146
-6.715913 -12.702229 7.924866
-12.752017 -12.503144 -1.052784
-7.541297 -13.099753 6.606524
-12.689719 -13.057799 -1.078171
-6.130588 -11.969640 9.175961
-12.939986 -11.418797 -0.786724
-6.303605 -12.343916 8.840343
-13.038301 -11.963925 -1.048050
-8.631877 -12.679840 5.575285
-13.191796 -12.539670 -1.081474
-5.929672 -13.142803 9.439821
-8.179095 -13.128817 6.144369
-13.145865 -13.097935 -1.132050
-7.460135 -11.910101 7.688560
-13.294215 -11.454612 -0.690247
-6.340248 -12.381907 9.216175
-7.098069 -12.341057 8.123957
-13.394252 -12.001668 -0.950481
-6.498582 -12.780551 9.119947
-13.576488 -12.578462 -1.022995
-6.245656 -13.170645 9.402407
-8.369409 -13.161444 6.348232
-13.524644 -13.139110 -1.065536
-6.452779 -12.032763 9.555426
-7.337064 -11.966153 8.308628
-13.758241 -11.482474 -0.744911
-6.706147 -12.402134 9.117466
-13.698247 -12.042403 -0.775742
-6.431237 -12.816615 9.634520
-8.586398 -13.193931 6.512655
-13.950177 -13.180572 -1.060196
-7.555501 -11.995557 8.438807
-14.183936 -11.514023 -0.737293
-7.185878 -12.417567 8.869255
-14.152732 -12.075822 -0.809124
-9.381608 -12.778154 5.966854
-14.429879 -12.655313 -1.006813
-6.426592 -13.228089 9.971600
-14.330506 -13.222631 -0.985054
-8.246568 -11.991879 7.927135
-14.640817 -11.544063 -0.764992
-7.629733 -12.435975 8.684092
-9.946473 -12.327746 5.523804
-14.562221 -12.112117 -0.772583
-7.709277 -12.854006 8.707140
-14.805518 -12.695776 -0.918861
-6.612079 -13.256428 10.119003
-14.788222 -13.265171 -1.010540
-15.046006 -11.578406 -0.715248
-8.024205 -12.457670 8.576988
-14.966836 -12.149178 -0.723373
-15.169387 -12.736856 -0.810867
-6.933959 -13.285172 10.083803
-15.164268 -13.308142 -0.918427
-8.974223 -12.034277 7.832348
-15.573306 -11.605350 -0.819836
-8.397595 -12.481096 8.506821
-15.469157 -12.182631 -0.796947
-7.882396 -12.918768 9.311275
-15.599969 -12.777041 -0.786407
-15.625331 -13.351864 -0.933620
-16.036812 -11.637403 -0.830906
-15.931726 -12.218605 -0.808903
-16.050362 -12.817479 -0.780594
-16.057827 -13.396059 -0.903740
-16.440384 -11.673844 -0.758007
-16.309723 -12.258523 -0.705334
-16.508709 -12.858444 -0.777245
-16.491657 -13.440808 -0.868805
-16.976143 -11.703121 -0.844070
-16.844166 -12.293204 -0.792648
-17.000256 -12.899643 -0.807308
-16.926754 -13.486111 -0.828777
-17.477306 -11.735396 -0.876907
-17.331440 -12.330481 -0.811176
-17.462513 -12.941928 -0.792629
-9.759559 -13.449270 8.512587
-17.356739 -13.531894 -0.775906
-18.019386 -11.766378 -0.949562
-17.820972 -12.368472 -0.823689
-9.707952 -13.060869 9.066469
-17.971340 -12.984429 -0.826092
-9.227571 -13.472078 9.564821
-17.870918 -13.579233 -0.817909
-18.532379 -11.799898 -0.977177
-9.752564 -12.662659 9.293402
-18.332062 -12.406598 -0.853069
-9.738801 -13.093623 9.432241
-18.456814 -13.027901 -0.822681
-9.338174 -13.501667 9.827806
-18.310226 -13.626291 -0.761868
-10.242648 -12.266579 9.199251
-19.015221 -11.835795 -0.960537
-10.211015 -12.686722 9.158031
-18.852188 -12.445317 -0.883598
-10.517163 -13.121449 8.927143
-18.976963 -13.071869 -0.851105
-10.496919 -13.547153 8.871761
-18.868111 -13.675695 -0.836948
-10.573283 -12.292164 9.220816
-19.539421 -11.870497 -0.983040
-10.548070 -12.714913 9.171835
-19.407825 -12.483969 -0.945171
-9.462010 -13.158938 10.527937
-11.001689 -13.152449 8.779154
-9.345464 -13.556669 10.587456
-19.343590 -13.724576 -0.807056
-10.978288 -12.314895 9.164446
-20.072777 -11.905688 -1.006363
-10.846421 -12.744535 9.234571
-19.979919 -12.523193 -1.014481
-9.621842 -13.189233 10.723297
-11.016469 -13.185606 9.166666
-9.597775 -13.587976 10.677717
-19.853931 -13.774705 -0.808636
-20.601948 -11.941978 -1.015507
-11.091428 -12.775701 9.360033
-20.508320 -12.564406 -1.024467
-11.335975 -13.217880 9.212751
-20.606262 -13.208453 -0.955791
-9.849912 -13.619510 10.770761
-20.400040 -13.826235 -0.840790
-21.106289 -11.980165 -0.988605
-21.018719 -12.606824 -1.005707
-10.472836 -13.249913 10.538332
-21.143440 -13.255656 -0.964466
-9.959302 -13.648284 11.020782
-20.948853 -13.878611 -0.865879
-21.639797 -12.017977 -0.984520
-21.551533 -12.649570 -1.002415
-21.731026 -13.303759 -1.017166
-10.367251 -13.683563 10.950663
-22.203163 -12.055535 -1.002518
-22.058899 -12.693572 -0.963409
-11.266488 -13.313392 10.448792
-22.266350 -13.352609 -1.004414
-10.639562 -13.716283 11.030540
-22.075005 -13.986375 -0.916393
-22.741207 -12.094942 -0.984577
-22.651512 -12.736960 -1.004105
-11.299754 -13.344260 10.787453
-22.852673 -13.402478 -1.034878
-11.093326 -13.753805 10.927353
-22.680454 -14.042516 -0.970009
-23.309444 -12.134172 -0.988152
-23.219025 -12.781681 -1.008530
-23.371342 -13.452807 -0.986702
-11.430703 -13.789021 10.951229
-23.901428 -12.173577 -1.005440
-23.788971 -12.827254 -1.005562
-23.941338 -13.504233 -0.981178
-11.733687 -13.823733 11.014606
-23.879669 -14.157151 -1.031807
-24.474636 -12.214540 -0.993992
-24.325504 -12.874062 -0.960217
-24.542339 -13.556774 -0.996075
-24.458557 -14.215163 -1.026299
-25.050098 -12.256349 -0.975067
-24.935837 -12.920942 -0.977268
-25.146042 -13.610242 -1.002979
-25.032574 -14.273825 -1.006256
-25.656876 -12.298220 -0.976013
-25.534405 -12.968884 -0.972450
-25.781532 -13.664985 -1.029213
-25.630566 -14.334003 -0.999241
-26.266205 -12.341012 -0.968887
-26.172077 -13.017496 -0.993683
-26.331799 -13.719551 -0.965504
-26.238304 -14.395318 -0.991062
-26.937218 -12.383333 -1.007420
-26.783131 -13.067251 -0.979359
-26.994694 -13.776498 -0.995411
-26.841072 -14.457301 -0.968037
-27.551846 -12.428041 -0.983513
-27.396545 -13.117920 -0.956879
-27.638325 -13.834145 -0.996296
-27.453503 -14.520432 -0.943623
-28.168743 -12.473657 -0.951397
-28.042267 -13.169441 -0.952618
-28.284645 -13.892782 -0.988434
-28.098217 -14.585543 -0.937389
-28.908997 -12.517904 -1.015465
-28.720886 -13.221938 -0.965759
-28.933548 -13.952407 -0.971790
-28.775799 -14.652757 -0.948498
-29.584446 -12.564571 -1.010994
-29.432961 -13.275531 -0.995461
-29.623116 -14.013767 -0.978580
-29.456310 -14.721035 -0.950264
-30.278019 -12.612039 -1.010048
-30.056229 -13.330059 -0.938332
-30.377144 -14.077501 -1.026924
-30.108929 -14.789174 -0.917027
-31.059608 -12.659369 -1.069126
-30.866936 -13.386152 -1.025043
-31.119377 -14.142136 -1.051964
-30.949444 -14.865738 -1.026817
-31.813953 -12.708404 -1.092056
-31.588593 -13.443172 -1.024815
-31.802532 -14.206507 -1.016521
-31.638954 -14.937350 -0.999142
-32.603069 -12.758294 -1.129128
-32.375931 -13.501714 -1.064156
-32.558754 -14.273638 -1.027309
-32.401527 -15.012991 -1.017666
-33.364250 -12.809793 -1.130455
-33.135380 -13.561311 -1.067715
-33.349808 -14.342790 -1.051861
-33.151611 -15.089174 -1.013103
-34.128536 -12.862495 -1.121037
-33.929737 -13.622391 -1.084812
-34.120472 -14.412583 -1.046959
-33.912624 -15.166890 -1.003979
-34.991917 -12.915697 -1.172665
-34.759502 -13.685074 -1.114559
-34.982323 -14.486059 -1.096851
-34.772583 -15.250154 -1.055920
-35.827145 -12.970530 -1.188087
-35.576862 -13.748932 -1.120483
-35.791763 -14.559330 -1.092842
-35.539974 -15.330376 -1.024292
-36.665901 -13.026711 -1.191471
-36.421864 -13.814404 -1.132233
-36.620605 -14.634377 -1.088882
-36.391056 -15.415615 -1.040226
-37.508038 -13.084238 -1.182762
-37.262211 -13.881129 -1.125965
-37.493507 -14.712020 -1.101780
-37.278301 -15.503814 -1.066902
-38.386253 -13.143034 -1.184715
-38.105801 -13.949189 -1.107548
-38.128323 -15.591448 -1.052013
-39.234901 -13.203266 -1.151340
-39.084511 -14.020701 -1.167294
-39.382111 -14.875969 -1.179287
-39.113491 -15.687065 -1.114944
-40.119717 -13.264835 -1.127949
-40.042816 -14.093437 -1.195747
-40.266052 -14.958004 -1.152630
-40.971771 -14.167142 -1.187981
-41.270123 -15.045589 -1.189766
-42.286858 -15.135156 -1.217274
-43.257034 -15.224500 -1.197533
-42.971062 -16.079306 -1.138474
-44.077663 -15.309490 -1.068668
9.353398 -13.248231 32.019039
9.327610 -13.253109 32.004078
9.325014 -13.249916 32.008492
9.351734 -13.252043 32.022427
9.333113 -13.253382 32.014931
9.349490 -13.249203 32.026386
9.340947 -13.253086 32.021526
9.357781 -13.252201 32.032486
9.311807 -13.251445 32.012409
9.294296 -13.256479 32.003220
9.346729 -13.249926 32.031982
9.365015 -13.252073 32.040428
9.309716 -13.252004 32.016788
9.292058 -13.257079 32.007915
9.299633 -13.252752 32.014805
9.318132 -13.255552 32.022881
9.316807 -13.252081 32.025318
9.335351 -13.254584 32.033257
9.352728 -13.253575 32.043327