# This PCD file was generated using the MATLAB® pcwrite function
# from Computer Vision System Toolbox®.
# .PCD v.7 - Point Cloud Data file format
VERSION .7
FIELDS x y z
SIZE 4 4 4
TYPE F F F
COUNT 1 1 1
WIDTH 840
HEIGHT 1
VIEWPOINT 0 0 0 1 0 0 0
POINTS 840
DATA ascii
39.264969 -22.259914 4.767023
39.056030 -21.674128 4.480011
39.242577 -22.196384 4.238983
39.051895 -21.598972 3.921013
39.243587 -22.125792 3.670214
39.103828 -21.427029 2.686352
39.209312 -21.988670 2.541092
39.015511 -21.369221 2.198662
39.197998 -21.916233 1.949532
39.008469 -21.287468 1.590878
39.213451 -21.835279 1.307854
36.514236 -21.901432 4.400023
36.509575 -22.448994 4.402666
36.153854 -21.924641 4.323689
36.103737 -22.482029 4.391485
35.743088 -21.962896 4.324055
35.733456 -22.506569 4.336340
35.311790 -22.008074 4.361744
35.308071 -22.546398 4.366835
34.932449 -22.039038 4.330862
34.945641 -22.570280 4.312077
34.548828 -22.072033 4.312435
34.540382 -22.606464 4.327286
34.145126 -22.111927 4.331444
34.158554 -22.637098 4.313951
33.785690 -22.139215 4.288437
33.778114 -22.668123 4.304882
33.406258 -22.173389 4.282812
33.399124 -22.699533 4.300051
33.028313 -22.207941 4.281408
33.001030 -22.737267 4.333204
32.611393 -22.255848 4.351954
32.605061 -22.775364 4.370903
32.277054 -22.278160 4.291149
32.251274 -22.801947 4.344860
31.923479 -22.307327 4.268013
31.898506 -22.828896 4.322594
31.551615 -22.343336 4.283047
31.546803 -22.856205 4.304087
31.162413 -22.386166 4.336746
31.177109 -22.889791 4.323967
30.794306 -22.422857 4.360098
30.827948 -22.917797 4.313086
30.589231 -22.403305 4.082029
30.119682 -23.061468 4.988028
29.847069 -23.067886 4.855898
29.501978 -23.098284 4.867386
29.193447 -23.117205 4.811621
28.936867 -23.118797 4.652042
28.730160 -22.609539 4.360729
28.763273 -23.091364 4.315744
28.423147 -22.629189 4.303209
28.207237 -23.198008 4.797144
27.880859 -22.742218 4.770485
27.827801 -23.244623 4.916262
27.598724 -22.754402 4.675798
27.547407 -23.256344 4.822426
27.363338 -23.755342 4.907557
27.312136 -22.768532 4.592733
27.215611 -23.287415 4.849257
27.052673 -23.777697 4.891254
27.278154 -24.182041 4.394964
26.948774 -22.814951 4.694344
26.939014 -23.298332 4.751831
26.951939 -23.727753 4.374557
26.960457 -24.204472 4.389418
26.771519 -22.783461 4.352257
26.774307 -23.265888 4.382242
26.638426 -23.750847 4.362556
26.647446 -24.226023 4.377832
26.453892 -22.811369 4.350126
26.471970 -23.286301 4.343891
26.318449 -23.776869 4.372074
26.327953 -24.250225 4.387793
26.137257 -22.839571 4.351152
26.155624 -23.312834 4.345308
25.988968 -23.807110 4.412552
25.998928 -24.278231 4.428747
25.807659 -22.874409 4.392244
25.826273 -23.345449 4.386860
25.675100 -23.832378 4.419260
25.675087 -24.305326 4.463764
25.493429 -22.903172 4.399647
25.512339 -23.372541 4.394640
25.379293 -23.851395 4.382494
25.390301 -24.319838 4.399439
25.193619 -22.925892 4.372967
25.212872 -23.394140 4.368269
25.067196 -23.877232 4.395231
25.078701 -24.343990 4.412579
24.881268 -22.955219 4.386425
24.887764 -23.427557 4.419474
24.756233 -23.903339 4.411026
24.768242 -24.368412 4.428774
24.570059 -22.984819 4.402948
24.589907 -23.449724 4.399000
24.455887 -23.925825 4.401667
25.432596 -23.523844 1.487144
24.569588 -24.352564 4.118441
25.514791 -24.006247 1.302990
24.284718 -23.002113 4.347469
24.301861 -23.467884 4.353146
25.271608 -23.019276 1.411167
25.352764 -23.444191 0.717674
25.493099 -23.914528 0.352688
25.056564 -22.467876 0.982784
25.201952 -22.923004 0.595806
25.263306 -23.364119 -0.062500
25.269917 -23.895199 -0.012684
24.946241 -22.377552 0.262623
25.101254 -22.836201 -0.164295
24.928886 -23.387844 -0.085197
24.936386 -23.917774 -0.034954
24.668058 -22.373917 0.062035
24.740198 -22.874056 -0.100670
24.606245 -23.406767 -0.142822
24.603367 -23.940676 -0.054131
24.387230 -22.370747 -0.136429
24.403288 -22.900822 -0.109512
24.253387 -23.440109 -0.092678
24.259899 -23.968462 -0.032021
24.063721 -22.391340 -0.190063
24.080505 -22.920828 -0.162849
23.918177 -23.466070 -0.096443
23.938969 -23.987444 -0.083206
23.729767 -22.418482 -0.202652
23.749836 -22.945417 -0.184628
23.596565 -23.485983 -0.144989
23.620541 -24.005640 -0.141113
23.398922 -22.444393 -0.221710
23.429661 -22.964703 -0.241673
23.277386 -23.504976 -0.200260
23.289425 -24.029833 -0.148087
23.075794 -22.466005 -0.266483
23.094700 -22.992760 -0.238277
22.946018 -23.530634 -0.204559
22.968601 -24.049835 -0.190578
22.752655 -22.487961 -0.308357
22.774639 -23.012726 -0.289497
22.613016 -23.557856 -0.196159
22.666378 -24.061220 -0.307480
22.429523 -22.510258 -0.347336
22.452166 -23.034435 -0.328232
22.303185 -23.572832 -0.281361
22.353870 -24.077475 -0.383121
22.115089 -22.526783 -0.422001
22.144960 -23.046753 -0.431717
21.988270 -23.590689 -0.344509
22.006250 -24.111876 -0.300816
21.775085 -22.561960 -0.377991
21.805265 -23.080252 -0.387383
21.668808 -23.611397 -0.385494
21.685595 -24.133224 -0.331841
21.454483 -22.583731 -0.417919
21.469028 -23.112627 -0.349564
21.331509 -23.643602 -0.336128
21.380928 -24.146090 -0.437904
21.107094 -22.627033 -0.319225
21.147545 -23.135635 -0.376648
21.048601 -23.641476 -0.556393
21.065529 -24.164843 -0.492619
20.838665 -22.607164 -0.625286
20.861078 -23.132923 -0.585812
20.719145 -23.669395 -0.540264
20.738888 -24.190502 -0.485935
20.521992 -22.625505 -0.686131
20.538282 -23.156679 -0.607483
20.383680 -23.702503 -0.482048
20.411213 -24.217543 -0.466507
20.191601 -22.656204 -0.666233
20.195711 -23.197090 -0.509090
20.061222 -23.727310 -0.489254
20.089361 -24.241615 -0.473526
19.854279 -22.694656 -0.594536
19.888561 -23.209229 -0.612881
19.753086 -23.741489 -0.581829
19.775702 -24.260614 -0.526772
19.533552 -22.718445 -0.617481
19.566677 -23.233932 -0.625919
19.426306 -23.770584 -0.553963
19.455729 -24.284256 -0.537956
19.205950 -22.749979 -0.588650
19.232407 -23.271059 -0.547825
19.111492 -23.790316 -0.601799
19.130499 -24.312473 -0.506927
18.893724 -22.765526 -0.664700
18.922421 -23.285625 -0.633621
18.791147 -23.815197 -0.607533
18.811462 -24.336714 -0.512402
18.572056 -22.791767 -0.669373
18.606441 -23.305927 -0.677444
18.471134 -23.840385 -0.610424
18.497614 -24.357042 -0.554539
18.250731 -22.818317 -0.671196
18.285528 -23.331896 -0.679134
18.147018 -23.870632 -0.571033
18.178928 -24.381918 -0.554428
17.929775 -22.845175 -0.670189
17.966045 -23.356846 -0.687855
17.832211 -23.891680 -0.607750
17.864784 -24.402920 -0.591072
17.614027 -22.865059 -0.715584
17.640936 -23.390015 -0.634571
17.517118 -23.913074 -0.641731
17.546547 -24.428419 -0.585377
17.289070 -22.899796 -0.659683
17.322441 -23.415558 -0.637627
17.198341 -23.939493 -0.633396
17.232208 -24.450089 -0.616516
16.969372 -22.927551 -0.650208
17.006620 -23.437492 -0.667534
16.883869 -23.960388 -0.671776
16.917635 -24.472101 -0.644936
16.652956 -22.949858 -0.677406
16.689861 -23.461071 -0.684811
16.562191 -23.993214 -0.608326
16.597305 -24.502609 -0.591217
16.336342 -22.972504 -0.701843
16.371195 -23.488855 -0.669632
16.245459 -24.019360 -0.601521
16.278177 -24.533354 -0.534672
16.017431 -23.001188 -0.684002
16.055750 -23.510498 -0.701168
15.930102 -24.043510 -0.611790
15.968590 -24.548229 -0.634274
15.700834 -23.024487 -0.702923
15.735895 -23.544010 -0.640804
15.613515 -24.071404 -0.589527
15.650550 -24.579542 -0.572178
15.384110 -23.048122 -0.719082
15.422809 -23.558651 -0.726303
15.299183 -24.093914 -0.614147
15.336553 -24.603136 -0.586838
15.067284 -23.072092 -0.732498
15.105321 -23.587652 -0.700035
14.984339 -24.117897 -0.626110
15.022465 -24.627060 -0.598766
14.749649 -23.101988 -0.703560
14.788449 -23.616934 -0.670994
14.668623 -24.147800 -0.585655
14.708309 -24.651314 -0.607967
14.433416 -23.121027 -0.751060
14.473494 -23.631449 -0.758232
14.354694 -24.163511 -0.671631
14.394114 -24.675894 -0.614437
14.116423 -23.145988 -0.756210
14.156884 -23.661360 -0.723690
14.039460 -24.188496 -0.675385
14.079897 -24.700798 -0.618179
13.799109 -23.165766 -0.798225
13.840693 -23.686584 -0.726078
13.724232 -24.213806 -0.676392
13.765241 -24.721226 -0.668949
13.483105 -23.202374 -0.718628
13.524519 -23.712132 -0.725716
13.408283 -24.235071 -0.714417
13.450625 -24.746811 -0.667217
13.165248 -23.221462 -0.765034
13.207419 -23.733099 -0.762287
13.093611 -24.264303 -0.680126
13.136324 -24.773659 -0.652809
12.847267 -23.243658 -0.788860
12.890676 -23.758099 -0.766346
12.777372 -24.287352 -0.702717
12.820176 -24.795183 -0.695358
12.530133 -23.270262 -0.780220
12.574678 -23.785856 -0.747807
12.462056 -24.313967 -0.692753
12.505442 -24.821749 -0.685417
12.213114 -23.297184 -0.768826
12.258466 -23.812710 -0.736439
12.142052 -24.331339 -0.769413
12.189264 -24.845858 -0.702564
11.893231 -23.317751 -0.804127
11.940035 -23.835093 -0.761967
11.826229 -24.358650 -0.753933
11.876375 -24.875820 -0.657314
11.576078 -23.345341 -0.787193
11.621070 -23.857849 -0.784702
11.510580 -24.386271 -0.735695
11.559300 -24.899689 -0.678902
11.259111 -23.373240 -0.767506
11.303885 -23.884520 -0.774948
11.195128 -24.414200 -0.714725
11.238594 -24.920322 -0.737423
10.936333 -23.392269 -0.814190
10.984190 -23.907993 -0.792110
10.872845 -24.434187 -0.770264
10.920204 -24.944962 -0.753414
10.619205 -23.420841 -0.788937
10.667780 -23.936501 -0.766914
10.557168 -24.462791 -0.743740
10.609024 -24.977045 -0.687290
10.293033 -23.438057 -0.849682
10.343448 -23.956051 -0.818005
10.757626 -24.988295 4.122812
10.238596 -24.488651 -0.744156
10.793463 -25.425123 4.077257
10.579528 -25.245314 2.046394
9.975671 -23.467308 -0.818840
10.331951 -24.301411 1.927429
10.027998 -23.986380 -0.777374
10.504191 -25.030712 4.318544
10.248522 -24.805029 2.104660
10.536498 -25.462576 4.243534
10.310494 -25.288754 2.263966
10.008543 -23.867973 2.069553
10.060985 -24.349226 2.135948
10.236781 -25.059122 4.378096
9.975270 -24.846245 2.274956
10.274929 -25.494896 4.352591
10.026791 -25.319248 2.335369
9.931479 -24.106544 3.735514
9.732365 -23.910727 2.221050
9.897279 -24.488844 3.144718
9.928135 -25.056019 4.124302
9.994192 -25.513693 4.305794
9.451687 -23.947239 2.325710
9.620985 -24.520199 3.218918
9.605003 -25.046766 3.804537
9.731836 -25.544701 4.399660
9.492969 -25.399433 2.702538
9.257548 -24.056702 3.001839
9.323904 -24.534994 3.148026
9.249263 -25.020824 3.310860
9.467899 -25.574188 4.476034
9.206858 -25.426172 2.731655
8.910528 -24.033194 2.640110
9.046857 -24.565756 3.217304
8.950636 -25.036627 3.233715
9.112921 -25.555014 3.973932
8.694368 -24.114651 3.104019
8.804859 -24.619831 3.494869
8.670235 -25.064383 3.277107
8.892130 -25.608305 4.330797
8.591090 -24.270647 4.165430
8.320601 -24.077587 2.631001
8.560534 -24.669388 3.735058
8.362350 -25.077209 3.166126
8.642583 -25.645081 4.492834
8.327009 -24.304222 4.260157
8.039461 -24.110073 2.708473
8.248150 -24.675529 3.585999
8.476559 -25.308764 5.328444
8.172895 -25.152637 3.703939
8.540932 -25.746061 5.440918
8.230089 -25.608900 3.765011
8.410812 -24.559822 6.140238
7.732775 -24.125792 2.651932
8.450659 -24.977720 6.124540
7.981748 -24.710201 3.693768
8.227953 -25.342056 5.444433
7.688001 -25.079292 2.689110
8.322211 -25.790142 5.703529
7.739832 -25.547365 2.709286
8.194636 -24.610165 6.382414
8.159756 -24.984777 5.996670
7.492423 -24.623539 2.692692
8.062990 -25.413301 5.962410
7.354988 -25.086567 2.509354
8.119619 -25.838776 6.026306
7.393829 -25.552402 2.460674
7.907994 -24.617367 6.276541
7.557031 -24.414257 4.625610
7.927844 -25.024084 6.163509
7.862879 -25.464731 6.276537
7.866270 -25.866196 6.087078
7.036838 -25.555912 2.186344
7.642740 -24.638124 6.280064
7.702719 -25.065498 6.351587
7.667836 -25.515902 6.591934
7.732287 -25.935995 6.685415
7.363717 -24.652132 6.227928
7.440434 -25.088186 6.366888
7.577084 -25.606234 7.335396
7.241102 -25.472713 5.889925
5.682960 -24.853498 -0.813572
7.662138 -26.023190 7.517076
7.071741 -24.660723 6.130136
6.751705 -24.499567 4.797470
5.408950 -23.823410 -0.793941
7.226452 -25.132792 6.587725
5.432827 -24.332647 -0.929962
7.335090 -25.633402 7.400578
5.348819 -24.880329 -0.819386
7.447733 -26.058239 7.688477
7.001125 -24.777582 6.931475
6.539629 -24.555119 5.081087
5.051786 -23.837906 -0.884483
6.984760 -25.164038 6.684572
5.115872 -24.366911 -0.856510
7.336180 -25.748545 8.434042
7.402320 -26.144299 8.529182
6.640516 -24.753008 6.558620
7.009354 -25.303648 7.814428
6.536189 -25.110462 5.974077
4.789691 -24.397402 -0.818848
7.101492 -25.774300 8.491678
7.176348 -26.172112 8.615488
6.666423 -24.903927 7.658020
6.464054 -25.210915 6.730505
4.430242 -24.415207 -0.903240
6.838821 -25.790802 8.445534
6.938506 -26.196461 8.655521
6.490592 -24.959181 7.960243
6.626823 -25.393631 8.291796
6.644438 -25.829803 8.651464
6.706205 -26.222466 8.716894
4.068301 -25.518082 -0.799164
6.325010 -25.016409 8.282553
5.883894 -24.835863 6.744720
6.368735 -25.412342 8.278759
6.370339 -25.843506 8.571501
5.956355 -25.717443 7.135283
6.130944 -26.160908 7.581629
6.212531 -25.092224 8.767677
5.085992 -24.648577 4.965809
6.351796 -25.515156 9.089169
6.213743 -25.892584 8.895424
6.254645 -26.277824 8.883965
6.099270 -25.164089 9.224236
6.148630 -25.550135 9.240828
5.948111 -25.909304 8.848516
5.017449 -25.648134 5.818987
6.024428 -26.304367 8.951296
5.840957 -25.179625 9.197325
2.632831 -24.007147 -0.974506
5.876063 -25.562214 9.166082
4.633696 -25.164112 5.205410
2.726946 -24.553116 -0.873325
5.762365 -25.948359 9.060766
4.790255 -25.686203 5.991697
5.815813 -26.335810 9.087240
5.627698 -25.211784 9.314726
4.343285 -24.759087 5.362797
2.293753 -24.036716 -0.943275
5.604692 -25.575716 9.103559
5.527170 -25.973675 9.113159
5.408748 -26.324173 8.607946
4.613934 -26.152983 6.159403
2.337316 -25.662640 -0.854057
5.396976 -25.237591 9.377287
4.769048 -25.024015 7.501072
5.400834 -25.610249 9.251581
1.991778 -24.596476 -0.988350
5.273248 -25.994463 9.110960
5.248980 -26.366806 8.900295
4.167159 -26.143232 5.663618
5.131130 -25.251904 9.338472
1.572741 -24.083206 -0.993622
5.153775 -25.631853 9.269295
5.067538 -26.027323 9.252518
5.019032 -26.394363 8.976374
1.637203 -25.723457 -0.856712
4.903829 -25.279272 9.414780
1.245166 -24.118290 -0.915119
4.734313 -25.606150 8.800934
4.026077 -25.410236 6.791056
3.552815 -25.279320 5.448004
4.823595 -26.050955 9.282942
4.749847 -26.414494 8.941549
4.738459 -25.325605 9.661283
4.618055 -25.665089 9.199299
4.541906 -26.066481 9.212610
4.530553 -26.444401 9.050108
4.409528 -25.322144 9.461529
4.414308 -25.699348 9.345671
4.275845 -26.086264 9.191879
4.364841 -26.483635 9.300756
2.828843 -26.213524 5.186419
0.573720 -25.816950 -0.854176
4.276078 -25.376772 9.785566
4.077363 -25.699997 9.140030
3.847461 -26.073050 8.755014
4.231382 -26.527510 9.626871
3.728292 -25.314516 9.045521
3.681603 -25.688316 8.799133
-0.114078 -24.774544 -0.883400
3.440087 -26.067003 8.397785
3.708355 -26.506920 8.950052
2.959456 -26.385233 7.045628
3.409128 -25.319447 8.912598
-0.608586 -24.238110 -1.032101
3.353514 -25.695051 8.647957
3.186831 -26.093147 8.443079
3.206466 -26.493427 8.363674
-0.516218 -25.911823 -0.866940
3.075479 -25.322065 8.755625
2.881548 -25.670868 8.159634
3.228220 -26.174349 9.200035
3.395479 -26.587051 9.481609
3.333162 -25.475735 10.004015
2.676113 -25.309694 8.455849
2.632945 -25.698824 8.228170
-1.283304 -24.845934 -1.042511
3.246840 -26.247921 9.871685
2.473381 -26.109116 8.054300
-0.233730 -25.623291 1.693447
3.346099 -26.641411 9.987528
1.539072 -26.380322 5.721842
2.643701 -25.389763 9.018940
2.471799 -25.745367 8.500179
2.323663 -26.155289 8.355400
1.618102 -26.033049 6.736715
3.102052 -26.666830 10.025234
2.080657 -26.524897 7.671194
-1.671078 -26.003550 -0.975555
2.122451 -25.350655 8.462105
0.495337 -24.964067 4.806501
2.221714 -25.772741 8.563383
1.901876 -26.154922 8.037525
1.739030 -26.542999 7.546661
1.768113 -25.354122 8.301798
1.914263 -25.788986 8.501827
1.614646 -26.178463 8.033493
1.241453 -26.542147 7.089628
-2.408039 -26.073038 -0.937206
1.675093 -25.417629 8.714067
0.846511 -25.232332 6.936424
1.537754 -25.792936 8.298908
0.723794 -25.637243 6.544821
-2.804766 -24.962313 -1.059250
1.060359 -26.160906 7.462860
-0.405350 -25.932226 4.325932
-2.880581 -25.546041 -0.971584
1.173099 -26.596926 7.580814
1.631227 -25.489880 9.215820
0.508622 -25.246227 6.861082
0.438726 -25.664732 6.587528
-3.173174 -24.995564 -1.022263
1.071794 -26.231995 8.106255
0.696164 -26.601513 7.196301
-0.663946 -26.439833 4.337475
-3.173923 -26.141466 -0.938267
1.259257 -25.490568 9.027155
-0.725988 -25.072285 4.954521
0.710609 -25.792564 7.781036
-0.608314 -25.555847 5.063440
0.607203 -26.231209 7.752085
0.674719 -26.660372 7.769983
0.971921 -25.510292 9.021212
0.110313 -25.334028 7.292000
0.461714 -25.823992 7.878098
-0.397898 -25.674513 6.145380
0.264822 -26.249886 7.662844
-0.560050 -26.133905 6.010986
-3.949013 -26.211647 -0.932552
1.275548 -25.648066 10.180931
0.412413 -25.476587 8.485737
-0.047965 -25.811563 7.461586
-0.868559 -25.673294 5.842974
1.244539 -26.449123 10.173500
-0.025645 -26.276615 7.684147
0.079656 -26.714138 7.772209
-1.046904 -26.595173 5.554823
-4.381340 -26.243057 -1.008289
-0.272297 -25.422443 7.737003
-1.214570 -25.240616 5.925497
-5.038815 -24.502663 -1.426575
1.103494 -26.073195 10.274925
0.804370 -26.450819 9.859308
-0.270605 -26.309797 7.796923
1.294615 -26.895302 10.694908
0.033782 -26.767366 8.265602
0.599243 -25.664953 9.953903
0.824654 -26.094419 10.271959
0.143815 -25.986671 8.984928
0.887846 -26.520866 10.546564
0.959222 -26.913774 10.575964
0.439606 -25.707760 10.183464
0.478463 -26.105896 10.149086
-1.858358 -25.747450 5.822926
0.524662 -26.533630 10.388451
0.806286 -26.950315 10.803629
0.225076 -25.740175 10.309301
-6.107397 -24.619518 -1.126537
0.177337 -26.125267 10.117662
0.152934 -26.546644 10.226036
0.482430 -26.971085 10.717287
-0.051986 -25.761749 10.324192
0.026342 -26.167011 10.359041
-0.084860 -26.576223 10.311459
0.126675 -26.989960 10.582504
-0.225250 -25.801201 10.523285
-0.230757 -26.193319 10.410837
-0.442047 -26.592823 10.191620
0.096439 -27.036798 11.023642
-0.795408 -26.963074 9.473392
-1.722134 -26.886467 7.862520
-0.754862 -25.782305 10.113617
-0.528318 -26.214479 10.396345
-0.599559 -26.631744 10.420200
-0.781865 -27.015224 10.007101
-2.071512 -26.913044 7.809633
-1.159320 -25.785982 9.933430
-7.769651 -24.742237 -1.083210
-0.934651 -26.222027 10.205275
-2.086226 -26.070906 8.278221
-0.918769 -26.653643 10.375748
-0.755019 -27.066851 10.547228
-7.662823 -26.542568 -0.993095
-1.151776 -25.854485 10.438540
-1.262284 -26.241104 10.155689
-1.349404 -26.665274 10.156145
-1.230112 -27.080460 10.249123
-2.453608 -26.991568 8.244715
-1.532300 -25.863085 10.307304
-1.544470 -26.266630 10.186169
-1.784936 -26.677959 9.942129
-3.261518 -26.536985 7.579094
-8.617441 -26.025635 -0.992195
-1.711443 -27.095327 9.957396
-2.989260 -27.006521 7.904181
-1.868064 -25.879498 10.256487
-3.564161 -25.633530 7.589716
-9.026979 -24.841305 -0.999466
-2.104940 -26.259390 9.781263
-8.919228 -25.445507 -0.976093
-2.171642 -26.696646 9.818003
-9.061445 -26.062412 -0.998371
-3.387455 -27.032507 7.798746
-8.933884 -26.664062 -0.943741
-2.119070 -25.908773 10.343458
-3.230932 -25.752037 8.628321
-4.097366 -26.088968 7.179024
-9.370235 -25.478775 -0.987503
-2.186363 -26.749462 10.276730
-3.801733 -26.606138 7.788572
-9.485447 -26.101851 -0.966064
-2.090137 -27.167067 10.324972
-9.378263 -26.704721 -0.945976
-2.578592 -25.909691 10.116739
-3.431355 -26.229366 8.719801
-4.287247 -26.133413 7.419094
-9.817627 -25.513412 -0.985485
-2.536026 -26.772327 10.217316
-9.976706 -26.136274 -1.029095
-2.367172 -27.197447 10.373152
-4.291960 -27.080950 7.452257
-9.840845 -26.745110 -0.968262
-3.266001 -25.882072 9.565174
-10.422165 -24.928942 -1.065125
-3.262430 -26.309362 9.467699
-4.502073 -26.174749 7.618895
-10.288923 -25.546364 -1.011604
-4.669146 -26.649225 7.519781
-10.409346 -26.176666 -0.995216
-4.594610 -27.115715 7.520029
-10.272083 -26.788223 -0.935452
-4.720118 -25.758650 7.921467
-10.891382 -24.959751 -1.076359
-4.596512 -26.228544 7.993435
-10.745518 -25.581909 -1.007565
-4.774620 -26.698620 7.879423
-10.860109 -26.216372 -0.981270
-10.727058 -26.830757 -0.930870
-11.328306 -24.995670 -1.033150
-4.896791 -26.260389 8.064367
-11.198111 -25.618790 -0.990147
-11.295223 -26.258114 -0.937672
-11.177999 -26.874338 -0.912907
-11.800999 -25.028004 -1.033875
-11.681074 -25.653549 -1.008339
-11.795174 -26.295837 -0.978745
-11.653572 -26.917498 -0.922443
-12.281412 -25.060436 -1.037224
-12.136969 -25.691940 -0.980412
-12.274200 -26.336124 -0.981525
-12.131136 -26.961472 -0.926430
-12.769691 -25.093002 -1.043011
-12.641573 -25.726686 -1.011673
-12.755156 -26.377230 -0.978722
-12.634340 -27.005209 -0.957047
-13.254000 -25.127083 -1.035114
-13.118702 -25.765015 -0.996948
-13.213942 -26.420710 -0.938358
-13.068018 -27.052877 -0.885651
-13.709812 -25.165283 -0.981934
-13.579357 -25.805702 -0.952850
-13.722595 -26.461884 -0.956219
-13.599438 -27.097330 -0.936600
-14.277079 -25.192499 -1.065289
-14.114700 -25.840982 -0.998177
-14.233536 -26.503965 -0.967968
-14.084637 -27.144609 -0.917873
-14.761007 -25.229755 -1.032085
-14.603313 -25.881256 -0.974251
-14.746700 -26.546955 -0.973583
-14.571514 -27.192703 -0.893436
-15.258966 -25.266550 -1.008774
-15.149895 -25.917957 -1.014637
-15.236893 -26.592220 -0.941917
-15.110165 -27.239967 -0.925560
-15.745949 -25.305405 -0.964134
-15.617018 -25.961861 -0.947784
-15.773069 -26.635977 -0.958492
-15.626097 -27.289001 -0.920109
-16.317549 -25.337227 -1.013340
-16.181017 -25.999527 -0.990692
-16.292416 -26.681667 -0.945503
-16.118437 -27.339663 -0.877689
-16.866295 -25.372501 -1.024967
-16.702698 -26.041422 -0.973202
-16.794258 -26.729181 -0.903389
-16.689833 -27.389101 -0.920914
-17.424000 -25.408194 -1.037365
-17.278486 -26.080704 -1.009903
-17.395794 -26.773092 -0.968563
-17.257624 -27.439787 -0.949356
-17.970972 -25.446037 -1.027859
-17.804420 -26.124496 -0.979290
-17.947794 -26.820457 -0.966053
-17.788530 -27.492411 -0.925587
-18.526751 -25.484299 -1.019035
-18.385363 -26.165865 -1.001888
-18.495359 -26.869085 -0.949245
-18.361288 -27.545155 -0.940022
-19.084715 -25.523552 -1.003323
-18.942125 -26.209934 -0.987560
-19.078669 -26.917385 -0.962555
-18.923136 -27.599203 -0.932430
-19.644777 -25.563797 -0.980671
-19.528151 -26.253429 -0.995647
-19.664568 -26.966770 -0.968460
-19.473619 -27.654486 -0.903118
-20.234316 -25.602961 -0.980080
-20.089319 -26.299528 -0.967186
-20.252981 -27.017241 -0.966911
-20.115122 -27.709469 -0.961571
-20.881670 -25.639164 -1.029591
-20.707739 -26.343674 -0.989456
-20.843809 -27.068794 -0.957863
-20.621672 -27.767426 -0.867210
-21.504454 -25.678617 -1.042068
-21.301130 -26.390421 -0.975098
-21.436979 -27.121428 -0.941280
-21.240770 -27.825008 -0.881294
-22.094774 -25.721655 -1.011082
-21.924948 -26.436874 -0.981560
-22.060614 -27.174343 -0.945446
-21.862623 -27.883766 -0.887329
-22.701372 -25.764809 -0.986637
-14.963987 -26.838383 6.542124
-22.572752 -26.483511 -1.001030
-22.658430 -27.229181 -0.913414
-22.543974 -27.943308 -0.941566
-23.324522 -25.808147 -0.968319
-23.151918 -26.534582 -0.942238
-23.287027 -27.284397 -0.901558
-23.142870 -28.004654 -0.902958
-15.817829 -26.353064 6.815601
-23.986181 -25.850409 -0.976406
-23.804930 -26.583588 -0.945251
-23.947027 -27.340130 -0.909088
-23.779871 -28.066950 -0.891220
-24.577822 -25.898262 -0.907425
-15.442455 -26.998674 7.548588
-24.096762 -26.648558 -0.597115
-24.580683 -27.397730 -0.880527
-24.404795 -28.130461 -0.857418
-25.347391 -25.937046 -0.993393
-24.297281 -26.716930 -0.165161
-25.275446 -27.455391 -0.897861
-25.068586 -28.195112 -0.849388
-16.426550 -26.511711 7.710487
-25.973146 -25.985598 -0.934620
-24.330389 -26.790962 0.415546
-25.943651 -27.514912 -0.878998
-25.735018 -28.261021 -0.832531
-24.274256 -26.867001 1.067471
-26.644274 -27.575235 -0.877819
-26.426363 -28.328264 -0.826763
-27.485868 -26.072989 -1.016323
-24.299799 -26.938992 1.636692
-27.377886 -27.636507 -0.893505
-27.128000 -28.396870 -0.818272
-23.617090 -26.345861 2.938141
-24.265314 -27.011799 2.249538
-28.076792 -27.699669 -0.866585
-27.862711 -28.467022 -0.826405
-17.346575 -26.715101 8.796183
-23.851656 -26.409189 3.302483
-24.932203 -27.063070 2.257996
-25.033541 -27.801645 2.329819
-28.508966 -28.537876 -0.746891
-22.267626 -26.554256 5.174650
-17.121689 -27.345894 9.340778
-29.273340 -27.015934 -0.783497
-25.279139 -27.865007 2.700653
-29.226057 -28.610542 -0.716415
-22.311636 -26.621847 5.665539
-22.088392 -27.275650 5.728510
-29.948576 -27.076260 -0.706036
-25.528933 -27.928247 3.066990
-18.800508 -26.835348 8.998121
-31.047522 -26.329655 -0.812328
-22.008760 -27.341213 6.310949
-25.900190 -27.990805 3.335258
-19.216730 -26.879925 9.133924
-21.976622 -27.404556 6.846426
-24.172235 -26.754410 5.765873
-32.776215 -26.430819 -0.885532
-19.062830 -27.525007 9.610884
-33.726059 -26.481207 -0.964165
-22.390772 -28.181923 7.664194
-27.987410 -27.486135 3.833128
-18.932085 -28.233978 10.735100
-22.612452 -28.238510 7.992298
-22.798853 -28.294977 8.345827
-22.619844 -28.924328 8.365114
-21.516474 -27.105421 9.734316
-22.023256 -27.151438 9.840242
-22.821108 -27.752504 9.167078
-23.690626 -29.050924 8.570799
-25.836393 -27.779579 7.543819
-21.551340 -27.284052 11.085339
-24.403162 -28.527233 9.164433
-21.594809 -27.934237 11.401821
-25.323706 -29.248379 8.920399
-25.102335 -27.320955 9.647657
-21.566675 -27.988750 11.864775
-31.638491 -27.248447 5.923750
-21.549959 -28.042496 12.314625
13.848551 -28.203320 35.216377
13.882068 -28.202402 35.238617
13.835028 -28.201195 35.220787
13.817416 -28.205902 35.211620
13.888210 -28.199776 35.248615
13.843378 -28.204973 35.226830
13.832977 -28.201878 35.225170
13.815220 -28.206635 35.216316
13.868414 -28.200949 35.243839
13.886914 -28.203350 35.251732
13.831005 -28.202560 35.229588
13.813107 -28.207365 35.221050
13.830048 -28.202902 35.231808
13.876230 -28.204369 35.251240
13.875163 -28.201468 35.253433
13.893856 -28.203661 35.260860
13.920858 -28.202400 35.273979