# This PCD file was generated using the MATLAB® pcwrite function
# from Computer Vision System Toolbox®.
# .PCD v.7 - Point Cloud Data file format
VERSION .7
FIELDS x y z
SIZE 4 4 4
TYPE F F F
COUNT 1 1 1
WIDTH 880
HEIGHT 1
VIEWPOINT 0 0 0 1 0 0 0
POINTS 880
DATA ascii
39.299011 -22.680141 4.564325
39.490482 -23.201168 4.313879
39.273468 -22.609146 4.028502
39.457703 -23.137295 3.783802
39.258492 -22.533615 3.467251
39.501316 -22.977779 2.544735
39.204567 -22.383680 2.338158
39.385666 -22.929979 2.087440
39.188824 -22.302771 1.738644
39.392239 -22.849689 1.453941
39.210430 -22.209196 1.072643
36.963661 -23.399731 4.200335
36.530380 -22.890806 4.227396
36.503632 -23.446150 4.261875
36.162468 -22.915920 4.163475
36.113922 -23.475050 4.231392
35.706631 -22.967623 4.234198
35.725441 -23.504375 4.205284
35.341202 -22.993587 4.179007
35.338223 -23.534124 4.183525
34.938766 -23.031414 4.185600
34.909103 -23.576263 4.232340
34.532818 -23.071281 4.205097
34.525146 -23.606831 4.219587
34.170803 -23.098473 4.162392
34.121582 -23.643787 4.244610
33.788975 -23.132601 4.157185
33.761517 -23.669165 4.206875
33.408634 -23.167114 4.156206
33.402355 -23.694933 4.173000
33.029839 -23.202013 4.159431
33.024010 -23.727066 4.177010
32.652626 -23.237286 4.166836
32.647255 -23.759575 4.185190
32.277039 -23.272926 4.178398
32.291653 -23.786476 4.163120
31.903122 -23.308929 4.194080
31.898682 -23.825687 4.213964
31.549789 -23.338772 4.179197
31.550591 -23.851820 4.191082
31.216152 -23.362455 4.133223
31.194191 -23.881292 4.189299
30.828335 -23.406027 4.195618
30.948925 -23.875372 3.980911
30.599953 -23.393023 3.954754
30.480953 -23.942764 4.205900
30.130630 -23.468149 4.192150
30.133186 -23.971777 4.206621
29.749069 -23.512699 4.266832
29.786720 -24.001125 4.210991
29.370096 -23.557549 4.345760
29.441587 -24.030800 4.218981
29.274387 -24.541019 4.237803
29.263447 -25.038601 4.284557
29.114750 -23.555735 4.169554
29.131306 -24.048946 4.158886
28.952562 -24.562241 4.206770
28.938267 -25.059483 4.263134
28.751072 -23.596369 4.228838
28.771904 -24.085196 4.209753
28.610996 -24.590496 4.224096
28.601624 -25.084293 4.272112
28.132751 -23.740677 4.869045
28.414581 -24.121740 4.264471
28.270891 -24.619059 4.244965
28.278313 -25.105820 4.257303
27.810158 -23.768848 4.866007
28.090946 -24.146770 4.250452
27.916622 -24.653269 4.305765
27.940161 -25.132454 4.282196
27.511745 -23.787661 4.811712
27.768185 -24.172119 4.239666
27.583712 -24.681087 4.324646
27.607389 -25.158188 4.301426
27.194588 -23.814846 4.805847
27.416054 -24.209549 4.305195
27.289776 -24.695889 4.255211
27.302399 -25.175867 4.259745
27.063046 -23.762022 4.345480
27.110607 -24.229628 4.264397
26.955242 -24.725649 4.289740
26.968235 -25.203394 4.294735
26.772684 -23.777107 4.270796
26.790993 -24.255894 4.263334
26.651100 -24.745077 4.253801
26.664553 -25.221699 4.259129
26.450253 -23.806942 4.281721
26.458214 -24.288311 4.302378
26.308685 -24.779385 4.322712
26.318958 -25.254541 4.337814
26.149714 -23.827478 4.240362
26.154808 -24.309319 4.270676
26.006214 -24.799416 4.292894
26.017027 -25.273443 4.308352
25.832581 -23.856310 4.248228
25.824780 -24.342300 4.316240
25.687420 -24.826347 4.312592
25.702085 -25.297373 4.319130
25.503399 -23.891800 4.296448
25.522886 -24.363907 4.290531
25.360100 -24.857498 4.363525
25.362034 -25.330996 4.407988
25.188812 -23.921190 4.310644
25.208599 -24.391624 4.305103
25.063253 -24.877098 4.333271
25.062794 -25.350765 4.387547
24.875378 -23.950857 4.327919
24.895468 -24.419621 4.322750
24.763649 -24.898312 4.315208
24.788975 -25.361475 4.294483
24.587440 -23.968134 4.273096
24.595724 -24.442108 4.305803
24.769619 -24.787998 3.346195
24.808340 -25.259357 3.286366
25.209822 -23.499222 1.319019
24.397430 -24.415874 3.970713
24.495043 -24.795830 3.226913
24.521976 -25.272257 3.204967
25.183361 -23.360607 0.316532
24.323856 -24.325451 3.210659
25.327637 -23.824966 -0.083626
24.233475 -24.797546 3.062447
23.011961 -25.780720 7.187086
24.269394 -25.271589 3.011948
24.975519 -23.315840 -0.129299
25.005203 -23.842812 -0.151379
22.792435 -25.349861 6.946476
24.842491 -24.391895 -0.099064
22.799000 -25.776573 6.987963
24.854050 -24.922215 -0.058949
24.660576 -23.329777 -0.222836
22.668808 -24.921310 6.835629
24.674313 -23.865320 -0.187710
22.758423 -25.256584 6.099745
22.540077 -25.791275 6.943329
24.517115 -24.946600 -0.064293
24.302896 -23.369146 -0.161282
24.319942 -23.901016 -0.135151
24.165161 -24.444843 -0.097820
22.281046 -25.806261 6.901012
24.170475 -24.975897 -0.028156
23.997911 -23.377560 -0.287151
24.005585 -23.915638 -0.222622
22.005491 -25.400026 6.847490
23.829025 -24.471144 -0.097256
22.001694 -25.830690 6.937874
23.652260 -23.411303 -0.257374
23.670773 -23.941998 -0.230667
23.510736 -24.488804 -0.160866
21.828758 -25.806297 6.563351
23.542696 -25.006819 -0.186714
23.317402 -23.439123 -0.262688
23.336605 -23.968674 -0.235634
23.185047 -24.510653 -0.192764
21.593212 -25.809748 6.421247
22.980934 -23.468809 -0.255306
22.993927 -24.001312 -0.198997
22.861807 -24.531569 -0.231388
21.239704 -25.871309 6.774267
22.887472 -25.051702 -0.227928
22.649734 -23.495708 -0.264080
22.681381 -24.015942 -0.284595
22.566952 -24.536369 -0.392918
21.175623 -25.787333 5.881014
22.595474 -25.056591 -0.399147
22.359289 -23.493668 -0.453217
22.389311 -24.016937 -0.464203
22.234329 -24.563074 -0.387230
22.050529 -25.195610 0.587574
22.017467 -23.528963 -0.407974
22.055967 -24.044964 -0.457386
21.900467 -24.591339 -0.368786
20.634289 -25.826212 5.862083
21.700451 -23.546156 -0.475803
21.733189 -24.066330 -0.496075
19.958183 -25.666918 7.789249
21.571423 -24.617393 -0.366749
20.404840 -25.822655 5.651583
21.608894 -25.129759 -0.411301
21.377300 -23.568300 -0.511757
21.391655 -24.101925 -0.434650
19.710588 -25.683037 7.759867
21.266953 -24.627529 -0.488483
19.776236 -26.056925 7.532406
21.282429 -25.154030 -0.415913
21.043484 -23.599918 -0.486523
21.083958 -24.112865 -0.545387
19.520823 -25.658413 7.410383
20.943396 -24.650526 -0.510002
19.560516 -26.052143 7.319096
20.732655 -23.612108 -0.584843
20.764698 -24.132496 -0.594990
20.623369 -24.671375 -0.548218
19.354935 -26.039021 7.029018
20.414248 -23.630753 -0.641506
20.440285 -24.156609 -0.612484
20.298471 -24.696268 -0.554230
20.326918 -25.214474 -0.539730
20.078691 -23.666334 -0.587952
20.109987 -24.186520 -0.587955
18.782692 -25.698612 7.252104
19.043102 -25.485018 5.545012
19.979977 -24.716568 -0.596596
18.956940 -25.994802 6.276276
19.758907 -23.687159 -0.629150
19.780632 -24.216715 -0.560444
18.515877 -25.729715 7.341133
18.613636 -26.076630 6.836498
19.441574 -23.705345 -0.687149
19.468525 -24.230896 -0.647728
18.292049 -25.723240 7.127703
19.323727 -24.775261 -0.535267
18.390005 -26.069658 6.592663
18.745155 -25.782782 3.972136
19.116135 -23.732847 -0.683552
19.140106 -24.261709 -0.614437
19.008247 -24.794115 -0.588814
18.386013 -25.871134 4.584944
18.792370 -23.759171 -0.686897
18.813890 -24.291449 -0.588039
18.687645 -24.818163 -0.600197
18.128643 -25.875801 4.431406
18.719212 -25.333532 -0.584927
18.473309 -23.779892 -0.726696
18.499527 -24.308056 -0.657211
18.365110 -24.844933 -0.589020
17.517042 -26.228119 7.512392
18.397289 -25.359568 -0.573597
18.149937 -23.806866 -0.724369
18.173214 -24.339745 -0.615242
17.315954 -25.759493 6.765882
18.048038 -24.866028 -0.624397
17.368389 -26.140968 6.515305
18.080885 -25.380617 -0.608894
17.826971 -23.834150 -0.719196
17.851700 -24.366375 -0.609829
17.064289 -25.775373 6.730038
17.729803 -24.888664 -0.647121
17.114965 -26.157108 6.479261
17.504436 -23.861740 -0.711174
17.533970 -24.388018 -0.641094
17.406660 -24.918736 -0.607693
16.866066 -26.167274 6.385942
17.439939 -25.433170 -0.582035
17.179399 -23.895458 -0.660851
17.209995 -24.420551 -0.590523
17.086666 -24.945543 -0.595119
17.118469 -25.462486 -0.539577
16.860764 -23.917830 -0.686634
16.895170 -24.437595 -0.655773
16.767166 -24.972647 -0.579735
16.803156 -25.483803 -0.573685
16.541943 -23.940550 -0.709644
16.577154 -24.460258 -0.678726
16.452549 -24.990730 -0.640884
16.484716 -25.510607 -0.555401
16.222956 -23.963615 -0.729885
16.258974 -24.483265 -0.698914
16.133421 -25.018473 -0.619942
16.168230 -25.534643 -0.564140
15.902654 -23.991318 -0.717686
15.939041 -24.511787 -0.676708
15.817831 -25.037292 -0.675629
15.853703 -25.553942 -0.619823
15.583676 -24.015051 -0.732365
15.622225 -24.530308 -0.730995
15.499170 -25.065662 -0.649139
15.536016 -25.581682 -0.593239
15.264607 -24.039124 -0.744282
15.303702 -24.554340 -0.742889
15.181917 -25.089764 -0.659603
15.103936 -26.161684 4.927252
15.220614 -25.601706 -0.643459
14.944420 -24.074825 -0.674225
14.983973 -24.588896 -0.672668
14.864611 -25.114201 -0.667309
14.903494 -25.630064 -0.611351
14.626253 -24.089687 -0.749878
14.666487 -24.603415 -0.758362
14.547276 -25.138971 -0.672260
14.587176 -25.654755 -0.616283
14.307106 -24.113365 -0.763374
14.347840 -24.628454 -0.761948
14.229681 -25.159603 -0.714195
14.270855 -25.679777 -0.618465
13.988050 -24.140171 -0.754284
14.029202 -24.653826 -0.762760
13.912011 -25.185062 -0.713627
13.953855 -25.700264 -0.667660
13.668983 -24.165909 -0.752327
13.710595 -24.679527 -0.760807
13.594385 -25.210850 -0.710297
13.636480 -25.723080 -0.694191
13.349669 -24.190601 -0.757496
13.391750 -24.704319 -0.766003
13.276503 -25.235868 -0.714142
13.322100 -25.756807 -0.608521
13.029091 -24.211525 -0.789577
13.073571 -24.731913 -0.748585
12.959361 -25.263403 -0.695354
13.002397 -25.774570 -0.689228
12.710306 -24.239641 -0.769394
12.752874 -24.752472 -0.787891
12.640017 -25.285835 -0.723465
12.683680 -25.797508 -0.717415
12.391260 -24.266712 -0.756332
12.434200 -24.779512 -0.774849
12.321874 -25.311872 -0.718998
12.367279 -25.825504 -0.693111
12.069115 -24.287369 -0.789928
12.115681 -24.806871 -0.759029
12.001706 -25.335039 -0.741528
12.050555 -25.852877 -0.675999
11.749966 -24.315117 -0.771294
11.797338 -24.834551 -0.740437
11.684069 -25.362823 -0.721592
11.731030 -25.876879 -0.695850
11.428547 -24.339186 -0.779518
11.479195 -24.862545 -0.719086
11.363260 -25.386713 -0.738533
11.410189 -25.900343 -0.722828
11.109566 -24.367590 -0.755318
11.158579 -24.887295 -0.724632
11.045725 -25.415155 -0.713047
11.097926 -25.933254 -0.647816
10.782857 -24.385773 -0.807240
10.832760 -24.906509 -0.776772
10.720304 -25.435616 -0.763954
10.776717 -25.957417 -0.669212
10.462625 -24.413555 -0.787281
10.514416 -24.935528 -0.747032
10.701027 -25.742447 1.936172
10.399309 -25.461655 -0.762535
10.759041 -26.229427 2.064442
10.139009 -24.437761 -0.794067
10.508264 -25.277632 1.938965
10.187096 -24.955553 -0.793438
10.429628 -25.789104 2.155159
10.485498 -26.270660 2.253868
10.454647 -25.120298 4.208599
10.175678 -24.833330 2.024975
10.236197 -25.325882 2.149036
10.390566 -26.016964 4.142385
10.163097 -25.836750 2.386200
10.189695 -26.294434 2.247902
10.163482 -25.130829 4.123655
9.897594 -24.876495 2.178146
10.225983 -25.596552 4.271109
9.958235 -25.366095 2.292397
9.878521 -25.868279 2.461662
10.358902 -26.616407 5.639891
9.980112 -26.373966 2.876247
9.903439 -25.171173 4.267105
9.627638 -24.924847 2.372860
9.970413 -25.637487 4.434202
9.708038 -25.426897 2.615051
9.850227 -26.075312 4.272108
9.583382 -25.892050 2.460812
10.090578 -26.637167 5.625360
9.616847 -25.187504 4.226440
9.360802 -24.973211 2.569748
9.669287 -25.642305 4.285088
9.416563 -25.452461 2.635086
9.767237 -26.224306 5.530092
9.284855 -25.914183 2.442902
9.818682 -26.656557 5.593531
9.300217 -26.367807 2.245724
9.081092 -25.008986 2.670868
9.400240 -25.672373 4.354616
9.117176 -25.472721 2.608650
9.261454 -26.103157 4.096870
8.992180 -25.940605 2.466942
9.555605 -26.681356 5.623156
8.999889 -26.391264 2.230583
9.069330 -25.242609 4.319098
8.796070 -25.039921 2.735229
9.113657 -25.690401 4.318695
8.820345 -25.495594 2.604488
8.988214 -26.131386 4.150621
8.721783 -25.979952 2.621021
9.038257 -26.581562 4.182106
8.705740 -26.418423 2.257416
8.795414 -25.269911 4.364107
8.834916 -25.714342 4.334284
8.524845 -25.519926 2.612755
8.647411 -26.123287 3.834694
8.748512 -26.601576 4.140060
8.431293 -26.454945 2.394699
8.455036 -25.253038 4.060566
8.650303 -25.794483 4.850439
8.218027 -25.538015 2.565056
8.516806 -26.225731 4.646458
8.112819 -26.020733 2.544727
8.500622 -26.640743 4.325840
8.114029 -26.472015 2.299274
8.382981 -25.409813 5.132811
8.013731 -25.177004 3.283634
8.414421 -25.840334 5.065191
8.248725 -26.254320 4.706659
8.362993 -26.724266 5.051144
8.217727 -25.498085 5.669643
8.222263 -25.907700 5.476423
7.632999 -25.592764 2.633892
7.862414 -26.228851 4.204092
7.532435 -26.078167 2.635490
8.062319 -26.738230 4.937363
7.538524 -26.533257 2.429672
7.976910 -25.537403 5.819124
7.251883 -25.123169 2.492313
8.055811 -25.984278 5.976171
7.624666 -25.764990 3.984058
7.309193 -25.604536 2.526409
8.085939 -26.473482 6.526234
7.588577 -26.257481 4.260208
8.096823 -26.878134 6.375172
7.563914 -26.680176 3.930399
7.747079 -25.581575 6.009253
6.904966 -25.122452 2.301296
7.792640 -26.009354 6.010981
6.950217 -25.600958 2.276539
8.021059 -26.578302 7.405615
7.928514 -26.935419 6.808783
7.629741 -25.682835 6.664948
6.531373 -25.110563 2.017132
7.847844 -26.181942 7.403502
7.814401 -26.619995 7.625181
7.491814 -26.492731 6.268810
7.833810 -27.014574 7.524523
7.455514 -26.887413 5.923513
5.873552 -26.355656 -0.771603
7.419224 -25.731245 6.896189
6.649586 -25.347527 3.762035
7.618093 -26.215660 7.527222
7.517968 -26.626499 7.469135
7.641767 -27.057678 7.794333
7.121156 -26.890898 5.673658
7.344719 -25.842812 7.648582
7.463305 -26.280474 7.942068
6.921186 -26.051031 5.801538
7.396410 -26.697750 8.010796
7.446577 -27.098335 8.036385
7.305728 -25.963730 8.486603
6.638553 -25.658045 5.961063
7.297606 -26.337646 8.290163
7.117596 -26.710995 7.926702
6.133057 -26.371630 4.220221
7.293312 -27.149994 8.424368
7.055518 -25.984192 8.499275
7.080075 -26.372141 8.427876
4.571579 -25.396723 -0.797531
6.979447 -26.771820 8.364052
7.177867 -27.210032 8.928396
6.791506 -25.999235 8.466436
6.832120 -26.394621 8.452377
6.799360 -26.816587 8.629248
5.608545 -26.439577 4.441561
6.859050 -27.212906 8.683800
6.584954 -26.038486 8.636385
6.200164 -25.881969 7.320391
6.472960 -26.377531 8.096939
5.750724 -26.118523 5.612732
6.584053 -26.849213 8.761698
3.761473 -25.991701 -0.845604
6.585807 -27.229450 8.615047
6.257351 -26.029367 8.398832
5.444639 -25.711084 5.706791
6.224367 -26.401932 8.136419
5.468988 -26.141449 5.620241
3.529038 -25.472485 -0.841763
6.254840 -26.848154 8.514435
6.224422 -27.225300 8.262499
6.146659 -26.104691 8.876507
6.196739 -26.499874 8.891127
5.189714 -26.165709 5.639877
3.190387 -25.502264 -0.815094
6.036785 -26.880455 8.641766
5.623260 -26.764519 7.319777
3.079629 -26.051380 -0.811882
6.128977 -27.286196 8.790516
5.928302 -26.137375 8.994495
5.839598 -26.487303 8.572897
4.931340 -26.197071 5.728458
5.826485 -26.914484 8.789808
5.294409 -26.771040 7.139380
2.738003 -26.081848 -0.790272
5.841084 -27.301083 8.691154
5.649004 -26.148241 8.925516
5.656713 -26.531269 8.807241
5.615026 -26.947735 8.930019
5.732348 -27.355734 9.144247
5.335862 -26.148729 8.765249
2.068519 -25.041073 -0.833584
5.410259 -26.555189 8.844728
4.289567 -26.222466 5.535128
5.321601 -26.960112 8.826653
5.451049 -27.372469 9.068197
4.731715 -27.223181 6.952097
5.127714 -26.185411 8.918026
4.122332 -25.856129 6.046724
5.275187 -26.611271 9.204124
5.124901 -26.996901 9.008490
1.684221 -26.169382 -0.781555
5.273198 -27.410717 9.296448
4.857605 -26.201866 8.894648
1.341829 -25.088789 -0.872337
4.981242 -26.621468 9.104557
5.028944 -27.056421 9.463638
4.764513 -27.384815 8.596104
4.645060 -26.236681 9.032480
4.722734 -26.642326 9.110884
4.711312 -27.064177 9.301575
3.011619 -26.684450 4.721525
4.578326 -27.422508 8.810669
4.395398 -26.260052 9.069723
4.351003 -26.634468 8.821590
3.125854 -26.318445 5.579748
4.436337 -27.082579 9.264164
3.676601 -26.918898 7.270269
4.363333 -27.454464 8.942455
4.142075 -26.282669 9.100018
2.621358 -25.846508 5.198572
0.302355 -25.181385 -0.750900
4.193238 -26.682379 9.103132
2.655265 -26.298933 5.138226
4.145487 -27.098404 9.192392
4.247651 -27.503143 9.327106
4.143386 -26.376373 9.770002
4.072807 -26.738033 9.468708
3.960323 -27.136345 9.392088
3.010012 -26.945751 7.022661
3.989919 -27.527102 9.340960
3.446184 -26.278030 8.707544
2.766895 -26.095222 7.050695
-0.071028 -25.331491 0.128750
3.758550 -26.746738 9.345577
2.761218 -26.514181 6.901451
3.626188 -27.144846 9.224070
2.124269 -26.854088 5.571495
3.519964 -27.518028 8.839960
3.184481 -26.301062 8.737461
3.575940 -26.786448 9.547588
3.458788 -27.185951 9.464270
3.503899 -27.580719 9.449820
3.308076 -26.421919 9.665556
3.325450 -26.810656 9.585962
2.497468 -26.629847 7.653643
2.958787 -27.166248 8.926994
3.198115 -27.598707 9.360861
3.186150 -26.477062 9.997690
3.026800 -26.825001 9.517223
2.533332 -27.162920 8.587988
2.692978 -27.589609 8.827444
2.942316 -26.501631 10.048790
1.914796 -26.257149 7.771832
2.505646 -26.794746 8.960842
2.331427 -27.199554 8.763323
2.628791 -27.643095 9.302229
1.559358 -26.263435 7.635220
1.811625 -26.733986 8.058344
2.010172 -27.216415 8.677576
1.982728 -27.619230 8.497475
1.017802 -26.229498 7.115616
-2.779058 -25.378559 -0.922089
1.737251 -26.797974 8.518669
-2.690963 -25.947256 -0.897316
1.776218 -27.247988 8.784748
0.982023 -27.123117 7.107470
-2.792542 -26.529644 -0.864109
1.083393 -27.567804 7.196102
0.972898 -26.307470 7.652067
1.423738 -26.815464 8.466228
-3.082194 -25.976675 -0.902756
0.925776 -27.185915 7.618677
-0.048240 -27.037926 5.606962
0.880410 -27.606590 7.401533
-0.160325 -27.481228 5.242563
0.460257 -26.284006 7.223047
-0.963725 -25.983120 4.339539
-3.564805 -25.433514 -0.927563
0.650958 -26.750986 7.486832
-0.325491 -26.574829 5.500902
0.806626 -27.237543 7.985649
0.852195 -27.665287 7.957735
-0.467731 -27.512316 5.279207
-3.473985 -27.163914 -0.821373
0.459588 -26.368837 7.831944
-3.973088 -25.459114 -0.950886
0.580866 -26.815319 7.952877
0.530733 -27.265730 8.032015
-0.654265 -27.557329 5.559757
-3.879668 -27.197744 -0.844917
-0.111104 -26.337086 7.314686
-1.019357 -26.156006 5.553326
-4.337441 -25.494469 -0.881393
0.281090 -26.838840 7.956844
-0.502183 -26.706072 6.431309
-4.263722 -26.068476 -0.894802
0.030165 -27.263470 7.646635
0.287114 -27.722687 8.026096
-0.148806 -26.412260 7.836164
-1.174531 -26.213564 5.888731
-4.729766 -25.524868 -0.861206
0.040586 -26.872704 8.078720
-1.107940 -26.683968 5.888819
-0.263813 -27.291018 7.673880
-0.114506 -27.739727 7.839054
-1.290106 -27.618523 5.602055
-0.220925 -26.478626 8.277262
-0.203530 -26.905981 8.193899
-0.487329 -27.328066 7.835932
-0.279502 -27.781570 8.105799
-1.611482 -27.649561 5.623701
-5.092572 -27.304558 -0.863197
0.677319 -26.720678 10.472614
0.711180 -27.118311 10.428738
-0.719404 -26.897312 7.812500
-0.694658 -27.366976 8.026005
-0.604113 -27.807682 8.075460
0.531467 -26.765375 10.721249
0.453412 -27.144188 10.477325
-0.800653 -26.956337 8.230453
0.346575 -27.554905 10.437269
-0.798671 -27.846392 8.284115
0.245500 -26.785088 10.719725
0.284352 -27.183290 10.684496
0.103419 -27.584110 10.515663
-1.147311 -27.439648 8.332731
-1.154089 -27.870705 8.207737
-0.046528 -26.804409 10.712675
-0.117677 -27.189137 10.487370
-0.361088 -27.588835 10.217127
-6.815328 -26.868771 -0.824627
-1.416430 -27.903759 8.299536
-0.074664 -26.867510 11.154087
-1.945268 -26.561882 8.011423
-0.508904 -27.198034 10.321068
-1.923076 -27.004904 7.935438
-2.309554 -27.435585 7.446228
-7.248982 -26.903406 -0.838360
-2.173129 -27.897053 7.560497
-0.933968 -26.796825 10.214016
-2.392369 -26.565149 7.811563
-7.646754 -25.730459 -0.844093
-1.378947 -27.144953 9.374186
-2.297709 -27.023293 7.854490
-2.704194 -27.456833 7.343479
-2.296823 -27.942961 7.900892
-1.039567 -26.848204 10.532722
-2.901853 -26.560556 7.524126
-3.867093 -26.411465 5.964739
-2.502160 -27.064600 8.058224
-3.397489 -26.949652 6.605890
-2.617747 -27.527496 8.026285
-2.499816 -27.982260 8.105310
-3.234776 -27.927650 6.914993
-4.016984 -27.869530 5.648157
-1.502471 -26.844891 10.278141
-2.805165 -27.093342 8.102909
-3.038230 -27.546732 7.886646
-3.881230 -27.465040 6.552824
-3.695949 -27.950726 6.729750
-2.035657 -26.833305 9.929058
-3.448663 -26.626955 7.732418
-8.982039 -25.818880 -0.869698
-3.280885 -27.101715 7.881910
-4.560338 -27.464241 6.047861
-3.778449 -28.000942 7.147518
-4.636506 -27.942533 5.810198
-8.862029 -27.654903 -0.775478
-3.620126 -26.674923 7.994761
-9.430675 -25.849831 -0.868286
-4.558307 -27.018072 6.447094
-9.316112 -26.461630 -0.839333
-9.371638 -27.093750 -0.726112
-5.151278 -27.966248 5.582273
-9.275208 -27.697886 -0.724293
-2.337157 -26.923101 10.430183
-9.836680 -25.887638 -0.795528
-9.704490 -26.503387 -0.742516
-9.842013 -27.130117 -0.752811
-9.750146 -27.737677 -0.760155
-10.338548 -25.913195 -0.858604
-4.531091 -27.156500 7.561840
-10.216134 -26.532095 -0.823437
-10.314582 -27.167309 -0.774086
-10.171285 -27.781649 -0.707802
-4.740008 -26.736298 7.885571
-10.792136 -25.946367 -0.841988
-4.899297 -27.182335 7.544825
-10.674218 -26.567827 -0.816101
-10.766490 -27.207169 -0.757061
-10.672860 -27.821739 -0.765938
-11.276013 -25.976627 -0.860989
-11.156940 -26.601950 -0.836220
-11.242976 -27.245970 -0.767555
-11.125421 -27.865561 -0.744556
-11.727109 -26.012047 -0.825764
-11.606946 -26.640406 -0.802017
-11.698113 -27.287342 -0.740086
-11.579429 -27.910112 -0.718037
-12.214841 -26.043938 -0.833748
-12.087649 -26.676727 -0.803078
-12.201919 -27.326048 -0.771893
-12.058419 -27.954250 -0.718643
-12.716548 -26.075285 -0.852024
-12.576224 -26.713316 -0.806549
-12.684253 -27.367325 -0.765671
-12.539304 -27.999212 -0.713654
-13.178279 -26.112312 -0.808735
-13.078841 -26.749664 -0.820213
-13.192609 -27.407820 -0.785622
-13.046168 -28.043945 -0.734901
-13.720586 -26.141338 -0.862797
-13.559279 -26.789040 -0.796253
-13.678811 -27.450788 -0.767868
-13.524825 -28.090851 -0.710487
-14.204123 -26.177998 -0.831799
-14.053636 -26.828171 -0.782417
-14.141967 -27.496090 -0.713020
-14.017404 -28.138075 -0.696209
-14.695416 -26.214808 -0.802959
-14.543557 -26.868656 -0.754940
-14.681262 -27.537727 -0.746395
-14.530480 -28.185459 -0.699520
-15.169375 -26.254347 -0.745144
-15.028777 -26.910460 -0.713947
-15.197927 -27.581789 -0.742172
-15.045678 -28.233755 -0.696648
-15.733716 -26.285892 -0.789352
-15.572692 -26.948683 -0.736538
-15.691077 -27.628134 -0.700966
-15.562924 -28.282967 -0.687531
-16.230118 -26.325254 -0.742661
-16.093410 -26.989811 -0.721855
-16.237305 -27.672651 -0.714966
-16.082150 -28.333086 -0.672153
-16.832054 -26.355827 -0.811192
-16.674553 -27.027691 -0.769150
-16.812050 -27.716904 -0.752502
-16.622803 -28.383577 -0.673237
-17.384823 -26.392303 -0.811939
-17.199654 -27.070747 -0.741325
-17.356735 -27.763786 -0.745205
-17.178837 -28.434711 -0.682716
-17.913326 -26.432091 -0.776020
-17.772949 -27.111645 -0.759441
-17.916870 -27.811062 -0.746094
-17.750561 -28.486563 -0.700191
-18.470352 -26.470528 -0.763275
-18.328773 -27.154898 -0.748085
-18.472610 -27.859646 -0.732582
-18.304760 -28.539919 -0.688202
-19.056591 -26.507759 -0.772968
-18.913788 -27.197495 -0.759258
-19.023685 -27.909500 -0.704803
-18.894924 -28.593616 -0.706104
-19.645401 -26.546085 -0.775246
-19.474094 -27.242798 -0.733818
-19.617733 -27.958782 -0.713894
-19.446781 -28.649153 -0.672649
-20.264278 -26.583397 -0.798939
-20.091465 -27.285980 -0.759308
-20.200546 -28.009674 -0.700939
-20.034943 -28.705122 -0.668533
-20.858227 -26.623964 -0.785995
-20.683956 -27.331863 -0.748093
-20.820457 -28.060469 -0.716427
-20.660263 -28.761709 -0.692825
-21.447456 -26.666126 -0.758385
-21.257736 -27.379938 -0.707966
-21.393932 -28.113998 -0.674118
-21.253407 -28.819923 -0.673355
-22.081284 -26.706406 -0.765556
-21.904102 -27.425493 -0.731213
-22.011787 -28.167292 -0.666851
-21.841675 -28.879295 -0.639225
-22.682140 -26.750294 -0.729568
-22.503529 -27.474697 -0.696983
-22.667877 -28.220758 -0.686497
-22.467632 -28.939438 -0.632580
-23.285034 -26.795265 -0.685886
-23.133781 -27.523672 -0.682827
-23.269241 -28.276983 -0.642078
-23.038494 -29.001131 -0.562256
-23.889881 -26.841322 -0.634491
-23.737469 -27.575094 -0.632950
-23.930721 -28.332912 -0.644825
-23.756020 -29.063128 -0.622242
-24.525883 -26.886690 -0.602512
-24.430786 -27.623947 -0.657078
-24.624306 -28.389477 -0.665985
-24.382133 -29.126881 -0.583889
-25.193661 -26.931515 -0.589161
-25.038826 -27.677677 -0.590897
-25.261906 -28.448597 -0.623943
-25.047230 -29.191734 -0.571102
-25.945885 -26.973013 -0.640305
-25.760010 -27.728285 -0.617180
-25.961205 -28.507805 -0.626900
-25.752094 -29.257874 -0.582893
-26.649403 -27.018892 -0.634895
-26.432098 -27.782209 -0.587303
-26.407551 -29.325298 -0.538776
-27.408661 -27.063385 -0.665798
-15.576949 -28.227142 9.471188
-27.166958 -27.835360 -0.600941
-15.714017 -28.800898 9.475859
-27.300396 -28.631315 -0.545589
-27.118004 -29.394131 -0.531860
-28.034439 -27.116270 -0.569721
-27.874611 -27.890942 -0.578571
-28.106678 -28.693228 -0.604870
-15.964822 -29.402122 9.611069
-25.218769 -27.335690 2.411922
-28.615536 -27.946964 -0.572334
-28.778851 -28.758366 -0.537468
-16.065159 -29.450804 9.977770
-25.382111 -27.405483 2.856079
-29.243717 -28.007711 -0.460556
-16.474030 -28.948223 10.189573
-16.068783 -29.498360 10.420599
-25.602886 -27.472187 3.250404
-29.857563 -28.069950 -0.327988
-16.669067 -28.998051 10.476364
-16.168041 -29.546267 10.779802
-25.984219 -27.531790 3.515755
-31.083076 -27.316122 -0.525940
-25.997635 -28.243687 3.373955
-16.916279 -29.047503 10.721193
-16.419853 -29.595631 11.014385
-26.062603 -28.312798 3.890224
-17.003685 -29.097815 11.091282
-16.717125 -29.645765 11.214567
-22.430912 -27.818508 7.356504
-22.546856 -27.880987 7.771311
-16.923454 -28.629763 11.898262
-17.667297 -29.752651 11.354095
-22.803104 -27.938030 8.079214
-18.991272 -28.645414 10.788778
-21.692249 -29.247099 8.917587
-29.109035 -29.997324 3.314621
-19.397942 -28.116796 11.040701
-22.975777 -27.997841 8.448151
-22.875385 -28.637789 8.407253
-23.027893 -28.696478 8.788494
-29.047798 -30.120020 4.508944
-26.071957 -28.034622 7.259489
-23.774109 -28.747192 8.751139
-29.092510 -30.181850 5.041498
-24.186035 -28.803329 8.957285
-18.879124 -29.448023 12.726517
-24.533829 -28.211361 9.324579
-24.572323 -28.860266 9.185389
-29.197495 -29.575605 6.206015
-39.825066 -27.896368 -0.291828
-25.432419 -28.913765 9.103067
-29.082508 -30.360577 6.701666
-19.593330 -29.600540 13.511589
-29.052559 -30.418215 7.259569
-21.002739 -28.477709 13.014437
-29.108875 -30.477652 7.755657
14.268059 -29.250284 35.472530
14.221497 -29.248976 35.453560
14.212947 -29.253082 35.448582
14.274400 -29.250713 35.482086
14.210445 -29.249905 35.453358
14.237718 -29.252573 35.466118
14.263531 -29.248604 35.481377
14.254804 -29.252056 35.476707
14.244611 -29.249449 35.474644
14.226828 -29.253614 35.465778
14.243750 -29.249744 35.476528
14.262219 -29.252186 35.484482
14.206389 -29.251286 35.462143
14.224981 -29.254253 35.469872
14.232914 -29.250658 35.476334
14.214934 -29.255033 35.467926
14.213675 -29.251637 35.470501
14.232390 -29.254417 35.477924
14.213129 -29.255695 35.472225