# This PCD file was generated using the MATLAB® pcwrite function
# from Computer Vision System Toolbox®.
# .PCD v.7 - Point Cloud Data file format
VERSION .7
FIELDS x y z
SIZE 4 4 4
TYPE F F F
COUNT 1 1 1
WIDTH 892
HEIGHT 1
VIEWPOINT 0 0 0 1 0 0 0
POINTS 892
DATA ascii
9.094313 31.787388 -0.477392
9.703604 31.643154 -0.380386
9.014962 31.110241 -0.371012
9.621275 30.996149 -0.301243
8.946412 30.508776 -0.324421
9.527985 30.289087 -0.150747
8.899295 30.051931 -0.409512
9.480847 29.855051 -0.255714
8.846630 29.561026 -0.453640
9.438320 29.449572 -0.383587
8.785295 29.016220 -0.434557
9.348593 28.774122 -0.229328
8.630537 27.868656 0.223475
9.280560 28.227312 -0.194643
8.570541 27.341696 0.255009
9.147961 27.316156 0.237890
8.572560 27.216019 -0.137148
9.086061 26.812403 0.253843
8.553055 26.951876 -0.382223
9.076273 26.604794 -0.047136
8.495634 26.447102 -0.357979
9.061295 26.367640 -0.317123
8.442322 25.971165 -0.357111
9.012961 25.944656 -0.376141
8.368294 25.367458 -0.199579
8.956284 25.477417 -0.377382
8.335503 25.025785 -0.337376
8.920523 25.127695 -0.509253
8.302457 24.683750 -0.471500
8.862465 24.657131 -0.492172
8.261030 24.291010 -0.540340
8.796280 24.144939 -0.415300
8.223492 23.923979 -0.635666
8.765789 23.828690 -0.572054
8.182741 23.538752 -0.703457
8.725863 23.462496 -0.663153
8.128832 23.075058 -0.664595
8.676640 23.048025 -0.687300
8.059007 22.517553 -0.493244
8.600126 22.490835 -0.516609
7.988387 21.958948 -0.306494
8.541847 22.033524 -0.465942
7.935684 21.511366 -0.256723
8.438724 21.344151 -0.088861
7.897662 21.153667 -0.322573
8.411976 21.057514 -0.250755
7.876001 20.894222 -0.522627
8.376059 20.723951 -0.344965
7.784505 20.224461 -0.131678
8.247250 19.915199 0.250753
7.678211 19.473570 0.400322
8.197210 19.515181 0.274658
8.821182 19.925243 -0.684399
9.292466 19.679665 -0.386011
7.673657 19.319889 0.065876
8.188625 19.326757 -0.010971
8.758322 19.481762 -0.601521
9.264959 19.396969 -0.541882
7.702608 19.358473 -0.567848
8.217520 19.325426 -0.586740
8.706522 19.089863 -0.588213
9.208651 19.000395 -0.520287
7.674144 19.064396 -0.702171
8.186170 19.020277 -0.704638
8.668044 18.758270 -0.662579
9.153681 18.611094 -0.502434
7.639824 18.737673 -0.783159
8.136370 18.624605 -0.676485
8.610096 18.343061 -0.598595
9.102729 18.239347 -0.505339
7.588653 18.316772 -0.708366
8.086569 18.230976 -0.643742
8.571405 18.013216 -0.665279
9.062433 17.910292 -0.571779
7.554113 17.991684 -0.781780
8.048417 17.896088 -0.700008
8.527791 17.663334 -0.694435
9.027311 17.601887 -0.668831
7.514846 17.641346 -0.809052
8.012234 17.571857 -0.769854
8.498323 17.374672 -0.822594
8.991991 17.293266 -0.762814
7.468241 17.251867 -0.763714
7.973804 17.237875 -0.819170
8.454450 17.025879 -0.844713
8.952522 16.969681 -0.827925
7.436051 16.943687 -0.852255
7.937327 16.914326 -0.882265
8.402288 16.644039 -0.802485
8.895866 16.583317 -0.777330
7.399213 16.611040 -0.894293
7.895548 16.566835 -0.898619
8.367634 16.336266 -0.886377
8.860104 16.275663 -0.861313
7.356066 16.245510 -0.871727
7.853699 16.220453 -0.911242
8.318898 15.971776 -0.862349
8.808604 15.911521 -0.837484
7.316423 15.900590 -0.880219
7.807719 15.856421 -0.885075
8.273611 15.622987 -0.860626
8.762257 15.567641 -0.844711
7.280203 15.575402 -0.920286
7.768802 15.526528 -0.916559
8.235144 15.302943 -0.908079
8.720980 15.243153 -0.883509
7.237831 15.218896 -0.895010
7.718769 15.147403 -0.847256
8.186327 14.942969 -0.872509
8.664301 14.865640 -0.812725
7.194600 14.859619 -0.856955
7.677756 14.810977 -0.853682
8.123983 14.531948 -0.726145
8.602633 14.473061 -0.702095
7.147148 14.480223 -0.770273
7.630768 14.449349 -0.802982
8.079781 14.194066 -0.717989
8.561255 14.152709 -0.729834
7.111565 14.164165 -0.804953
7.588715 14.111393 -0.793139
8.035545 13.857537 -0.706251
8.509771 13.799184 -0.682531
7.078374 13.861450 -0.863482
7.554403 13.808679 -0.851776
8.004553 13.572528 -0.799170
8.259338 12.782185 0.809999
7.045035 13.558884 -0.919056
7.512237 13.472870 -0.835106
7.743926 12.430383 1.003067
7.966765 13.262465 -0.835110
8.194359 12.396341 0.979460
6.996847 13.182812 -0.808115
7.473874 13.154805 -0.851225
7.707636 12.136858 0.977575
8.164013 12.126583 0.899191
6.960940 12.870009 -0.829784
7.249723 12.054016 0.922813
7.682075 11.883341 0.863752
8.187158 12.029063 0.420269
6.779969 11.845678 0.809322
6.922545 12.546118 -0.820847
7.212789 11.753233 0.920036
7.711028 11.825776 0.284901
8.186384 11.851197 0.114677
6.735055 11.498646 0.919659
7.205607 11.576249 0.626333
7.663248 11.490657 0.357710
8.120019 11.465815 0.305988
6.738157 11.384818 0.471027
7.224628 11.504135 0.066101
7.662075 11.320654 0.028034
8.102964 11.235778 0.123783
6.754385 11.330655 -0.144510
7.212405 11.301854 -0.189753
7.622494 11.015532 0.032503
8.076035 10.974720 0.017351
6.724905 11.057094 -0.222408
7.177007 11.006141 -0.212200
7.587034 10.725612 0.002855
8.030003 10.656415 0.061766
6.697513 10.793727 -0.325783
7.138823 10.700439 -0.203810
7.559727 10.463780 -0.098600
8.002727 10.394878 -0.039576
6.654105 10.456986 -0.230391
7.088146 10.347713 -0.061476
7.523993 10.174074 -0.122908
7.956624 10.078735 0.010925
6.621216 10.170009 -0.262802
7.066755 10.109066 -0.224775
7.475979 9.845284 -0.031794
7.924400 9.803703 -0.047831
6.584543 9.866903 -0.245419
7.028432 9.806273 -0.207418
7.441165 9.560740 -0.059607
7.895449 9.538108 -0.132278
6.546397 9.558544 -0.206135
6.976266 9.453589 -0.036053
7.416222 9.307881 -0.179165
7.858335 9.250086 -0.148323
6.498952 9.211070 -0.040619
6.951723 9.204205 -0.163710
7.371220 8.992763 -0.107145
7.807609 8.926228 -0.048065
6.474406 8.964671 -0.175293
6.920116 8.929198 -0.213345
7.335116 8.706409 -0.117390
7.776024 8.655066 -0.105736
6.440466 8.678229 -0.184103
6.881660 8.630568 -0.184294
7.298935 8.420659 -0.124910
7.737617 8.366479 -0.103849
6.405759 8.389523 -0.180635
6.842370 8.330352 -0.142765
7.258832 8.124328 -0.091507
7.695852 8.070333 -0.070574
6.366233 8.082056 -0.107365
6.803918 8.034383 -0.107840
7.226356 7.851064 -0.131811
7.658455 7.786304 -0.072662
6.334845 7.809125 -0.146227
6.772762 7.763997 -0.156385
7.182413 7.546185 -0.054417
7.616663 7.492484 -0.033695
6.303982 7.538845 -0.192225
6.737446 7.480412 -0.154390
7.150706 7.276521 -0.099073
7.583466 7.220307 -0.068777
6.269699 7.255723 -0.187540
6.701277 7.195012 -0.140076
7.116997 7.001812 -0.122005
7.545881 6.938388 -0.062830
6.230208 6.953652 -0.102819
6.660375 6.895857 -0.065063
7.077682 6.713044 -0.084400
7.512459 6.666686 -0.092865
6.198429 6.682209 -0.131414
6.631147 6.634038 -0.132402
7.043811 6.439359 -0.102163
7.475777 6.388240 -0.091391
6.163400 6.399419 -0.108980
6.594848 6.351182 -0.110069
7.007145 6.159321 -0.088289
7.436956 6.106029 -0.067919
6.129576 6.122026 -0.103348
6.560029 6.073688 -0.104532
6.970435 5.880106 -0.071796
7.403241 5.835379 -0.090397
6.097509 5.851672 -0.124405
6.524405 5.794755 -0.086674
6.933686 5.601740 -0.052702
7.362296 5.550696 -0.042244
6.064731 5.579462 -0.133240
6.494623 5.532858 -0.144346
6.901242 5.334056 -0.079847
7.327411 5.279058 -0.049929
6.030100 5.301763 -0.110231
6.458850 5.254990 -0.121447
6.863517 5.055155 -0.045883
7.289445 5.002229 -0.025816
5.998323 5.034316 -0.133682
6.425907 4.985436 -0.135174
6.830026 4.786304 -0.058325
7.259346 4.740510 -0.077471
5.965287 4.763379 -0.135086
6.392859 4.716131 -0.146469
6.799788 4.524538 -0.107613
7.225156 4.471615 -0.087595
5.932726 4.494582 -0.143873
6.359012 4.445413 -0.145502
6.762737 4.249400 -0.075937
7.187963 4.198188 -0.065828
5.900064 4.226076 -0.150244
6.325771 4.176754 -0.151932
6.728944 3.981392 -0.081118
7.157433 3.936204 -0.110418
5.869993 3.965523 -0.203537
6.295813 3.915962 -0.205259
6.699101 3.720960 -0.133196
7.126727 3.673860 -0.152710
5.833928 3.688584 -0.145864
6.259002 3.640396 -0.157557
6.668267 3.458652 -0.173128
7.092100 3.405786 -0.153242
5.802031 3.423880 -0.164785
6.225481 3.372740 -0.156759
6.630952 3.185792 -0.131664
7.052748 3.131772 -0.101984
5.766456 3.150315 -0.112017
6.189935 3.101700 -0.123861
6.593632 2.914007 -0.087709
7.022581 2.870758 -0.147097
5.735370 2.888670 -0.146002
6.158813 2.839747 -0.157887
6.562459 2.652174 -0.120554
6.984068 2.599487 -0.100838
5.704608 2.627856 -0.187614
6.127527 2.577524 -0.189611
6.531123 2.390083 -0.151096
6.952728 2.337361 -0.131386
5.673188 2.365608 -0.217010
6.093006 2.310076 -0.169374
6.499627 2.127753 -0.179340
6.921228 2.074996 -0.159630
5.639280 2.098499 -0.194376
6.059035 2.044169 -0.156687
6.464287 1.860961 -0.155596
6.886069 1.809088 -0.145864
5.608052 1.837084 -0.229080
6.030337 1.786151 -0.231167
6.429624 1.595596 -0.139412
6.854299 1.546651 -0.169472
5.570420 1.564754 -0.122034
5.993795 1.517505 -0.173994
6.398474 1.334123 -0.170628
6.818957 1.281401 -0.151009
5.542470 1.309187 -0.231812
5.963573 1.257225 -0.223997
6.366448 1.071728 -0.189598
6.790303 1.021260 -0.209770
5.509942 1.046105 -0.239656
5.932014 0.995150 -0.251793
6.334275 0.809196 -0.206263
6.754749 0.756404 -0.186647
5.476048 0.781583 -0.215250
5.897530 0.730387 -0.227427
6.301957 0.546545 -0.220621
6.726542 0.495713 -0.250797
5.443707 0.519277 -0.228437
5.865150 0.467771 -0.240631
6.269496 0.283796 -0.232676
6.689962 0.230933 -0.213064
5.413186 0.258493 -0.289255
5.834752 0.206284 -0.291451
6.234242 0.019994 -0.202522
6.648540 -0.034417 -0.113194
5.378606 -0.005578 -0.247902
5.802050 -0.056835 -0.300053
6.193717 -0.244430 -0.090221
6.614335 -0.296665 -0.100670
5.345850 -0.268088 -0.254175
5.762088 -0.321839 -0.166538
6.161017 -0.505969 -0.095325
6.579259 -0.558659 -0.075869
5.311522 -0.530875 -0.218170
5.727775 -0.583957 -0.140537
6.128186 -0.767527 -0.098131
6.546423 -0.820252 -0.078678
5.277150 -0.792977 -0.179859
5.695343 -0.845731 -0.152184
6.095225 -1.029082 -0.098642
6.513458 -1.081843 -0.079189
5.243075 -1.054487 -0.149235
5.659905 -1.106895 -0.101603
6.062139 -1.290616 -0.096855
5.921482 -1.188843 7.380093
6.479619 -1.343206 -0.067429
5.208614 -1.315248 -0.106329
5.626778 -1.368238 -0.098669
6.028927 -1.552109 -0.092770
6.447150 -1.604941 -0.073315
5.176329 -1.577254 -0.131075
5.593982 -1.629831 -0.103424
5.993246 -1.812090 -0.046482
6.413813 -1.866407 -0.066933
5.143247 -1.838966 -0.133535
5.562372 -1.892690 -0.135830
5.962142 -2.074889 -0.077711
6.380356 -2.127792 -0.058254
5.109731 -2.100303 -0.123711
5.528828 -2.154251 -0.125996
5.924054 -2.331855 0.013020
6.363654 -2.402340 -0.286320
5.076948 -2.363160 -0.141533
5.493484 -2.413456 -0.073961
5.908176 -2.612187 -0.292639
6.349070 -2.683471 -0.551699
5.043171 -2.624514 -0.127104
5.462625 -2.678961 -0.129349
5.819870 -2.804432 0.719061
6.311967 -2.946083 -0.496069
5.007723 -2.881419 -0.050552
5.441062 -2.963138 -0.421524
5.806475 -3.088092 0.368156
6.274843 -3.207839 -0.438150
4.984995 -3.178049 -0.479980
5.414823 -3.244293 -0.611427
5.818660 -3.422879 -0.487343
6.242966 -3.475907 -0.457464
4.954495 -3.457362 -0.627670
5.377475 -3.503497 -0.520069
5.783485 -3.686580 -0.454607
6.208306 -3.740524 -0.434671
4.918075 -3.715992 -0.533981
5.342734 -3.768228 -0.496094
5.750717 -3.955151 -0.469223
6.178628 -4.013480 -0.488930
4.884077 -3.984854 -0.547434
5.310365 -4.040276 -0.539339
5.715813 -4.219608 -0.441750
6.141178 -4.273691 -0.421766
4.849685 -4.253002 -0.548555
5.277054 -4.310944 -0.560280
5.684608 -4.493604 -0.491261
6.111074 -4.547858 -0.471197
4.813975 -4.513993 -0.487761
5.240558 -4.570940 -0.489552
5.649422 -4.758199 -0.459063
6.078289 -4.817801 -0.478563
4.780228 -4.788680 -0.533726
5.207889 -4.845992 -0.535440
5.617755 -5.033665 -0.503674
6.045318 -5.088124 -0.483522
4.744853 -5.053187 -0.497990
5.171253 -5.105033 -0.460102
5.582294 -5.298315 -0.466732
6.012166 -5.358807 -0.486053
4.710651 -5.329279 -0.539026
5.139063 -5.385671 -0.530752
5.550176 -5.575162 -0.506401
5.978835 -5.629827 -0.486162
4.676033 -5.604807 -0.567657
5.105680 -5.663053 -0.569191
5.516536 -5.848051 -0.513973
5.947548 -5.907846 -0.523212
4.640767 -5.876170 -0.564194
5.069843 -5.927994 -0.526251
5.483510 -6.124881 -0.538757
5.913819 -6.179819 -0.518391
4.604834 -6.140831 -0.518906
5.034973 -6.199593 -0.520338
5.449060 -6.397023 -0.531532
5.882047 -6.459428 -0.550379
4.569715 -6.419723 -0.549932
5.000930 -6.478849 -0.551279
5.414441 -6.669416 -0.521854
5.845847 -6.724558 -0.501400
4.534335 -6.699536 -0.578379
4.965673 -6.751289 -0.540407
5.379653 -6.942039 -0.509720
5.811099 -6.995271 -0.479439
4.498342 -6.972240 -0.565046
4.931157 -7.032023 -0.566236
5.344702 -7.214867 -0.495121
5.779194 -7.278594 -0.513636
4.462186 -7.245141 -0.549244
4.895524 -7.305216 -0.550365
5.310977 -7.496534 -0.517086
5.744581 -7.552048 -0.496454
4.426453 -7.537746 -0.618826
4.860746 -7.589522 -0.580801
5.276999 -7.779038 -0.536425
5.711705 -7.834721 -0.515709
4.389446 -7.793694 -0.519966
4.823202 -7.845281 -0.481991
5.241474 -8.053029 -0.514256
5.678577 -8.118209 -0.532330
4.353134 -8.085842 -0.574501
4.789106 -8.144597 -0.565632
5.208292 -8.346465 -0.567188
5.645201 -8.402485 -0.546301
4.316243 -8.360060 -0.548603
4.752917 -8.421462 -0.549374
5.172366 -8.621339 -0.539873
5.609823 -8.677459 -0.518940
4.279345 -8.654410 -0.597658
4.717023 -8.706150 -0.559605
5.137445 -8.906618 -0.548679
5.576004 -8.962905 -0.527662
4.242084 -8.939799 -0.605227
4.681320 -8.999391 -0.596115
5.100897 -9.179278 -0.506636
5.541942 -9.249068 -0.533699
4.204584 -9.225893 -0.610106
4.644376 -9.274997 -0.562389
5.065820 -9.468299 -0.519793
5.507641 -9.535922 -0.537043
4.166915 -9.501637 -0.573832
4.607893 -9.564488 -0.574181
5.029215 -9.743984 -0.482258
5.471539 -9.812040 -0.499367
4.128989 -9.788730 -0.573391
4.571370 -9.860517 -0.602377
4.995369 -10.054647 -0.556953
5.438334 -10.111602 -0.535589
4.091200 -10.050149 -0.484159
4.533570 -10.128263 -0.532122
4.960183 -10.355255 -0.590372
5.404802 -10.412441 -0.568882
4.052228 -10.376797 -0.602482
4.496645 -10.428712 -0.564342
4.922931 -10.632457 -0.544752
5.367743 -10.686645 -0.513714
4.013565 -10.666028 -0.593735
4.459104 -10.717975 -0.555584
4.886372 -10.922221 -0.534527
5.334018 -10.992394 -0.550800
3.974752 -10.952641 -0.572744
4.421523 -11.017352 -0.572500
4.849394 -11.209278 -0.512079
5.298289 -11.283191 -0.537611
3.935564 -11.246119 -0.567951
4.383498 -11.307939 -0.558130
4.814041 -11.529959 -0.581198
5.176479 -10.678227 2.002583
5.262980 -11.581185 -0.540483
3.896735 -11.520264 -0.503756
4.345292 -11.602374 -0.550402
4.731112 -10.908312 1.956642
4.776382 -11.815095 -0.543617
5.133013 -10.831716 2.332840
5.227096 -11.876565 -0.531061
3.856235 -11.841863 -0.568644
4.300027 -10.994791 1.930416
4.306871 -11.900879 -0.549215
4.690756 -11.046332 2.326334
4.739823 -12.128284 -0.578314
5.192160 -12.186594 -0.556225
3.847875 -11.249655 1.824356
3.815679 -12.154884 -0.602087
4.263971 -11.142672 2.273018
4.268286 -12.224745 -0.610641
4.702029 -12.421452 -0.553799
5.069790 -11.399981 2.276665
3.817544 -11.346466 2.299719
3.775450 -12.451415 -0.585659
4.229259 -12.521732 -0.594051
4.624098 -11.630445 2.238134
5.035659 -11.658430 2.322639
3.734544 -12.759466 -0.594263
4.192804 -11.772020 2.076046
4.588450 -11.870657 2.333080
4.999829 -11.894367 2.426643
3.738801 -12.007319 2.034115
4.156911 -12.013418 2.172691
4.552791 -12.110023 2.430138
4.964259 -12.133126 2.523455
3.702749 -12.248846 2.133291
4.121007 -12.253954 2.271458
4.517516 -12.364093 2.492455
4.928680 -12.371021 2.622364
3.666689 -12.489490 2.234589
4.085141 -12.489695 2.381542
4.481791 -12.602028 2.593849
4.893095 -12.608035 2.723364
3.637480 -12.590084 2.659081
4.050157 -12.664470 2.631180
4.446064 -12.839061 2.697334
4.858571 -12.864488 2.780787
3.600583 -12.850467 2.708549
4.013328 -12.966131 2.589550
4.410649 -13.095820 2.757370
4.823524 -13.112518 2.858831
3.560246 -13.172866 2.623972
3.977094 -13.219563 2.660305
4.375217 -13.360844 2.801697
4.787838 -13.347409 2.966347
3.567374 -12.625765 4.419819
3.527288 -13.354409 2.851261
3.941795 -13.426138 2.833101
4.336159 -13.244494 3.652683
4.740460 -13.297330 3.671579
3.524371 -13.009579 4.181301
3.916467 -13.229985 3.846666
4.301574 -13.520289 3.662872
4.717972 -13.853737 3.106680
3.490437 -13.228036 4.298286
3.435232 -14.171458 2.355993
3.888608 -13.201497 4.477339
3.870076 -13.894486 3.057541
4.265638 -13.472540 4.329920
4.267535 -14.032259 3.201065
4.682660 -14.099780 3.193861
3.459213 -13.400927 4.506687
3.378425 -14.743359 1.802664
3.306733 -15.934657 -0.596935
3.825445 -14.430676 2.564405
4.231802 -14.295521 3.254683
4.646865 -14.331669 3.310055
3.417366 -13.747514 4.368507
3.260324 -16.289015 -0.641533
3.809552 -14.000108 3.993980
3.787109 -14.722058 2.577513
4.195567 -14.742686 2.955648
4.604739 -14.336491 3.862989
3.215205 -16.617661 -0.628971
3.777128 -14.150777 4.252132
3.693246 -16.681078 -0.608004
4.162682 -14.191300 4.563213
4.158062 -15.233388 2.591684
4.576028 -14.820475 3.495558
3.320498 -14.623561 3.777800
3.169168 -16.956585 -0.630623
3.745600 -14.283888 4.537453
3.649743 -17.010960 -0.591875
4.126708 -14.648557 4.240704
4.545500 -15.287965 3.178553
3.296751 -14.673909 4.225340
3.123406 -17.287199 -0.611050
3.708885 -14.565702 4.541969
3.605932 -17.341734 -0.572271
4.081192 -16.019487 2.277620
4.066407 -17.621437 -0.630291
4.509396 -15.534399 3.278917
3.279468 -14.635513 4.820553
3.228772 -15.383718 3.464045
3.075049 -17.652462 -0.649250
3.661312 -15.119781 4.059752
3.560118 -17.716972 -0.627888
4.053741 -15.367008 3.997528
4.023946 -17.954557 -0.604872
4.473166 -15.775248 3.390280
3.254006 -14.725167 5.169285
3.027920 -17.995089 -0.639797
3.515193 -18.059942 -0.618309
4.008649 -16.288204 2.910982
3.980844 -18.313353 -0.619301
4.442168 -16.389677 2.854017
3.191299 -15.347398 4.581732
3.122184 -16.327938 2.874495
2.981147 -18.328838 -0.609312
3.552186 -16.470627 2.746422
3.469072 -18.423977 -0.639669
3.971730 -16.506973 3.072729
4.403676 -16.517891 3.171320
3.084603 -16.566788 3.003038
3.510495 -16.802074 2.720646
3.422964 -18.779510 -0.639725
3.934642 -16.739470 3.210508
4.367431 -16.832008 3.171490
3.125694 -15.728096 4.935116
3.050782 -16.753311 3.219505
2.884851 -19.024166 -0.580574
3.481859 -16.841885 3.187227
3.378125 -19.100330 -0.575851
3.891461 -17.277483 2.846375
3.849898 -19.357048 -0.570305
4.330155 -17.042971 3.345774
3.069765 -16.230099 4.597698
3.006008 -17.088074 3.189749
2.962344 -17.675657 2.225519
3.488656 -16.149494 4.837685
3.441757 -17.135757 3.226107
3.330838 -19.468344 -0.585407
3.854796 -17.464413 3.067375
3.805372 -19.715775 -0.560547
4.293468 -17.357887 3.351997
3.042043 -16.348787 4.895266
2.929343 -17.841112 2.493357
2.782394 -19.786934 -0.638462
3.404274 -17.371935 3.361412
3.283906 -19.821993 -0.565371
3.841096 -16.697218 4.793762
3.816475 -17.728937 3.162857
4.256694 -17.797216 3.167580
4.261419 -20.151175 -0.537949
3.001282 -16.639925 4.914446
2.732290 -20.147032 -0.622829
3.400515 -16.941765 4.544758
3.236624 -20.176672 -0.541439
3.713943 -20.485542 -0.604713
4.219301 -16.914837 5.037006
4.219084 -18.045288 3.291016
4.218609 -20.518152 -0.528336
2.976689 -16.720549 5.264214
2.861102 -18.205290 2.964258
2.680550 -20.524521 -0.628368
3.309808 -18.216068 3.059626
3.185877 -20.592154 -0.605858
3.668953 -20.820929 -0.540754
4.181466 -18.286974 3.425125
2.899396 -17.471712 4.586893
2.837387 -18.256914 3.393366
3.335979 -17.252741 5.022722
3.270700 -18.470327 3.179541
3.138074 -20.944059 -0.565212
3.704218 -18.408642 3.631100
3.674560 -19.421074 2.118982
3.621763 -21.223419 -0.572922
4.147866 -17.618216 4.914179
2.781098 -18.719646 3.198973
2.574433 -21.300709 -0.651352
3.219574 -18.941471 2.978497
3.085965 -21.369282 -0.628496
3.697572 -17.644466 5.239313
3.575098 -21.594131 -0.550787
4.112108 -17.857443 5.028303
4.106507 -18.727646 3.757748
2.845940 -17.682741 5.213243
2.746739 -18.905308 3.423166
2.518622 -21.716646 -0.693197
3.034835 -21.768814 -0.645409
3.658946 -17.960754 5.239349
4.085020 -17.060297 6.629135
4.077467 -17.958616 5.341551
2.802653 -17.993120 5.222939
2.467875 -22.066357 -0.631653
3.157784 -19.148211 3.668549
2.984865 -22.141535 -0.616661
3.651863 -17.348330 6.556938
3.624118 -18.156984 5.414436
4.050233 -17.389521 6.592110
4.041618 -18.223629 5.418316
2.753741 -18.368103 5.146568
3.235100 -17.428328 6.566193
3.174848 -18.448042 5.132963
2.930075 -22.590628 -0.689543
3.615237 -17.632368 6.588663
4.015062 -17.714714 6.567181
2.787432 -17.757824 6.443619
2.697838 -18.821657 4.969633
3.198552 -17.677141 6.647867
3.580560 -17.857918 6.704189
3.982373 -17.833925 6.827921
3.905993 -23.279875 -0.561817
2.736290 -18.161655 6.319756
3.137012 -18.329245 6.185335
3.544922 -18.106663 6.789877
3.946091 -18.201963 6.753067
3.858537 -23.741556 -0.629217
2.701951 -18.365414 6.473063
3.111502 -18.390297 6.531401
3.013015 -19.956947 4.446215
3.509165 -18.355190 6.878168
3.905284 -18.797159 6.388908
3.874189 -20.569773 4.068718
3.811892 -24.121067 -0.579603
2.687189 -18.343878 6.922047
3.089731 -18.398125 6.940237
3.480728 -18.425919 7.198231
3.384811 -20.715826 4.242775
3.226832 -24.487436 -0.625036
3.872721 -18.896507 6.680613
2.618398 -18.940245 6.564129
2.128627 -24.503956 -0.607574
3.047144 -18.731750 6.921743
2.905343 -20.905075 4.131018
2.662999 -24.619371 -0.638443
3.448025 -18.603868 7.376524
3.848148 -18.632156 7.426981
3.715353 -24.988062 -0.600626
2.610369 -18.844759 7.100405
3.006593 -19.029747 6.954342
2.904795 -20.562891 5.020433
2.606404 -25.056797 -0.648197
3.412390 -18.848888 7.470480
3.817051 -18.726484 7.707668
2.576554 -19.041681 7.259724
2.002836 -25.428680 -0.685160
3.046251 -18.136393 8.467718
2.975495 -19.184200 7.169262
2.868726 -20.765324 5.209911
3.376065 -19.106258 7.551548
3.310559 -20.529425 5.810051
3.778914 -19.128019 7.609514
2.625966 -18.320457 8.541115
2.378242 -21.051727 5.203274
1.943004 -25.850418 -0.661129
2.994687 -18.607082 8.272978
2.818427 -21.175215 5.146297
2.495502 -25.880287 -0.582090
3.343827 -19.274082 7.743011
3.240927 -21.447262 5.130220
3.747653 -19.237803 7.869770
2.581109 -18.645504 8.527071
2.952886 -18.928621 8.268820
2.809942 -20.978975 5.816143
3.181715 -22.113472 4.777407
2.957430 -26.724306 -0.669563
3.709567 -19.609888 7.817871
2.513762 -19.210897 8.235371
2.929012 -18.992620 8.573008
3.286712 -19.466902 8.288713
3.685151 -19.487228 8.345608
2.481010 -19.397949 8.397917
2.253685 -21.836327 5.571217
2.893917 -19.216196 8.687889
2.709364 -21.785805 5.720070
2.846470 -27.619183 -0.633396
3.647221 -19.845608 8.314106
3.542551 -23.326187 4.358412
3.410869 -27.704979 -0.618107
2.468161 -19.372866 8.802130
2.858770 -19.439140 8.805084
2.668293 -22.054026 5.837307
3.224998 -19.766203 8.700224
3.601229 -20.445992 8.019094
2.475046 -19.142763 9.427561
2.365324 -20.299656 8.132507
1.618705 -28.171833 -0.679811
2.816683 -19.754778 8.820475
2.183982 -28.322573 -0.735416
3.197881 -19.848808 8.977770
3.591550 -19.908226 8.989298
2.433359 -19.426893 9.471363
2.318454 -20.628445 8.149557
2.200981 -21.856846 6.798214
2.777759 -20.024406 8.891455
3.173054 -19.894146 9.291872
3.027969 -22.545313 6.421619
3.556726 -20.164026 9.076017
2.390095 -19.725176 9.503960
2.271207 -20.958380 8.170738
2.739151 -20.287420 8.972893
3.129273 -20.284508 9.233839
3.507354 -20.824459 8.736578
1.777705 -25.878109 3.320711
2.750894 -19.892147 9.754263
2.668266 -20.968754 8.614531
3.090008 -20.587500 9.274969
3.478964 -20.883007 9.041796
2.220198 -21.166048 8.701160
2.053966 -22.863647 6.928558
2.704422 -20.259909 9.720800
3.031819 -21.211742 8.990429
3.448151 -21.014612 9.267778
3.357297 -23.396175 6.828926
2.193881 -21.279230 8.952360
2.007721 -23.166069 7.016058
2.623400 -21.062490 9.249674
3.031375 -20.844154 9.723501
2.869547 -23.578596 6.961483
3.432313 -20.770399 9.870329
2.179764 -21.270206 9.324368
1.945201 -23.630161 6.944204
2.595342 -21.184420 9.484688
2.964434 -21.599941 9.322361
3.381248 -21.419838 9.574306
2.099690 -21.922249 9.034557
2.555580 -21.452974 9.572952
2.929964 -21.806330 9.477121
2.658238 -26.239758 5.151516
3.337797 -21.860828 9.497150
2.106841 -21.702000 9.610714
2.513894 -21.743011 9.643530
2.900012 -21.939491 9.703089
2.828118 -23.093172 8.596813
3.308876 -21.950560 9.764519
2.105839 -21.567101 10.091753
2.450020 -22.300604 9.462711
2.850053 -22.390192 9.628403
3.267457 -22.328686 9.758247
1.947775 -22.972511 9.113317
1.805981 -24.359728 7.808090
2.393556 -22.760885 9.385727
2.691436 -24.521961 8.005739
3.195242 -23.376823 9.140234
1.796647 -24.293682 8.252874
1.664811 -25.574919 7.068159
2.358503 -22.959822 9.558758
2.229936 -24.493929 8.145222
2.129051 -25.697725 7.036036
2.760532 -23.107975 9.672997
2.690597 -24.179045 8.698097
3.151152 -23.778313 9.136587
1.944887 -22.709024 10.069445
2.327892 -23.105623 9.780626
2.614030 -24.994761 8.337385
3.116826 -23.965174 9.331242
2.992642 -26.576275 7.003853
1.872144 -23.266510 9.917469
2.324887 -22.928671 10.288786
2.709661 -23.230415 10.264164
3.064693 -24.518734 9.204960
1.844775 -23.386099 10.161736
2.286755 -23.165350 10.424479
2.647322 -23.838226 10.082542
3.060935 -24.084002 9.940783
2.991284 -25.485147 8.734785
1.730841 -24.326057 9.697079
2.226167 -23.658655 10.341755
2.599111 -24.230000 10.097479
3.027695 -24.256397 10.144796
2.937075 -26.041733 8.634844
2.156755 -24.246510 10.188982
2.543442 -24.722906 10.034653
2.403975 -26.716845 8.371897
2.992605 -24.465431 10.318396
2.329455 -27.443041 8.156475
2.893796 -25.880598 9.508398
2.373517 -26.502583 9.298159
2.309935 -27.389259 8.584465
2.833220 -26.539797 9.340548
2.306582 -27.118664 9.177078
2.780513 -27.038918 9.312538
2.216052 -28.046190 8.826408
2.722258 -27.627310 9.224451
2.181452 -28.203846 9.083799
2.698702 -27.590876 9.622725
2.118298 -28.742540 9.055071
2.625128 -28.430075 9.361420
4.206898 -0.921190 29.905533
4.211323 -0.905375 29.917429
2.532638 -29.130569 9.596188
4.202539 -0.972807 29.874868
4.210349 -0.915861 29.915003
4.208566 -0.941791 29.899857
4.203894 -0.950947 29.896006
4.206724 -0.967994 29.885153
4.202940 -0.960608 29.892550
4.208021 -0.944368 29.903763
4.203331 -0.953584 29.900080
4.206121 -0.970819 29.889519
4.205818 -0.921171 29.923496
4.210247 -0.904666 29.934370
4.202775 -0.956151 29.904202
4.207778 -0.939617 29.914963
4.206767 -0.906306 29.937431
4.206949 -0.949316 29.911709
4.205831 -0.915840 29.933956
4.210763 -0.890472 29.949484
4.208791 -0.917204 29.935883