# This PCD file was generated using the MATLAB® pcwrite function
# from Computer Vision System Toolbox®.
# .PCD v.7 - Point Cloud Data file format
VERSION .7
FIELDS x y z
SIZE 4 4 4
TYPE F F F
COUNT 1 1 1
WIDTH 765
HEIGHT 1
VIEWPOINT 0 0 0 1 0 0 0
POINTS 765
DATA ascii
-20.208452 -10.340571 -1.154352
-20.434185 -10.001383 -1.141987
-19.843784 -10.125620 -1.143408
-20.081064 -9.797397 -1.143995
-19.480562 -9.912073 -1.126469
-19.694204 -9.577369 -1.109062
-19.139515 -9.710626 -1.122532
-19.350863 -9.379565 -1.105627
-18.792927 -9.506936 -1.106688
-19.001913 -9.179640 -1.090284
-18.502155 -9.332519 -1.136850
-18.736803 -9.021495 -1.146648
-18.185160 -9.145164 -1.136396
-18.390261 -8.823954 -1.120876
-17.869356 -8.958978 -1.130905
-18.072374 -8.641051 -1.115843
-17.528187 -8.760439 -1.093796
-17.755733 -8.459346 -1.105797
-17.241550 -8.590226 -1.104918
-17.440393 -8.278864 -1.090767
-16.962437 -8.424315 -1.118382
-17.159546 -8.115634 -1.104631
-16.651697 -8.242912 -1.093340
-16.873032 -7.950176 -1.107378
-16.368248 -8.075821 -1.091034
-16.587578 -7.785748 -1.105730
-16.060272 -7.896914 -1.056486
-16.277313 -7.609984 -1.071882
-15.830153 -7.757553 -1.101486
-16.020029 -7.460073 -1.089365
-15.549960 -7.593554 -1.086420
-15.763535 -7.310981 -1.103029
-15.271006 -7.430677 -1.067068
-15.482564 -7.150764 -1.084318
-15.042969 -7.293560 -1.101170
-15.227971 -7.003516 -1.090166
-14.815423 -7.157040 -1.132004
-14.974288 -6.857150 -1.092255
-14.539612 -6.997094 -1.100908
-14.727719 -6.714570 -1.097935
-14.295436 -6.853202 -1.102598
-14.475911 -6.569989 -1.092640
-14.040194 -6.704313 -1.085815
-14.219065 -6.423538 -1.076220
-13.815806 -6.570936 -1.102793
-13.999428 -6.294772 -1.100998
-13.568548 -6.426809 -1.086330
-13.744629 -6.150186 -1.077383
-13.299118 -6.272389 -1.035761
-13.502866 -6.012073 -1.065254
-13.100557 -6.152703 -1.073280
-13.297208 -5.890889 -1.095648
-12.879448 -6.022463 -1.077192
-13.074615 -5.762334 -1.100079
-12.659127 -5.892975 -1.077995
-12.829897 -5.624171 -1.070293
-12.921921 -5.305822 -1.105381
-13.076268 -5.029361 -1.075190
-12.439627 -5.764254 -1.075712
-12.637493 -5.510044 -1.107456
-12.705733 -5.183369 -1.110319
-12.859091 -4.908743 -1.080303
-12.226521 -5.638950 -1.078251
-12.394843 -5.373693 -1.071125
-12.484639 -5.059253 -1.104399
-12.665544 -4.797849 -1.114000
-12.008698 -5.511773 -1.069901
-12.175757 -5.248350 -1.063068
-12.242057 -4.926599 -1.063623
-12.427005 -4.669662 -1.081671
-11.797212 -5.387967 -1.066521
-12.001561 -5.143318 -1.115896
-12.045161 -4.813451 -1.083437
-12.206549 -4.549052 -1.069969
-11.624130 -5.282548 -1.116596
-11.783858 -5.019309 -1.102211
-11.854225 -4.703087 -1.108715
-12.009229 -4.437825 -1.087431
-11.382051 -5.145106 -1.059162
-11.545606 -4.886700 -1.053158
-11.614912 -4.573207 -1.058556
-11.790471 -4.318744 -1.069944
-11.209815 -5.040653 -1.104246
-11.377984 -4.785437 -1.106585
-11.419957 -4.461950 -1.070282
-11.572723 -4.200526 -1.049484
-10.980559 -4.910018 -1.056938
-11.136676 -4.652393 -1.043255
-11.225564 -4.351260 -1.079462
-11.398945 -4.099350 -1.091623
-10.809145 -4.806503 -1.097181
-10.990613 -4.561001 -1.124863
-11.052703 -4.249558 -1.119127
-11.204042 -3.990514 -1.098654
-10.612501 -4.691640 -1.093788
-10.751563 -4.429821 -1.055584
-10.823020 -4.125438 -1.065325
-10.988769 -3.874502 -1.070005
-10.421610 -4.579737 -1.096142
-10.605625 -4.338904 -1.133034
-10.625521 -4.014617 -1.058455
-10.774615 -3.759408 -1.038462
-10.231365 -4.468446 -1.096003
-10.389008 -4.218142 -1.091433
-10.459123 -3.916393 -1.099394
-10.623072 -3.667597 -1.104675
-10.046674 -4.359982 -1.101826
-10.223212 -4.119245 -1.131216
-10.262838 -3.806736 -1.087658
-10.410503 -3.553906 -1.067991
-9.852910 -4.247742 -1.088308
-10.023250 -4.006270 -1.109642
-10.077240 -3.701607 -1.090355
-10.244107 -3.457217 -1.104765
-9.626678 -4.121355 -1.012505
-9.804939 -3.886085 -1.051334
-9.863050 -3.585868 -1.039486
-10.033406 -3.345096 -1.062857
-9.500804 -4.040046 -1.113724
-9.654840 -3.794537 -1.110029
-9.679055 -3.482134 -1.037230
-9.862922 -3.247575 -1.086693
-9.286038 -3.919518 -1.049837
-9.466876 -3.687623 -1.098110
-9.509928 -3.384342 -1.058521
-9.673476 -3.143759 -1.074028
-9.127642 -3.824202 -1.087032
-9.275059 -3.579507 -1.075132
-9.341086 -3.286911 -1.077770
-9.503798 -3.047112 -1.093584
-8.960276 -3.725162 -1.104942
-9.111619 -3.483217 -1.101883
-9.154107 -3.183048 -1.060146
-9.296991 -2.938196 -1.041533
-8.771029 -3.616890 -1.077065
-8.943857 -3.385421 -1.117945
-8.967969 -3.079893 -1.040161
-9.128455 -2.842627 -1.056686
-8.609013 -3.520699 -1.099510
-8.771983 -3.286249 -1.123203
-8.818539 -2.990409 -1.088169
-8.960258 -2.747447 -1.069824
-8.442908 -3.422982 -1.111200
-8.591831 -3.184117 -1.108719
-8.655704 -2.896263 -1.108006
-8.796906 -2.654124 -1.089773
-8.272931 -3.323872 -1.112017
-8.403816 -3.079281 -1.074265
-8.471366 -2.794762 -1.081560
-8.624966 -2.558298 -1.090092
-8.074229 -3.212959 -1.048370
-8.208352 -2.972000 -1.019619
-8.283671 -2.692516 -1.043905
-8.440499 -2.458851 -1.061653
-7.930446 -3.125437 -1.098515
-8.093671 -2.896032 -1.132366
-8.135010 -2.604195 -1.084446
-8.274118 -2.365494 -1.066677
-7.766199 -3.029563 -1.102121
-7.911982 -2.794642 -1.100374
-7.953047 -2.504684 -1.051426
-8.108171 -2.272574 -1.069742
-7.598418 -2.932499 -1.094749
-7.743414 -2.698564 -1.093182
-7.821072 -2.422394 -1.124460
-7.942676 -2.180101 -1.070854
-7.431231 -2.835970 -1.085360
-7.595345 -2.610370 -1.129244
-7.656361 -2.329265 -1.123648
-7.793984 -2.092911 -1.106220
-7.287721 -2.749275 -1.128574
-7.415908 -2.510877 -1.090937
-7.480291 -2.232742 -1.093611
-7.617124 -1.997694 -1.076355
-7.125150 -2.655098 -1.124542
-7.264426 -2.421890 -1.114305
-7.316772 -2.140676 -1.088846
-7.468812 -1.911062 -1.108192
-6.963091 -2.561398 -1.118599
-7.109272 -2.331784 -1.126810
-7.149962 -2.047890 -1.073006
-7.304953 -1.820251 -1.101786
-6.801562 -2.468184 -1.110754
-6.958081 -2.243296 -1.146748
-7.002544 -1.961476 -1.101204
-7.153066 -1.733046 -1.121038
-6.651291 -2.379603 -1.128740
-6.781542 -2.146235 -1.100397
-6.840432 -1.870753 -1.090853
-6.990090 -1.643096 -1.110949
-6.504672 -2.292608 -1.154316
-6.645401 -2.063399 -1.153774
-6.678889 -1.780537 -1.078627
-6.827682 -1.553652 -1.098980
-6.330616 -2.195426 -1.103859
-6.470347 -1.967564 -1.103512
-6.532080 -1.694964 -1.101727
-6.680279 -1.468367 -1.122282
-6.187979 -2.110373 -1.135303
-6.323904 -1.881640 -1.125732
-6.385317 -1.609573 -1.123230
-6.518782 -1.379790 -1.106724
-6.018909 -2.015744 -1.090292
-6.153974 -1.788280 -1.080873
-6.214837 -1.517746 -1.077627
-6.361367 -1.292569 -1.098667
-5.854111 -1.923074 -1.052670
-6.008142 -1.703035 -1.099695
-6.082005 -1.436656 -1.133278
-6.214631 -1.208150 -1.116961
-5.696543 -1.833367 -1.031958
-5.833387 -1.608962 -1.032211
-5.906366 -1.344235 -1.065172
-6.067982 -1.123934 -1.133665
-5.567381 -1.753939 -1.094505
-5.713584 -1.532193 -1.123140
-5.763955 -1.260977 -1.089415
-5.908416 -1.037142 -1.111067
-5.422562 -1.669108 -1.108366
-5.558863 -1.444861 -1.108782
-5.602829 -1.173203 -1.055315
-5.733615 -0.947642 -1.039389
-5.251396 -1.575543 -1.035107
-5.389637 -1.353639 -1.045212
-5.460806 -1.090476 -1.076368
-5.591341 -0.865250 -1.060497
-5.118956 -1.495358 -1.083733
-5.251079 -1.271646 -1.074881
-5.315810 -1.007205 -1.086390
-5.458190 -0.784707 -1.108631
-4.974900 -1.411428 -1.092779
-5.100912 -1.186564 -1.064907
-5.159365 -0.921593 -1.056665
-5.300867 -0.699862 -1.079130
-4.831007 -1.327741 -1.100279
-4.965175 -1.105622 -1.101145
-5.014978 -0.838981 -1.063484
-5.144284 -0.615609 -1.047882
-4.687288 -1.244304 -1.106234
-4.821009 -1.022566 -1.107195
-4.868016 -0.756063 -1.059170
-5.011062 -0.535458 -1.091564
-4.523095 -1.154893 -1.033615
-4.666422 -0.937133 -1.073229
-4.726762 -0.674522 -1.072510
-4.855429 -0.452063 -1.057047
-4.390385 -1.075264 -1.074924
-4.522933 -0.854770 -1.076115
-4.569894 -0.590329 -1.026516
-4.722028 -0.372091 -1.097839
-4.249995 -0.993480 -1.085867
-4.382164 -0.773247 -1.087141
-4.429211 -0.509414 -1.036762
-4.577831 -0.290813 -1.098680
-4.107320 -0.911238 -1.085642
-4.239040 -0.691385 -1.087002
-4.296017 -0.429848 -1.074581
-4.431331 -0.209549 -1.088333
-3.964885 -0.829279 -1.083900
-4.093794 -0.609322 -1.075644
-4.152907 -0.348853 -1.072243
-4.290143 -0.129100 -1.095806
-3.822699 -0.747608 -1.080652
-3.960387 -0.529839 -1.111357
-4.017016 -0.269044 -1.097561
-4.146677 -0.048679 -1.092102
-3.670046 -0.663644 -1.027136
-3.811149 -0.447522 -1.077520
-3.867469 -0.187746 -1.063044
-3.994213 0.031978 -1.047985
-3.528765 -0.582788 -1.020803
-3.656199 -0.364708 -1.012789
-3.722990 -0.107436 -1.046444
-3.860558 0.111261 -1.080187
-3.403767 -0.505689 -1.091291
-3.525172 -0.286136 -1.053926
-3.581052 -0.027692 -1.038094
-3.717931 0.190768 -1.071991
-3.262486 -0.425107 -1.082130
-3.391715 -0.207176 -1.083958
-3.447527 0.051240 -1.067434
-3.573512 0.269960 -1.052530
-3.128922 -0.346221 -1.110773
-3.256056 -0.127964 -1.102827
-3.313727 0.130196 -1.095423
-3.439664 0.348945 -1.080528
-2.982645 -0.265213 -1.069216
-3.109194 -0.047743 -1.061356
-3.174027 0.209282 -1.092594
-3.297763 0.427612 -1.067945
-2.847369 -0.186338 -1.085205
-2.975521 0.030935 -1.087214
-3.030909 0.288104 -1.068657
-3.158075 0.506070 -1.063715
-2.713623 -0.107752 -1.109684
-2.841600 0.109624 -1.111727
-2.891752 0.366599 -1.062933
-3.016791 0.584103 -1.048216
-2.567200 -0.027810 -1.053795
-2.699321 0.188557 -1.085548
-2.757776 0.445117 -1.085365
-2.882767 0.662649 -1.070656
-2.433586 0.050429 -1.075478
-2.565308 0.267030 -1.107294
-2.615673 0.522939 -1.057079
-2.741923 0.740154 -1.052309
-2.294133 0.128987 -1.056208
-2.420755 0.345220 -1.058455
-2.475613 0.600496 -1.037218
-2.607764 0.818511 -1.072001
-2.160395 0.207030 -1.075151
-2.281242 0.423034 -1.037817
-2.343107 0.678814 -1.065395
-2.467403 0.895465 -1.050816
-2.026463 0.285054 -1.092747
-2.151408 0.501366 -1.085129
-2.208904 0.756929 -1.082338
-2.338852 0.975168 -1.107330
-1.887621 0.362855 -1.069273
-2.012189 0.578742 -1.061708
-2.064271 0.832512 -1.018629
-2.191971 1.049553 -1.033873
-1.750312 0.440369 -1.054323
-1.879270 0.656807 -1.086512
-1.930320 0.910214 -1.032808
-2.057745 1.127415 -1.048079
-1.615351 0.517857 -1.057871
-1.737240 0.732863 -1.030495
-1.796209 0.987877 -1.045637
-1.914963 1.201591 -0.991533
-1.481341 0.595395 -1.070009
-1.606353 0.811275 -1.072458
-1.661950 1.065493 -1.057119
-1.784329 1.280754 -1.032755
-1.347189 0.672884 -1.080805
-1.472023 0.888866 -1.083265
-1.526572 1.142570 -1.057312
-1.649957 1.358303 -1.042885
-1.212902 0.750318 -1.090248
-1.334939 0.965239 -1.062860
-1.388503 1.217911 -1.026310
-1.515457 1.435795 -1.051668
-1.075578 0.826449 -1.058472
-1.199782 1.042152 -1.060997
-1.254237 1.295136 -1.033724
-1.380839 1.513222 -1.059099
-0.938745 0.902166 -1.025314
-1.062495 1.117487 -1.027887
-1.119863 1.372292 -1.039787
-1.246113 1.590580 -1.065180
-0.807036 0.980643 -1.070593
-0.930885 1.196549 -1.073133
-0.985392 1.449372 -1.044506
-1.108304 1.664736 -1.030144
-0.671116 1.056303 -1.044699
-0.794009 1.271386 -1.037306
-0.850833 1.526371 -1.047874
-0.976379 1.745063 -1.073286
-0.536421 1.132587 -1.037409
-0.659639 1.348212 -1.039999
-0.714093 1.600293 -1.010061
-0.839012 1.818703 -1.035534
-0.402507 1.209749 -1.048733
-0.526874 1.427542 -1.081223
-0.581497 1.680102 -1.050568
-0.704780 1.896462 -1.046152
-0.267830 1.285761 -1.038750
-0.390693 1.501590 -1.041340
-0.446739 1.756822 -1.049892
-0.571226 1.976118 -1.075310
-0.134249 1.364654 -1.077322
-0.257209 1.581067 -1.079872
-0.311935 1.833438 -1.047869
-0.434599 2.048943 -1.033506
0.000472 1.441157 -1.074625
-0.122310 1.657671 -1.077173
-0.177095 1.909943 -1.044495
-0.299710 2.125476 -1.030132
0.135224 1.517546 -1.070580
0.012620 1.734162 -1.073122
-0.042230 1.986332 -1.039776
-0.165011 2.202977 -1.035351
0.269995 1.593817 -1.065191
0.147570 1.810533 -1.067726
0.092295 2.067628 -1.083450
-0.030565 2.283821 -1.069017
0.403940 1.663679 -0.978704
0.282279 1.880434 -0.991266
0.227541 2.139786 -1.036236
0.104814 2.359032 -1.051649
0.539559 1.745977 -1.050371
0.417490 1.962895 -1.052885
0.362497 2.215834 -1.027470
0.240047 2.435236 -1.042864
0.674331 1.821856 -1.040943
0.552439 2.038874 -1.043447
0.498064 2.296279 -1.057093
0.375265 2.511300 -1.032728
0.810411 1.901246 -1.069981
0.687631 2.115744 -1.042603
0.632352 2.367504 -1.005898
0.510456 2.587219 -1.021246
0.945434 1.977005 -1.057838
0.822605 2.191474 -1.030464
0.768464 2.447994 -1.032774
0.645851 2.664325 -1.018324
1.076544 2.044619 -0.964844
0.955461 2.261452 -0.967337
0.903599 2.523618 -1.018593
0.781036 2.739978 -1.004137
1.218145 2.133258 -1.079166
1.095855 2.350602 -1.071590
1.040058 2.602992 -1.032780
0.919292 2.826865 -1.067726
1.350214 2.203331 -1.013340
1.228937 2.421331 -1.015713
1.175296 2.678411 -1.015879
1.056826 2.908391 -1.090300
1.490701 2.287442 -1.075108
1.366482 2.501524 -1.037773
1.315350 2.764764 -1.076710
1.192718 2.984042 -1.071955
1.626020 2.362708 -1.056160
1.501676 2.576721 -1.018845
1.448280 2.834442 -1.017540
1.328522 3.059512 -1.052259
1.761246 2.437791 -1.035872
1.639952 2.657057 -1.038090
1.583557 2.909487 -0.996559
1.464227 3.134794 -1.031214
1.896369 2.512685 -1.014235
1.779600 2.738912 -1.065762
1.726272 2.997970 -1.062878
1.602900 3.216424 -1.048161
2.036446 2.593849 -1.040577
1.918944 2.819576 -1.082106
1.862001 3.073001 -1.039089
1.738679 3.291482 -1.024366
2.180422 2.679235 -1.094994
2.054686 2.894546 -1.057632
2.000569 3.152620 -1.043425
1.880769 3.378363 -1.067883
2.314988 2.752690 -1.059317
2.193579 2.973802 -1.061291
2.141577 3.235556 -1.065937
2.016804 3.453296 -1.041290
2.455457 2.832937 -1.071424
2.329266 3.048476 -1.034081
2.277488 3.310286 -1.037989
2.152689 3.528011 -1.013350
2.591111 2.907459 -1.042841
2.469782 3.129251 -1.044706
2.416883 3.389959 -1.038023
2.297579 3.617244 -1.062155
2.733550 2.989259 -1.061855
2.606769 3.205266 -1.024517
2.552686 3.464361 -1.007334
2.434952 3.693720 -1.041132
2.867772 3.061988 -1.020725
2.746521 3.284458 -1.022472
2.695132 3.547549 -1.024002
2.576180 3.775818 -1.047905
3.009356 3.142310 -1.027058
2.886536 3.363658 -1.018980
2.836694 3.629061 -1.029421
2.710959 3.848174 -1.004642
3.151340 3.222716 -1.031897
3.022163 3.437626 -0.984856
2.978650 3.710651 -1.033342
2.854057 3.932238 -1.018206
3.300472 3.309854 -1.074097
3.178652 3.534551 -1.075556
3.119399 3.790388 -1.026079
2.996167 4.014409 -1.020557
3.436464 3.383749 -1.037079
3.314820 3.608542 -1.038486
3.263698 3.874041 -1.036669
3.137053 4.094557 -1.011751
3.579580 3.464362 -1.037409
3.450758 3.682271 -1.000072
3.399813 3.947798 -0.997498
3.273142 4.168300 -0.972586
3.717311 3.539674 -1.007265
3.595675 3.765263 -1.008526
3.550181 4.037661 -1.033936
3.431646 4.269950 -1.056946
3.866860 3.625743 -1.033514
3.737245 3.844490 -0.996174
3.676953 4.100754 -0.943913
3.568193 4.343665 -1.014801
4.011000 3.706496 -1.029282
3.894937 3.939566 -1.059113
3.828202 4.190815 -0.977228
3.712037 4.426085 -1.009542
4.155457 3.787281 -1.023514
4.033317 4.014972 -1.024462
3.980354 4.281224 -1.008814
3.856191 4.508532 -1.002745
4.291386 3.860314 -0.977982
4.160859 4.079835 -0.940680
4.127070 4.365351 -1.010092
4.008797 4.600306 -1.032442
4.454402 3.956853 -1.045490
4.322934 4.177765 -1.008112
4.263312 4.438341 -0.962284
4.151717 4.680577 -1.012962
4.590610 4.029754 -0.996967
4.468170 4.259180 -0.997618
4.406006 4.517878 -0.941545
4.299133 4.765584 -1.010899
4.736213 4.110592 -0.985020
4.625473 4.351512 -1.032909
4.572094 4.620573 -1.013741
4.444698 4.848223 -0.997784
4.894581 4.201930 -1.018768
4.771597 4.433117 -1.019161
4.715737 4.700330 -0.989719
4.578852 4.918435 -0.936096
5.041048 4.282944 -1.003559
4.915456 4.512446 -0.994431
4.864417 4.784796 -0.982958
4.743771 5.021024 -0.994974
5.198333 4.372649 -1.024355
5.072293 4.603175 -1.015104
5.008372 4.864432 -0.955845
4.890259 5.103723 -0.977060
5.342816 4.451549 -0.996515
5.232579 4.696520 -1.043324
5.165485 4.956349 -0.973850
5.039505 5.188984 -0.966877
5.495735 4.537099 -0.995155
5.380172 4.778327 -1.023029
5.326066 5.051047 -0.999323
5.196956 5.282191 -0.982893
5.651996 4.625049 -1.001385
5.525159 4.857674 -0.991854
5.473734 5.133303 -0.976566
5.341700 5.362278 -0.950811
5.785379 4.694526 -0.931669
5.664444 4.931985 -0.940626
5.632912 5.225870 -0.989140
5.500295 5.455793 -0.963287
5.957307 4.794356 -0.980778
5.847552 5.043359 -1.026419
5.792818 5.318670 -0.999853
5.659619 5.549543 -0.973904
6.118215 4.885093 -0.990936
5.996396 5.125233 -0.999472
5.938550 5.398360 -0.962854
5.819656 5.643516 -0.982643
6.279829 4.976050 -0.999218
6.157704 5.217288 -1.007559
6.099513 5.491413 -0.969969
5.983370 5.740529 -0.998610
6.442133 5.067218 -1.005610
6.322855 5.312153 -1.022879
6.261158 5.584671 -0.975187
6.132658 5.823511 -0.967190
6.595237 5.151033 -0.982794
6.482376 5.402014 -1.018042
6.426659 5.680901 -0.987562
6.294528 5.917985 -0.970335
6.768752 5.250142 -1.012671
6.642411 5.491991 -1.011362
6.586431 5.771760 -0.979887
6.469811 6.024384 -1.007601
6.933033 5.341878 -1.013321
6.806314 5.584785 -1.011843
6.753357 5.868421 -0.988335
6.616940 6.104505 -0.961874
7.097939 5.433783 -1.012037
6.974276 5.680496 -1.019369
6.900638 5.947996 -0.941065
6.783970 6.202471 -0.968195
7.263455 5.525846 -1.008806
7.125465 5.762516 -0.980158
7.068644 6.044901 -0.945696
6.944940 6.294574 -0.954693
7.389504 5.588373 -0.905565
7.273118 5.841576 -0.930395
7.230294 6.136104 -0.930542
7.113293 6.392906 -0.957022
7.588826 5.704937 -0.978712
7.471653 5.960395 -1.003160
7.410416 6.242338 -0.957657
7.278813 6.488327 -0.948477
7.755930 5.797340 -0.969660
7.638584 6.053960 -0.993809
7.576931 6.336859 -0.947300
7.455705 6.593315 -0.964281
7.931274 5.895468 -0.976204
7.787154 6.133011 -0.938555
7.758961 6.443748 -0.969955
7.622511 6.689070 -0.951637
8.119167 6.002360 -1.006845
7.985597 6.250309 -0.995356
7.930611 6.541717 -0.964142
7.804809 6.797801 -0.971764
8.256443 6.072328 -0.921833
8.126884 6.323320 -0.918982
8.095130 6.633574 -0.938894
7.972897 6.893879 -0.954924
8.457966 6.188366 -0.974152
8.327480 6.441384 -0.971039
8.279740 6.741280 -0.954826
8.145343 6.993321 -0.944666
8.628080 6.281481 -0.954765
8.497211 6.535553 -0.951468
8.465351 6.849324 -0.968372
8.342067 7.112831 -0.983681
8.811209 6.383586 -0.959076
8.700349 6.654569 -0.998409
8.651939 6.957694 -0.979521
8.528128 7.222798 -0.994459
9.003682 6.491964 -0.978144
8.871501 6.749116 -0.974392
8.822883 7.053294 -0.954287
8.698820 7.319515 -0.968912
9.175632 6.585495 -0.952251
9.060077 6.856360 -0.982224
9.011099 7.162137 -0.960760
8.886504 7.429954 -0.975018
9.369914 6.694437 -0.966507
9.236623 6.954299 -0.962320
9.187379 7.261253 -0.939596
9.075101 7.540675 -0.978674
9.556325 6.797501 -0.961422
9.444368 7.074939 -0.998945
9.390249 7.380657 -0.966356
9.264587 7.651664 -0.979860
9.748008 6.903906 -0.962317
9.631269 7.179781 -0.991028
9.581141 7.490307 -0.965441
9.454942 7.762906 -0.978569
9.940549 7.010561 -0.960728
9.809867 7.278211 -0.964138
9.772880 7.600197 -0.962034
9.628504 7.860169 -0.941814
10.152523 7.130282 -0.989651
10.016395 7.396657 -0.984491
9.965441 7.710314 -0.956118
9.838163 7.986094 -0.968479
10.328122 7.224560 -0.950043
10.214831 7.508792 -0.985647
10.158805 7.820642 -0.947678
10.012830 8.083536 -0.927080
10.542217 7.344962 -0.973532
10.404768 7.614408 -0.967890
10.352945 7.931167 -0.936703
10.206171 8.195522 -0.915913
10.743067 7.455897 -0.969767
10.604889 7.727000 -0.963871
10.566786 8.056118 -0.955391
10.437594 8.337140 -0.966530
10.915360 7.547065 -0.915035
10.801044 7.836373 -0.949152
10.743469 8.152748 -0.907076
10.632927 8.449722 -0.949837
11.157287 7.685196 -0.970245
11.017515 7.959853 -0.963816
10.998148 8.307252 -0.983824
10.848130 8.577429 -0.962311
11.355768 7.793463 -0.950405
11.215334 8.069654 -0.943726
11.171293 8.400516 -0.922430
11.045096 8.690420 -0.940222
11.575292 7.915565 -0.959545
11.433922 8.193775 -0.952574
11.389353 8.526751 -0.929569
11.257467 8.814942 -0.939022
11.795955 8.038022 -0.965641
11.673997 8.332563 -0.989702
11.608540 8.653331 -0.933657
11.475818 8.943582 -0.942650
11.991652 8.143386 -0.929745
11.874492 8.443064 -0.961119
11.808383 8.765265 -0.903725
11.675103 9.057093 -0.912310
12.214206 8.266351 -0.929976
12.070369 8.550007 -0.922169
12.050176 8.907455 -0.932602
11.920878 9.205714 -0.948339
12.453832 8.400253 -0.950142
12.335204 8.704624 -0.980339
12.272568 9.034963 -0.927414
12.137325 9.331383 -0.935020
12.678650 8.523889 -0.943995
12.538065 8.815639 -0.943171
12.495968 9.162741 -0.919100
12.380770 9.477019 -0.956472
12.882631 8.633377 -0.904457
12.768392 8.945308 -0.941086
12.720348 9.290771 -0.907642
12.583416 9.591297 -0.914312
13.114690 8.761038 -0.899761
12.988903 9.067771 -0.920738
12.967322 9.434587 -0.922848
12.807896 9.721612 -0.899220
13.386847 8.914598 -0.943935
13.259814 9.224430 -0.964291
13.199275 9.567094 -0.912212
13.076492 9.884428 -0.940031
13.615763 9.039311 -0.924856
13.443477 9.320801 -0.885620
13.443291 9.707738 -0.912943
13.303245 10.015372 -0.918087
13.868325 9.179070 -0.931906
13.717102 9.478295 -0.921844
13.671750 9.836809 -0.888256
13.530847 10.146489 -0.892925
14.099186 9.304247 -0.906162
13.947021 9.605485 -0.895792
13.946187 9.998019 -0.918114
13.781568 10.294231 -0.893358
14.307614 9.414494 -0.848326
14.223681 9.763944 -0.924126
14.199525 10.143694 -0.915112
14.033536 10.442322 -0.890060
14.604366 9.581586 -0.895021
14.473039 9.903370 -0.912519
14.425282 10.269438 -0.872849
14.286716 10.590738 -0.883011
14.855724 9.718793 -0.880367
14.700051 10.027283 -0.868946
14.686539 10.419688 -0.869659
14.535322 10.735259 -0.865156
15.138026 9.875480 -0.897209
14.980867 10.186954 -0.885387
14.943175 10.566166 -0.855577
14.819761 10.905349 -0.885422
15.224619 10.729418 -0.865343
15.099997 11.071700 -0.894342
15.525513 10.905569 -0.891331
15.375819 11.234210 -0.892082
15.810085 11.069740 -0.892208
15.658956 11.401375 -0.892361
16.096073 11.234292 -0.888695
15.937487 11.564595 -0.881535
16.377287 11.394968 -0.874105
16.192980 11.710726 -0.839828
16.665920 11.560173 -0.861807
16.510540 11.900661 -0.860167
16.955833 11.725677 -0.845047
16.743391 12.029589 -0.784138
17.228081 11.878552 -0.804407
0.356020 0.372237 16.503750
17.094944 12.242330 -0.827404
0.391854 0.392328 16.474733
0.389961 0.395569 16.475084
0.333860 0.355787 16.533169
0.375065 0.380361 16.496973
0.411997 0.410298 16.460180
0.402483 0.398527 16.474098
0.394033 0.397357 16.480576
0.403863 0.399127 16.476023
0.414969 0.411592 16.464291
0.405229 0.399717 16.477961
0.363762 0.375635 16.514189
0.406581 0.400298 16.479912
0.391352 0.394469 16.492088
0.387668 0.387385 16.499428
0.372554 0.381155 16.511427
0.402444 0.396916 16.489632
0.414002 0.409426 16.478443
0.401810 0.400689 16.491896