# This PCD file was generated using the MATLAB® pcwrite function
# from Computer Vision System Toolbox®.
# .PCD v.7 - Point Cloud Data file format
VERSION .7
FIELDS x y z
SIZE 4 4 4
TYPE F F F
COUNT 1 1 1
WIDTH 748
HEIGHT 1
VIEWPOINT 0 0 0 1 0 0 0
POINTS 748
DATA ascii
-29.124254 -15.815475 -0.094076
-28.605858 -15.507343 -0.081936
-28.128855 -15.222061 -0.101826
-28.493488 -14.719353 -0.121487
-27.666491 -14.945220 -0.127850
-28.021446 -14.443440 -0.141609
-27.167038 -14.649201 -0.105732
-27.511984 -14.149137 -0.113497
-26.746471 -14.395831 -0.158587
-27.062975 -13.886268 -0.139460
-26.276285 -14.116632 -0.149450
-26.583408 -13.608534 -0.123848
-25.833216 -13.852429 -0.161165
-26.118628 -13.338962 -0.114899
-25.416723 -13.602854 -0.194521
-25.699934 -13.093272 -0.148426
-24.945856 -13.325109 -0.157352
-25.232487 -12.823640 -0.118639
-24.538599 -13.081508 -0.185034
-24.816849 -12.580663 -0.139343
-24.126570 -12.835909 -0.199455
-24.402622 -12.338952 -0.153934
-23.667810 -12.566343 -0.149160
-23.965487 -12.086390 -0.133156
-23.283112 -12.336155 -0.180532
-23.578663 -11.859469 -0.164904
-22.899580 -12.107051 -0.206367
-23.169050 -11.621762 -0.161356
-22.493820 -11.866852 -0.196674
-22.761095 -11.385455 -0.151836
-22.089777 -11.628083 -0.181044
-22.384258 -11.165057 -0.174149
-21.710524 -11.402696 -0.189991
-21.979527 -10.931463 -0.153072
-21.287090 -11.154964 -0.132132
-21.570869 -10.696538 -0.118471
-20.956240 -10.955556 -0.191675
-21.238453 -10.499435 -0.178318
-20.564569 -10.725252 -0.161129
-20.844437 -10.272757 -0.148153
-20.230047 -10.524784 -0.203327
-20.508278 -10.074715 -0.190659
-19.863516 -10.308338 -0.193647
-20.134146 -9.858739 -0.173445
-19.514748 -10.101433 -0.202667
-19.783585 -9.654656 -0.182732
-19.167217 -9.895597 -0.206890
-19.439684 -9.454241 -0.195219
-18.799805 -9.680120 -0.174156
-19.064774 -9.239469 -0.154789
-18.491749 -9.495157 -0.225384
-18.760721 -9.059011 -0.214329
-18.132509 -9.284737 -0.191107
-18.394176 -8.849248 -0.172241
-17.790390 -9.083416 -0.176458
-18.070992 -8.660542 -0.190636
-18.176119 -8.137204 -0.190340
-18.465656 -7.716473 -0.217598
-17.444683 -8.880754 -0.148914
-17.733423 -8.465487 -0.180046
-17.858009 -7.954395 -0.210955
-18.119659 -7.524946 -0.197533
-17.150517 -8.704291 -0.199667
-17.392181 -8.269196 -0.156649
-17.535721 -7.770190 -0.219145
-17.780355 -7.336749 -0.181154
-16.832153 -8.516104 -0.204964
-17.072493 -8.083467 -0.162033
-17.194361 -7.578153 -0.189726
-17.442503 -7.149719 -0.160299
-16.510027 -8.326449 -0.197693
-16.773655 -7.907853 -0.196795
-16.874519 -7.395991 -0.189369
-17.136404 -6.976062 -0.185350
-16.217999 -8.152081 -0.236841
-16.475464 -7.732891 -0.227793
-16.536184 -7.206355 -0.151081
-16.801203 -6.791196 -0.155909
-15.883845 -7.957296 -0.195929
-16.139456 -7.540891 -0.187180
-16.257759 -7.042909 -0.210258
-16.521687 -6.629035 -0.215414
-15.570132 -7.773013 -0.184696
-15.843165 -7.367606 -0.210325
-15.941264 -6.863577 -0.197752
-16.184124 -6.444306 -0.169199
-15.294607 -7.607798 -0.238029
-15.528882 -7.186493 -0.195473
-15.649665 -6.695251 -0.224117
-15.910645 -6.285275 -0.230034
-14.978389 -7.423054 -0.210419
-15.234385 -7.014804 -0.211040
-15.312140 -6.508042 -0.160591
-15.571134 -6.100923 -0.166964
-14.654657 -7.235107 -0.161369
-14.904243 -6.827425 -0.153658
-15.022568 -6.341446 -0.179352
-15.256933 -5.927009 -0.142763
-14.399041 -7.080509 -0.238733
-14.629915 -6.665626 -0.196381
-14.724676 -6.171796 -0.177128
-14.985518 -5.769958 -0.192924
-14.090971 -6.900915 -0.208115
-14.338243 -6.496389 -0.200834
-14.414422 -5.997518 -0.144939
-14.691686 -5.604735 -0.196157
-13.818698 -6.738875 -0.243917
-14.047497 -6.327953 -0.201689
-14.145239 -5.840504 -0.188011
-14.412199 -5.445333 -0.222157
-13.529943 -6.569274 -0.241127
-13.774900 -6.167904 -0.234270
-13.867703 -5.680406 -0.210243
-14.124483 -5.283250 -0.227169
-13.242178 -6.400506 -0.234774
-13.502769 -6.008364 -0.263617
-13.582238 -5.517483 -0.211405
-13.833298 -5.120336 -0.219835
-12.975917 -6.242247 -0.269461
-13.197793 -5.834858 -0.218472
-13.293472 -5.353667 -0.200195
-13.543148 -4.958280 -0.208971
-12.685863 -6.073102 -0.247290
-12.927205 -5.676707 -0.241068
-13.022325 -5.197241 -0.221306
-13.254065 -4.797099 -0.194590
-12.416845 -5.914170 -0.266512
-12.641031 -5.512196 -0.224537
-12.751740 -5.041378 -0.239231
-12.982632 -4.642674 -0.212660
-12.132820 -5.748575 -0.246439
-12.387710 -5.362085 -0.276716
-12.465738 -4.879908 -0.217861
-12.707723 -4.487402 -0.218542
-11.834624 -5.576830 -0.186642
-12.075965 -5.187537 -0.190130
-12.180898 -4.719362 -0.193050
-12.425561 -4.330037 -0.203081
-11.598334 -5.433950 -0.268784
-11.835316 -5.043383 -0.263336
-11.912719 -4.565607 -0.201233
-12.172008 -4.182921 -0.247931
-11.317299 -5.270819 -0.238708
-11.552979 -4.882070 -0.233469
-11.660417 -4.418159 -0.242867
-11.903113 -4.030893 -0.253426
-11.066504 -5.121783 -0.278639
-11.301444 -4.733888 -0.273548
-11.378426 -4.259979 -0.208281
-11.619724 -3.874468 -0.219160
-10.801655 -4.966659 -0.278921
-11.035573 -4.580099 -0.274006
-11.112365 -4.108135 -0.207169
-11.337615 -3.719028 -0.181540
-10.551505 -4.818421 -0.313093
-10.784679 -4.432716 -0.308327
-10.875810 -3.967317 -0.276930
-11.100761 -3.578679 -0.251354
-10.287897 -4.664457 -0.307375
-10.523540 -4.281483 -0.312048
-10.610744 -3.816480 -0.269966
-10.849215 -3.433807 -0.281586
-10.001638 -4.500866 -0.233471
-10.242537 -4.122734 -0.256990
-10.360306 -3.671178 -0.297192
-10.583829 -3.284929 -0.271856
-9.763104 -4.358601 -0.286825
-9.983158 -3.972972 -0.254578
-10.069528 -3.512223 -0.209604
-10.302011 -3.131521 -0.212475
-9.501970 -4.206736 -0.272034
-9.747455 -3.832712 -0.314749
-9.833773 -3.372682 -0.268402
-10.055593 -2.989305 -0.243351
-9.257417 -4.062327 -0.301243
-9.498667 -3.687599 -0.334843
-9.584806 -3.228861 -0.287107
-9.819304 -2.850286 -0.299698
-8.997711 -3.911717 -0.280636
-9.225095 -3.533421 -0.276834
-9.326667 -3.082323 -0.274803
-9.543883 -2.700293 -0.240564
-8.729935 -3.758076 -0.228704
-8.965293 -3.384899 -0.253433
-9.078636 -2.939453 -0.287966
-9.295346 -2.558418 -0.253796
-8.507470 -3.623730 -0.315926
-8.733434 -3.247020 -0.312380
-8.815840 -2.792237 -0.251009
-9.047206 -2.416973 -0.264317
-8.258558 -3.478559 -0.315287
-8.483706 -3.102823 -0.311876
-8.568982 -2.650455 -0.258625
-8.787363 -2.272805 -0.234146
-8.015793 -3.336187 -0.330973
-8.225982 -2.956125 -0.280031
-8.334129 -2.512606 -0.301685
-8.552208 -2.135422 -0.277264
-7.778769 -3.196368 -0.363155
-8.005490 -2.822824 -0.369522
-8.076618 -2.368268 -0.265804
-8.305392 -1.995341 -0.279713
-7.525932 -3.050487 -0.335291
-7.746197 -2.676263 -0.322664
-7.831157 -2.227886 -0.265388
-8.059065 -1.855738 -0.279491
-7.281736 -2.908358 -0.333454
-7.514534 -2.539442 -0.368946
-7.599579 -2.091696 -0.310362
-7.813244 -1.716625 -0.276619
-7.038062 -2.766725 -0.328968
-7.256978 -2.394292 -0.316536
-7.354798 -1.952092 -0.304768
-7.570628 -1.578590 -0.280722
-6.794929 -2.625600 -0.321852
-7.005679 -2.251675 -0.280556
-7.108039 -1.812347 -0.286894
-7.323219 -1.439917 -0.262953
-6.559424 -2.487614 -0.341146
-6.789321 -2.120375 -0.377237
-6.874286 -1.676265 -0.314724
-7.089162 -1.304302 -0.290836
-6.317222 -2.347409 -0.328857
-6.536674 -1.978012 -0.326370
-6.642932 -1.540941 -0.349812
-6.855118 -1.168876 -0.316278
-6.082253 -2.210107 -0.343130
-6.294329 -1.839202 -0.311588
-6.397594 -1.402588 -0.324213
-6.623487 -1.034054 -0.348989
-5.841065 -2.070868 -0.325710
-6.061435 -1.703436 -0.333157
-6.155278 -1.265362 -0.305723
-6.368686 -0.895764 -0.282074
-5.604651 -1.933592 -0.325235
-5.830736 -1.568465 -0.362051
-5.913619 -1.128706 -0.284660
-6.135383 -0.761320 -0.300077
-5.370602 -1.797374 -0.332050
-5.589676 -1.430957 -0.339708
-5.681007 -0.994202 -0.300119
-5.902171 -0.627108 -0.315657
-5.140633 -1.662707 -0.356009
-5.357248 -1.296004 -0.353960
-5.440433 -0.858544 -0.274017
-5.660720 -0.492225 -0.289719
-4.906953 -1.527063 -0.357969
-5.115380 -1.159057 -0.316780
-5.208356 -0.724712 -0.284599
-5.430056 -0.358869 -0.310209
-4.675328 -1.392291 -0.367329
-4.890932 -1.026448 -0.365429
-4.976429 -0.591145 -0.292786
-5.189695 -0.224984 -0.279287
-4.425224 -1.252489 -0.266008
-4.644882 -0.889427 -0.293766
-4.746467 -0.458071 -0.308414
-4.955690 -0.092016 -0.275324
-4.206091 -1.121813 -0.339428
-4.422164 -0.757510 -0.347542
-4.521710 -0.325718 -0.351236
-4.730977 0.040311 -0.318136
-3.976840 -0.988450 -0.351435
-4.190822 -0.624078 -0.349756
-4.283380 -0.192264 -0.312883
-4.499006 0.172732 -0.319267
-3.752070 -0.856352 -0.390743
-3.965859 -0.491867 -0.389097
-4.050590 -0.059726 -0.301680
-4.268902 0.304881 -0.327890
-3.514364 -0.721452 -0.338709
-3.728799 -0.358127 -0.347050
-3.827185 0.072146 -0.347404
-4.037322 0.436725 -0.324287
-3.280300 -0.587837 -0.304008
-3.492588 -0.225058 -0.302538
-3.594748 0.204129 -0.331491
-3.811976 0.568727 -0.357870
-3.055689 -0.456352 -0.336327
-3.266466 -0.093361 -0.324968
-3.370838 0.335952 -0.372648
-3.574962 0.699424 -0.309998
-2.824904 -0.323979 -0.316729
-3.037699 0.038367 -0.325264
-3.135005 0.467076 -0.322290
-3.349594 0.831094 -0.338947
-2.601164 -0.192837 -0.354399
-2.812592 0.169798 -0.353029
-2.904885 0.598021 -0.309221
-3.123942 0.962757 -0.365627
-2.371884 -0.061178 -0.340078
-2.582840 0.301087 -0.338764
-2.675099 0.728599 -0.293816
-2.887279 1.091740 -0.300709
-2.146739 0.069933 -0.363251
-2.353431 0.432005 -0.322161
-2.449863 0.859676 -0.315847
-2.658431 1.221948 -0.292974
-1.921354 0.201012 -0.384150
-2.128152 0.563023 -0.343052
-2.224395 0.990718 -0.335609
-2.432932 1.353008 -0.312738
-1.692556 0.331878 -0.362907
-1.902650 0.693998 -0.361671
-1.995118 1.120488 -0.313282
-2.207218 1.484021 -0.330233
-1.463432 0.462257 -0.329374
-1.676943 0.824923 -0.378021
-1.769540 1.251252 -0.328478
-1.977737 1.613095 -0.305655
-1.238755 0.592920 -0.353392
-1.447465 0.954531 -0.342243
-1.540042 1.379982 -0.291580
-1.751948 1.743812 -0.318583
-1.010899 0.722729 -0.325237
-1.219852 1.084221 -0.324099
-1.315172 1.510823 -0.312185
-1.525996 1.874453 -0.329239
-0.785476 0.852979 -0.334730
-0.996496 1.215938 -0.373512
-1.089408 1.641185 -0.320555
-1.294569 2.000193 -0.257942
-0.561598 0.984183 -0.381908
-0.769950 1.346002 -0.370775
-0.861431 1.769353 -0.286762
-1.068948 2.130303 -0.264034
-0.335618 1.114416 -0.386873
-0.543850 1.476304 -0.375740
-0.637515 1.901613 -0.330481
-0.847338 2.265819 -0.347559
-0.109535 1.244538 -0.389565
-0.317986 1.606964 -0.388416
-0.411419 2.031658 -0.332039
-0.619150 2.393127 -0.309265
0.116633 1.374540 -0.389986
-0.091360 1.736566 -0.378855
-0.185247 2.161577 -0.331324
-0.392946 2.523064 -0.308550
0.342868 1.504411 -0.388134
0.135744 1.864282 -0.337072
0.040985 2.291361 -0.328337
-0.166683 2.652867 -0.305563
0.569491 1.630314 -0.304104
0.362293 1.991510 -0.293028
0.267258 2.421000 -0.323080
0.059622 2.782524 -0.300304
0.795474 1.763723 -0.377619
0.587840 2.125955 -0.366484
0.493556 2.550484 -0.315554
0.285951 2.912026 -0.292776
1.021700 1.892579 -0.358971
0.814295 2.255444 -0.357813
0.719861 2.679803 -0.305752
0.512044 3.045159 -0.322794
1.248143 2.022394 -0.358019
1.040403 2.382575 -0.316954
0.946493 2.812434 -0.333532
0.738732 3.178464 -0.350513
1.476544 2.156677 -0.424618
1.268142 2.517765 -0.383501
1.173703 2.945225 -0.359003
0.965908 3.310893 -0.365973
1.703430 2.285904 -0.409105
1.495721 2.649377 -0.397884
1.400533 3.074335 -0.342356
1.192498 3.436913 -0.319487
1.930262 2.414930 -0.391315
1.723016 2.779330 -0.390047
1.628545 3.207243 -0.363214
1.419298 3.565836 -0.300562
2.156537 2.542966 -0.361301
1.951647 2.911864 -0.409771
1.853990 3.331929 -0.302242
1.648556 3.703860 -0.358784
2.385952 2.675637 -0.388731
2.180301 3.043576 -0.417221
2.083819 3.468002 -0.348293
1.875393 3.831479 -0.325338
2.615380 2.807641 -0.403868
2.408165 3.173342 -0.402481
2.313517 3.602181 -0.372112
2.104774 3.966278 -0.349098
2.844575 2.938838 -0.406729
2.637993 3.306043 -0.415224
2.540772 3.730680 -0.344007
2.332061 4.094795 -0.320990
3.071714 3.067187 -0.377493
2.868285 3.438835 -0.425621
2.770635 3.863785 -0.353237
2.561676 4.228400 -0.330172
3.306483 3.204225 -0.435202
3.098227 3.570593 -0.423752
3.000170 3.995708 -0.350220
2.794508 4.367591 -0.376518
3.533969 3.332427 -0.401325
3.326704 3.700021 -0.399750
3.231654 4.130210 -0.364620
3.024511 4.500085 -0.371063
3.765326 3.464665 -0.404736
3.561766 3.837654 -0.442631
3.461859 4.262167 -0.356894
3.255610 4.634011 -0.373119
4.001441 3.601439 -0.445280
3.793735 3.970704 -0.443554
3.693288 4.395467 -0.356672
3.483410 4.761959 -0.333424
4.229199 3.729278 -0.404432
4.021688 4.098653 -0.402672
3.925082 4.528799 -0.354069
3.715951 4.897338 -0.340599
4.455472 3.855601 -0.351463
4.248225 4.224964 -0.349674
4.157223 4.662152 -0.349079
3.947919 5.031232 -0.335543
4.699762 3.998988 -0.433933
4.485574 4.363189 -0.382877
4.389692 4.795516 -0.341696
4.179070 5.163507 -0.318296
4.933198 4.131528 -0.425360
4.719875 4.497524 -0.384127
4.623761 4.930432 -0.341707
4.411600 5.297369 -0.308464
5.166935 4.264061 -0.414387
4.958817 4.636293 -0.412329
4.862367 5.070201 -0.368616
4.650899 5.439793 -0.345060
5.400953 4.396577 -0.401005
5.191282 4.767907 -0.389095
5.101842 5.210281 -0.392973
4.888477 5.579096 -0.359573
5.641696 4.534723 -0.424278
5.431591 4.907087 -0.412283
5.328540 5.335563 -0.327095
5.123868 5.715020 -0.352100
5.883280 4.673159 -0.444979
5.674361 5.048136 -0.442638
5.570614 5.477571 -0.356205
5.362678 5.854657 -0.361589
6.118625 4.805885 -0.424189
5.909624 5.181453 -0.421766
5.810322 5.616416 -0.363289
5.597371 5.988844 -0.339455
6.359693 4.943163 -0.430088
6.150401 5.319687 -0.427565
6.054145 5.759039 -0.387177
5.832259 6.122962 -0.314882
6.597566 5.077455 -0.414051
6.386278 5.452990 -0.401756
6.280775 5.883575 -0.311811
6.082998 6.274660 -0.374720
6.841715 5.216602 -0.424526
6.624240 5.587949 -0.383165
6.533214 6.033967 -0.369154
6.326148 6.416986 -0.383577
7.086602 5.355979 -0.432373
6.868472 5.728237 -0.390987
6.785161 6.183066 -0.414030
6.568137 6.557491 -0.380196
7.321537 5.487063 -0.389481
7.121683 5.876034 -0.434622
7.020113 6.315024 -0.369738
6.806760 6.693954 -0.355047
7.578510 5.635366 -0.440138
7.367624 6.016903 -0.437057
7.265547 6.456795 -0.370869
7.057845 6.843119 -0.384729
7.825487 5.775352 -0.440033
7.605393 6.150349 -0.398575
7.511644 6.598750 -0.369331
7.295269 6.977554 -0.344868
8.073118 5.915513 -0.437252
7.859227 6.297255 -0.424389
7.758386 6.740874 -0.365114
7.558940 7.138298 -0.416607
8.309247 6.046524 -0.384182
8.099982 6.432662 -0.390284
8.017378 6.893780 -0.405664
7.808612 7.284123 -0.418873
8.570258 6.196311 -0.423622
8.357929 6.582145 -0.420044
8.263308 7.034240 -0.386456
8.045059 7.416461 -0.361658
8.817150 6.334980 -0.403282
8.604528 6.721766 -0.399584
8.514613 7.179158 -0.383459
8.302965 7.569451 -0.386826
9.069755 6.477658 -0.399157
8.846397 6.857226 -0.357597
8.771704 7.328759 -0.396492
8.552114 7.713418 -0.371456
9.320333 6.618502 -0.382835
9.093675 6.996843 -0.331860
9.011456 7.462718 -0.340967
8.804339 7.859890 -0.362713
9.593750 6.775926 -0.438810
9.368540 7.158295 -0.397161
9.283389 7.624317 -0.395109
9.072924 8.021181 -0.407185
9.831618 6.906765 -0.370012
9.628444 7.307209 -0.403118
9.537649 7.770088 -0.380783
9.324179 8.165725 -0.383318
10.107379 7.065081 -0.419893
9.892119 7.458684 -0.415434
9.798177 7.920797 -0.382195
9.586939 8.320408 -0.393778
10.360702 7.206655 -0.392206
10.159757 7.612821 -0.434000
10.050870 8.064468 -0.352869
9.842216 8.467771 -0.373468
10.623681 7.354915 -0.389492
10.410495 7.753362 -0.393974
10.318847 8.220557 -0.366854
10.103859 8.620435 -0.368717
10.868614 7.489908 -0.328465
10.655342 7.889101 -0.332788
10.581841 8.372017 -0.359329
10.369295 8.775983 -0.370136
11.174642 7.668232 -0.439377
10.953677 8.065647 -0.425049
10.861204 8.536473 -0.394550
10.647846 8.942531 -0.405035
11.430678 7.810490 -0.399940
11.225375 8.221193 -0.431221
11.116562 8.680798 -0.353443
10.902950 9.087983 -0.363688
11.687050 7.952730 -0.357674
11.455346 8.344742 -0.315784
11.411304 8.856640 -0.418488
11.183859 9.255400 -0.392075
11.971160 8.114178 -0.385214
11.781937 8.540925 -0.461212
11.681423 9.012012 -0.407442
11.466181 9.423374 -0.417032
12.260175 8.278621 -0.418364
12.050018 8.692481 -0.439590
11.965952 9.178440 -0.429279
11.736593 9.580594 -0.402542
12.539998 8.436230 -0.420958
12.336270 8.857203 -0.459875
12.224125 9.323464 -0.375872
12.021383 9.749480 -0.420717
12.817253 8.591688 -0.411259
12.595319 9.001329 -0.404982
12.510785 9.490622 -0.391041
12.293646 9.907278 -0.399706
13.091702 8.744867 -0.389359
12.883677 9.166761 -0.418583
12.813155 9.669518 -0.438274
12.580785 10.077003 -0.411020
13.381987 8.908589 -0.399809
13.191848 9.346225 -0.473068
13.073294 9.814966 -0.375397
12.840384 10.223426 -0.348047
13.673525 9.072768 -0.406717
13.449116 9.488039 -0.399805
13.363489 9.983375 -0.380117
13.144157 10.405797 -0.387794
13.950643 9.226735 -0.374823
13.740961 9.654694 -0.402925
13.654892 10.152209 -0.381256
13.434731 10.576712 -0.388582
14.260243 9.402419 -0.409817
14.033999 9.821766 -0.402449
13.947472 10.321451 -0.378796
13.726482 10.748034 -0.385773
14.535128 9.554182 -0.362328
14.312285 9.977814 -0.363495
14.237252 10.488088 -0.364025
14.019375 10.919741 -0.379333
14.847494 9.730894 -0.389791
14.639707 10.168647 -0.425356
14.552071 10.673197 -0.397568
14.329137 11.104413 -0.403788
15.148951 9.899833 -0.387342
14.932287 10.334067 -0.405182
14.848252 10.843681 -0.384007
14.640511 11.289714 -0.424227
15.447359 10.066340 -0.372536
15.200723 10.481987 -0.329889
15.162055 11.026893 -0.400982
14.937172 11.462740 -0.406437
15.781311 10.256164 -0.422453
15.532941 10.674677 -0.379688
15.477401 11.210687 -0.413895
15.234842 11.636070 -0.384937
16.095421 10.432292 -0.425400
15.867216 10.868220 -0.425049
15.755777 11.366523 -0.346516
15.550309 11.822840 -0.393528
16.361982 10.576521 -0.331280
16.129095 11.010482 -0.322247
16.095213 11.567122 -0.393736
15.884329 12.023438 -0.431639
16.700607 10.768103 -0.368761
16.488462 11.220563 -0.401457
16.414703 11.752391 -0.394480
16.181278 12.194609 -0.389967
17.027441 10.951426 -0.376623
16.769283 11.375367 -0.325216
16.753475 11.951235 -0.424355
16.518576 12.396446 -0.419430
17.365065 11.141387 -0.396851
17.128042 11.583878 -0.386936
17.075975 12.137594 -0.416542
16.808630 12.561352 -0.353378
17.690302 11.322771 -0.387777
17.452082 11.767779 -0.377584
17.376799 12.307712 -0.363367
17.167040 12.778095 -0.407055
18.016840 11.504588 -0.374479
17.796227 11.965047 -0.396854
17.720234 12.508252 -0.380049
17.491005 12.967863 -0.390352
18.383303 11.711968 -0.422293
18.123083 12.149921 -0.378822
18.046507 12.695834 -0.359552
17.816208 13.158023 -0.369375
18.678560 11.872599 -0.343227
18.451162 12.335178 -0.356512
18.417089 12.914707 -0.407461
18.156767 13.359217 -0.368307
19.028666 12.068438 -0.349331
18.819546 12.547441 -0.394392
18.741438 13.099828 -0.369865
18.484516 13.550185 -0.338564
19.395481 12.274593 -0.374752
19.170261 12.747100 -0.395081
19.091352 13.302702 -0.367908
18.852137 13.770430 -0.368193
19.769352 12.484777 -0.403063
19.522573 12.947320 -0.391003
19.462749 13.520249 -0.392851
19.202202 13.976870 -0.360971
20.104107 12.669311 -0.362862
19.876438 13.148074 -0.382124
19.821054 13.727880 -0.388950
19.578634 14.202243 -0.388226
20.502361 12.894134 -0.412565
20.252361 13.363165 -0.399824
20.170761 13.928875 -0.364470
19.947098 14.420989 -0.394489
20.839840 13.079527 -0.362898
20.588640 13.551072 -0.349857
20.526943 14.133894 -0.342983
20.286825 14.617912 -0.349054
21.247520 13.309295 -0.409536
20.988970 13.781416 -0.388357
20.926287 14.368593 -0.378248
20.679079 14.852839 -0.375998
21.646875 13.533176 -0.434885
21.370348 13.998466 -0.390314
21.285683 14.574694 -0.346495
21.037039 15.061951 -0.343758
21.983004 13.716368 -0.362850
21.705105 14.183929 -0.318205
21.689100 14.810898 -0.370543
21.438452 15.302125 -0.367229
22.396923 13.948459 -0.392561
22.138449 14.434433 -0.378040
22.094709 15.047923 -0.388700
21.836729 15.539252 -0.377289
22.785290 14.163824 -0.378633
22.525068 14.653283 -0.363743
22.458788 15.255532 -0.341091
22.220860 15.765421 -0.359125
23.169676 14.376177 -0.351761
22.913328 14.872667 -0.343966
22.890217 15.509079 -0.377514
22.606598 15.992104 -0.335457
23.583952 14.606858 -0.356541
23.342482 15.118442 -0.370489
23.301832 15.748240 -0.378019
23.021416 16.239037 -0.343023
24.023191 14.852660 -0.384718
23.739943 15.342726 -0.346594
23.715414 15.988079 -0.372490
23.477247 16.514582 -0.395502
24.401043 15.059381 -0.326168
24.133268 15.563745 -0.309719
24.108139 16.212997 -0.331911
23.845991 16.727053 -0.325203
24.838535 15.302956 -0.334694
24.568529 15.811653 -0.317808
24.571213 16.485321 -0.371927
24.300808 17.000257 -0.357378
25.260450 15.536218 -0.315231
25.011793 16.064133 -0.326588
24.967346 16.711302 -0.319347
24.723803 17.250021 -0.339884
25.731871 15.799777 -0.346506
25.457264 16.317383 -0.328733
25.411623 16.969385 -0.317589
25.142843 17.496273 -0.309038
26.133596 16.019348 -0.286030
25.857235 16.540434 -0.267870
25.881659 17.244183 -0.337137
25.610291 17.775988 -0.327913
26.633778 16.299532 -0.331625
26.378613 16.841621 -0.340870
26.330301 17.503756 -0.321695
26.050722 18.035845 -0.304913
27.112316 16.565605 -0.341778
26.830530 17.097057 -0.322620
26.780918 17.763958 -0.299482
26.522778 18.317148 -0.309591
27.593225 16.832499 -0.344641
27.308865 17.368887 -0.324995
27.282051 18.057392 -0.324959
27.021193 18.616051 -0.334162
28.095165 17.111725 -0.360559
27.814198 17.657389 -0.347197
27.761358 18.335358 -0.315575
27.498058 18.899006 -0.323908
28.291052 17.926832 -0.327881
28.267591 18.630564 -0.325529
27.977108 19.182661 -0.306250
28.795069 18.213007 -0.327919
28.720230 18.889210 -0.267946
28.482925 19.484087 -0.307590
29.287573 19.223513 -0.321518
24.844072 16.916218 4.064016
24.887730 16.904104 4.481794
24.897518 16.230619 5.160683
24.029469 16.271538 5.808670
24.241835 16.378035 6.030098
24.401411 16.448341 6.304073
25.231600 16.345955 6.149714
25.044056 16.849037 6.113533
25.442276 16.450077 6.381302
26.043154 16.809784 6.256294
0.839496 0.301660 29.347864
0.874923 0.325213 29.321251
0.862772 0.316730 29.334871
0.886190 0.327582 29.318972
0.897725 0.340055 29.307671
0.878695 0.326954 29.326967
0.888755 0.328758 29.322962
0.900472 0.341315 29.311945
0.890015 0.329332 29.324976
0.874244 0.323450 29.336416
0.891260 0.329896 29.327002
0.875400 0.323974 29.338297
0.871329 0.316831 29.345369
0.883525 0.329149 29.334753
0.886608 0.326437 29.336458
0.870644 0.320316 29.347450
0.878784 0.325493 29.344002