# This PCD file was generated using the MATLAB® pcwrite function
# from Computer Vision System Toolbox®.
# .PCD v.7 - Point Cloud Data file format
VERSION .7
FIELDS x y z
SIZE 4 4 4
TYPE F F F
COUNT 1 1 1
WIDTH 856
HEIGHT 1
VIEWPOINT 0 0 0 1 0 0 0
POINTS 856
DATA ascii
39.651180 -22.642609 5.149946
39.782326 -23.175440 4.978622
39.605118 -22.579071 4.653381
39.760750 -23.110895 4.449974
39.576908 -22.509373 4.124407
39.737991 -23.045202 3.911577
39.661003 -22.327038 2.849762
39.754395 -22.894003 2.719109
39.495510 -22.289417 2.463223
39.678143 -22.836872 2.213524
39.531200 -22.195105 1.799889
39.712921 -22.750267 1.547981
37.032982 -22.809658 4.591976
37.021996 -23.360504 4.601345
36.643154 -22.840456 4.553980
36.609550 -23.394527 4.596338
36.237450 -22.876591 4.544596
36.227249 -23.421515 4.555685
35.844566 -22.909889 4.523647
35.840389 -23.450424 4.527439
35.419880 -22.953415 4.556164
35.410431 -23.491722 4.569042
35.052074 -22.981020 4.511511
35.070438 -23.509504 4.483965
34.674389 -23.012302 4.487398
34.644264 -23.551628 4.534964
34.292629 -23.045622 4.475784
34.263237 -23.582188 4.524342
33.912292 -23.079338 4.468426
33.925636 -23.601179 4.450937
33.492111 -23.126507 4.532549
33.505508 -23.644485 4.515812
33.176422 -23.141407 4.432564
33.169712 -23.664257 4.450096
32.780266 -23.182804 4.471626
32.794067 -23.696363 4.455952
32.366550 -23.231091 4.549353
32.380413 -23.740786 4.534426
32.033512 -23.253645 4.494560
32.033005 -23.766157 4.505886
31.681797 -23.283089 4.477680
31.676929 -23.794876 4.498301
31.331200 -23.312889 4.464533
31.326851 -23.822462 4.485838
31.069820 -23.312128 4.289600
31.066223 -23.822104 4.311235
30.575394 -23.896536 4.577250
30.022203 -23.500229 4.965992
29.647228 -24.034281 5.056908
29.345570 -23.561119 4.968531
29.447245 -24.015995 4.780912
29.453110 -24.465179 4.442978
29.436844 -24.962458 4.498472
29.236301 -23.505394 4.498526
29.256386 -23.993689 4.479256
29.090096 -24.499454 4.499384
29.091570 -24.988985 4.519762
28.899090 -23.535927 4.502131
28.793976 -24.066544 4.752207
28.754179 -24.525978 4.505733
28.772827 -25.008608 4.490604
28.342403 -23.654037 4.994257
28.325279 -24.144035 5.057850
28.399191 -24.559513 4.560724
28.405760 -25.042965 4.573212
28.052120 -23.668951 4.916576
28.007856 -24.168564 5.043999
28.101311 -25.059620 4.523542
27.722305 -23.700325 4.932127
27.691307 -24.193405 5.033331
27.503941 -24.692833 5.128273
27.781414 -25.081390 4.513283
27.382324 -23.736826 4.978334
27.364084 -24.222969 5.053148
27.454350 -24.624502 4.492449
27.447060 -25.108250 4.542835
27.274101 -23.675556 4.471653
27.291538 -24.154371 4.463898
27.120804 -24.653891 4.524813
27.114288 -25.135393 4.575830
26.955158 -23.703125 4.468008
26.958086 -24.186138 4.497347
26.807222 -24.676924 4.514576
26.816256 -25.152119 4.529249
26.651621 -23.724586 4.430779
26.640736 -24.212330 4.497396
26.472946 -24.708208 4.562847
26.482426 -25.181030 4.578022
26.306137 -23.765560 4.507082
26.338551 -24.232971 4.463629
26.186115 -24.722570 4.494043
26.199692 -25.193634 4.500235
26.004330 -23.787621 4.476004
26.022934 -24.259760 4.469820
25.844225 -24.758377 4.576681
25.858135 -25.226652 4.583370
25.676039 -23.822744 4.522045
25.681396 -24.298487 4.553522
25.548210 -24.777306 4.541580
25.559238 -25.245770 4.557920
25.375751 -23.845400 4.496931
25.394951 -24.314198 4.491512
25.236185 -24.803110 4.556065
25.247717 -25.269892 4.572809
25.063145 -23.874710 4.512022
25.082645 -24.341837 4.506979
24.938034 -24.823950 4.536045
25.141523 -25.219286 3.988842
24.764166 -23.897955 4.492695
24.771502 -24.369749 4.525501
24.761192 -24.794107 4.151539
25.770878 -24.367994 1.081268
24.988651 -25.183388 3.517517
25.484856 -23.390095 1.318882
25.630751 -23.843575 0.931644
25.741989 -24.261568 0.121822
24.728546 -25.186563 3.358597
25.763037 -24.788027 0.123257
25.454128 -23.257252 0.353775
25.565632 -23.739380 0.067764
25.421600 -24.278381 0.050526
24.475327 -25.186657 3.173286
25.437290 -24.806725 0.071159
25.226646 -23.224634 -0.018192
25.241518 -23.758259 0.007092
25.072395 -24.308531 0.077065
25.080101 -24.838520 0.126652
24.901649 -23.244461 -0.076260
24.903271 -23.784666 -0.003193
24.738373 -24.332512 0.059353
24.746973 -24.861351 0.109352
24.563019 -23.272488 -0.083897
24.571152 -23.808538 -0.029350
24.404903 -24.356819 0.044743
24.414402 -24.884506 0.095146
24.230349 -23.297707 -0.107430
24.247311 -23.828468 -0.081081
24.072016 -24.381451 0.033211
24.082413 -24.907986 0.084011
23.895569 -23.324818 -0.118355
23.903044 -23.860126 -0.053383
23.752304 -24.399994 -0.023209
23.761133 -24.927212 0.037514
23.561411 -23.352251 -0.126194
23.582209 -23.879314 -0.108715
23.427534 -24.421452 -0.057552
23.452019 -24.941090 -0.054264
23.227901 -23.380001 -0.130947
23.246929 -23.907343 -0.103535
23.098236 -24.445793 -0.069695
23.146759 -24.953085 -0.162674
22.885952 -23.414257 -0.094185
22.905626 -23.939903 -0.066345
22.803356 -24.451420 -0.223705
22.833525 -24.968876 -0.239487
22.582691 -23.422556 -0.217968
22.601002 -23.950256 -0.180386
22.478210 -24.473930 -0.249500
22.495617 -24.997435 -0.206955
22.263189 -23.442047 -0.271645
22.295078 -23.961023 -0.291855
22.149126 -24.499296 -0.252979
22.165268 -25.022903 -0.200413
21.939377 -23.464966 -0.303165
21.965477 -23.987558 -0.294151
21.818642 -24.526226 -0.243748
21.843758 -25.044205 -0.229771
21.611790 -23.491280 -0.312424
21.634541 -24.015797 -0.283745
21.519667 -24.533440 -0.387249
21.528156 -25.062502 -0.285515
21.318050 -23.490467 -0.493465
21.349190 -24.011047 -0.503754
21.194948 -24.557301 -0.401535
21.214037 -25.080051 -0.348270
20.991665 -23.515978 -0.506847
21.008959 -24.046898 -0.439007
20.874069 -24.579000 -0.432442
20.873020 -25.114513 -0.261559
20.662264 -23.544842 -0.497833
20.687393 -24.069223 -0.468693
20.543240 -24.608456 -0.401825
20.565878 -25.128330 -0.357807
20.344765 -23.563435 -0.554134
20.364258 -24.093258 -0.485756
20.229256 -24.625874 -0.466171
18.955965 -26.038685 7.594839
20.252827 -25.145832 -0.422009
20.020765 -23.588415 -0.568604
20.045919 -24.113518 -0.529324
19.901245 -24.654699 -0.439499
19.928654 -25.171322 -0.414722
19.685621 -23.625717 -0.501930
19.711523 -24.149109 -0.462288
19.578411 -24.680141 -0.439342
19.602266 -25.199274 -0.384857
19.366869 -23.646816 -0.539948
19.389593 -24.174088 -0.470703
19.257364 -24.704678 -0.446159
19.287502 -25.218884 -0.430874
19.044149 -23.672733 -0.545753
19.073030 -24.193975 -0.515583
18.936642 -24.729525 -0.450134
18.967403 -25.243135 -0.434704
18.722931 -23.697483 -0.558525
18.751404 -24.219604 -0.518356
18.616266 -24.754686 -0.451279
18.647654 -25.267700 -0.435703
18.399738 -23.725512 -0.548820
18.430134 -24.245546 -0.518295
18.304743 -24.770565 -0.528568
18.328278 -25.292572 -0.433887
18.078096 -23.752367 -0.546093
18.113270 -24.266460 -0.554836
17.980558 -24.801161 -0.484627
18.009302 -25.317751 -0.429249
17.753235 -23.785395 -0.501129
17.788778 -24.298355 -0.509678
17.664581 -24.822515 -0.516903
17.690750 -25.343233 -0.421810
17.439350 -23.801155 -0.571571
17.475395 -24.314636 -0.580154
17.348358 -24.844219 -0.546436
17.375889 -25.364843 -0.451218
17.118668 -23.828949 -0.560394
17.155125 -24.341846 -0.568859
17.031916 -24.866272 -0.573223
17.060810 -25.386799 -0.477886
16.798470 -23.857040 -0.546398
16.835999 -24.368044 -0.564648
16.710270 -24.898022 -0.517963
16.742987 -25.413223 -0.462116
16.478779 -23.885429 -0.529594
16.516638 -24.395855 -0.547737
16.394154 -24.920712 -0.539204
16.427885 -25.435841 -0.483292
16.165779 -23.895447 -0.638489
16.201687 -24.413574 -0.607265
16.077888 -24.943745 -0.557697
16.112638 -25.458799 -0.501720
15.847214 -23.920216 -0.645821
15.884315 -24.436855 -0.624439
15.761500 -24.967117 -0.573441
15.797267 -25.482098 -0.517418
15.527810 -23.949579 -0.620693
15.565588 -24.465614 -0.599205
15.445011 -24.990828 -0.586437
15.482954 -25.501711 -0.570152
15.209864 -23.973564 -0.632370
15.248363 -24.489546 -0.610851
15.128448 -25.014874 -0.596684
15.166251 -25.529701 -0.540581
14.891855 -23.997887 -0.641277
14.931621 -24.508724 -0.659416
14.811831 -25.039255 -0.604179
14.850654 -25.554003 -0.548050
14.573961 -24.016933 -0.687027
14.613945 -24.533352 -0.665554
14.495189 -25.063969 -0.608917
14.535144 -25.574697 -0.592583
14.255549 -24.041950 -0.690411
14.296402 -24.563347 -0.629250
14.178543 -25.089012 -0.610905
14.219401 -25.603600 -0.554760
13.937686 -24.072857 -0.651421
13.979193 -24.589863 -0.619938
13.861917 -25.114384 -0.610146
13.903795 -25.628891 -0.553997
13.619664 -24.098507 -0.649273
13.661766 -24.614202 -0.627716
13.545337 -25.140083 -0.606632
13.587070 -25.649687 -0.600246
13.300463 -24.118984 -0.683960
13.343627 -24.636410 -0.652573
13.227173 -25.160631 -0.650036
13.269865 -25.671835 -0.633785
12.982230 -24.145315 -0.676277
13.025818 -24.661446 -0.654823
12.910320 -25.187014 -0.641006
12.954088 -25.699112 -0.614834
12.662174 -24.166527 -0.705406
12.706525 -24.683149 -0.684048
12.593585 -25.213718 -0.629219
12.638110 -25.725754 -0.603073
12.343830 -24.193535 -0.692173
12.386666 -24.705233 -0.710491
12.276991 -25.240742 -0.614681
12.319372 -25.748037 -0.638264
12.025641 -24.220860 -0.676174
12.068850 -24.732527 -0.694508
11.955139 -25.259556 -0.676750
12.003266 -25.775349 -0.620991
11.703916 -24.241814 -0.706814
11.751944 -24.761339 -0.665863
11.638206 -25.287271 -0.656662
11.684335 -25.799297 -0.640686
11.393145 -24.281786 -0.596367
11.437054 -24.792837 -0.614674
11.322340 -25.316353 -0.623909
11.368286 -25.827269 -0.617889
11.064911 -24.294153 -0.690536
11.109321 -24.806826 -0.709095
11.001256 -25.339472 -0.647823
11.048766 -25.851933 -0.632011
10.749899 -24.326746 -0.633831
10.796633 -24.841324 -0.632610
10.684692 -25.368153 -0.619446
11.013601 -26.128922 2.140835
10.420425 -24.341299 -0.712368
11.000843 -25.434971 4.165672
10.476453 -24.866701 -0.632423
10.912899 -25.900427 4.255266
10.680660 -25.685760 2.189335
10.734042 -26.165430 2.278435
10.428107 -24.730528 2.047466
10.737607 -25.471926 4.292578
10.482376 -25.217598 2.132423
10.646454 -25.931911 4.343863
10.400949 -25.722996 2.319366
10.688004 -26.373783 4.346970
10.464975 -26.208210 2.487602
10.158201 -24.782465 2.267155
10.472623 -25.505524 4.392118
10.372349 -25.956484 4.365662
10.130977 -25.766415 2.510929
10.442391 -26.417645 4.586063
10.190414 -26.244869 2.629776
9.990358 -24.928041 3.206245
10.166330 -25.502626 4.178896
9.946890 -25.314825 2.564529
10.091532 -25.976318 4.340578
9.857243 -25.804834 2.655403
10.155869 -26.432898 4.501377
9.901772 -26.271248 2.655785
9.712433 -24.960194 3.282188
9.794809 -25.451511 3.545803
9.824574 -26.006456 4.416439
9.579929 -25.839369 2.762764
9.876278 -26.453743 4.478468
9.601748 -26.291067 2.605457
9.429466 -24.987480 3.321289
9.490464 -25.460472 3.427395
9.550945 -26.031853 4.445419
9.279516 -25.858276 2.715160
9.550079 -26.449505 4.162691
9.311262 -26.317242 2.626759
9.146877 -25.015032 3.362858
9.215666 -25.492367 3.507992
9.282402 -26.060453 4.506243
9.344175 -26.511604 4.617159
9.020828 -26.343718 2.650620
8.905312 -25.072842 3.641510
8.908310 -25.502222 3.395023
9.047159 -26.107691 4.755661
8.690681 -25.906073 2.716377
9.130548 -26.565763 4.984482
8.718550 -26.364679 2.608303
8.625597 -25.100712 3.687649
8.600397 -25.513712 3.294731
8.808728 -26.150974 4.967667
8.407450 -25.936729 2.784561
8.842519 -26.582602 4.911995
8.433050 -26.394283 2.666786
8.331409 -25.118980 3.658245
8.711046 -25.774199 5.414133
8.364489 -25.569506 3.587963
8.684847 -26.250381 5.758190
8.590338 -26.616165 5.037979
8.142561 -26.421690 2.698368
8.398887 -25.365288 5.441582
7.858925 -25.026268 2.745960
8.449316 -25.802126 5.472116
7.906490 -25.498068 2.742119
8.458141 -26.293049 5.972857
8.091669 -26.117584 4.157780
8.524104 -26.725498 6.084705
7.850255 -26.448589 2.722736
8.253047 -25.462912 6.055710
7.526706 -25.029108 2.587402
8.242858 -25.859358 5.795166
7.570914 -25.501745 2.563602
8.222458 -26.330042 6.130770
8.259048 -26.748882 6.096155
7.482314 -26.446342 2.388710
7.918306 -25.446356 5.758530
7.490134 -25.202684 3.799524
8.062731 -25.927013 6.216715
7.202242 -25.491148 2.252373
8.119692 -26.423538 6.883722
8.319529 -26.893021 7.600037
8.032106 -26.786737 6.285280
7.827055 -25.565975 6.558746
7.861027 -25.980453 6.513088
7.798201 -26.420635 6.626858
8.113554 -26.931978 7.817589
7.708409 -26.789547 6.038694
7.531882 -25.571545 6.440519
7.860041 -26.124001 7.643251
7.495437 -25.955942 6.094439
5.888899 -25.215427 -0.730015
7.797512 -26.546513 7.739265
7.927036 -26.976231 8.104528
7.333887 -25.627195 6.730175
5.475075 -24.703810 -0.819729
7.568754 -26.129349 7.505774
5.533875 -25.232790 -0.812134
7.688859 -26.623001 8.337204
7.618774 -26.979969 7.879475
7.558410 -25.881556 8.656862
7.015108 -25.622953 6.530354
5.154117 -24.737154 -0.753670
7.595271 -26.270487 8.634155
7.478627 -26.658653 8.500854
7.518336 -27.049034 8.488590
5.171824 -26.334852 -0.699657
7.221200 -25.860901 8.330944
6.626229 -25.589245 6.084211
4.795552 -24.753380 -0.828815
7.362504 -26.297270 8.701864
7.186196 -26.665264 8.348454
7.249422 -27.065331 8.422556
6.626843 -26.884350 6.070271
6.927710 -25.863073 8.190819
6.349849 -25.609715 6.083239
7.096432 -26.311058 8.646797
6.943562 -26.689901 8.391150
6.905079 -27.061565 8.089823
6.293646 -26.891651 5.858301
6.753235 -25.917244 8.483795
4.102382 -24.800110 -0.863575
6.880203 -26.344355 8.776255
6.761240 -26.733730 8.646790
5.884656 -26.457233 5.571199
6.641455 -27.081909 8.068069
5.994279 -26.909836 5.784224
4.134329 -26.415310 -0.779438
6.586155 -25.972300 8.787287
6.340037 -26.261324 7.789728
5.371335 -25.915125 4.465246
6.560335 -26.770565 8.827097
6.615155 -27.163273 8.862495
5.712668 -26.933521 5.780106
3.795585 -26.445473 -0.767578
6.409456 -26.021461 9.044100
6.430061 -26.403263 8.964090
6.338852 -26.800629 8.932592
6.371249 -27.187071 8.891460
5.415960 -26.954054 5.730885
3.456321 -26.476053 -0.752586
6.124191 -26.028116 8.941490
5.147146 -25.660580 5.810946
6.185992 -26.426094 8.994303
5.200598 -26.100199 5.819656
6.067979 -26.816654 8.878271
6.029312 -27.188225 8.608360
3.116567 -26.507051 -0.734444
5.982661 -26.088305 9.295948
5.972219 -26.458857 9.121534
5.789459 -26.831476 8.807663
5.892468 -27.237530 8.984550
5.668535 -26.085724 9.113060
5.694646 -26.471611 9.051947
4.719324 -26.172266 6.092888
2.453959 -25.476982 -0.780071
5.546870 -26.856541 8.853357
4.659613 -26.627193 6.186417
2.331348 -26.025356 -0.811939
5.686342 -27.270205 9.133772
5.472552 -26.125072 9.291142
5.421654 -26.486738 9.004021
4.270168 -26.145966 5.610209
5.346438 -26.892300 9.023834
1.988578 -26.056686 -0.783642
5.462904 -27.298920 9.227905
5.203362 -26.139673 9.254866
5.281720 -26.540716 9.344217
5.078816 -26.911383 8.998333
1.622265 -26.082874 -0.817951
5.256977 -27.331057 9.371016
4.956511 -26.162149 9.286734
4.975576 -26.547056 9.206894
4.844032 -26.938707 9.069210
4.768889 -27.309032 8.727055
3.575366 -27.081245 5.412766
4.671555 -26.173306 9.218321
4.680161 -26.557707 9.110262
0.994360 -25.576687 -0.886860
4.602865 -26.964687 9.123468
4.767582 -27.380213 9.437374
3.209357 -27.094336 5.225458
4.388263 -26.186010 9.162146
4.502276 -26.599751 9.333414
4.543307 -27.029848 9.654989
4.444790 -27.391455 9.268707
2.864126 -27.112614 5.107534
3.983904 -26.165052 8.803135
0.181623 -25.077576 -0.934429
4.158038 -26.599527 9.121346
4.019501 -26.996275 8.978580
2.775670 -26.738609 5.803225
4.176379 -27.413265 9.252459
3.650225 -26.166763 8.643019
3.687671 -26.570877 8.607918
3.016379 -26.409533 6.923952
-0.092957 -25.662205 -0.875946
3.884729 -27.044813 9.308628
4.021857 -27.454226 9.526201
3.241191 -26.149937 8.311792
-0.560899 -25.129551 -0.945988
3.339532 -26.574406 8.423336
3.652402 -27.073206 9.390051
3.837281 -27.489597 9.717535
2.920936 -27.345705 7.482357
2.991569 -26.177410 8.379913
3.453196 -26.683514 9.354568
3.630179 -27.140814 9.969727
3.500610 -27.501545 9.541971
2.769909 -26.212078 8.514257
3.436905 -26.759258 9.943096
2.517369 -26.559042 7.800674
1.460297 -26.328880 5.337807
3.328300 -27.155500 9.879503
2.231781 -26.958214 7.343437
1.693419 -26.861353 6.098293
3.053570 -27.498768 9.122704
2.517618 -26.238976 8.577578
1.818286 -26.494276 6.862953
2.834277 -27.137785 9.363873
2.075092 -27.005852 7.649042
2.630672 -27.501837 8.782305
2.327080 -26.280724 8.779266
1.882991 -26.591511 7.670900
1.729319 -27.020720 7.528191
-2.075320 -26.381989 -0.867905
2.291371 -27.518248 8.647476
1.863434 -26.258905 8.385988
-2.482093 -25.258190 -1.009491
1.544053 -26.604885 7.570379
1.334392 -27.028803 7.311655
-2.480334 -26.410044 -0.915924
1.806599 -27.516937 8.208267
0.706627 -26.085207 6.549946
-0.204427 -25.881557 4.624300
-2.848186 -25.290592 -0.963669
1.423308 -26.661232 7.942488
-0.216055 -26.347183 4.462051
-2.755794 -25.860653 -0.929928
1.054493 -27.056591 7.352272
1.458285 -27.535149 8.082449
-2.775344 -27.007114 -0.884293
1.121109 -26.264446 8.047615
0.345000 -26.096010 6.443439
1.074533 -26.673777 7.829679
-0.508641 -26.379898 4.542915
1.105240 -27.134840 8.077971
1.028727 -27.544704 7.798737
-0.037135 -26.103806 6.305300
-0.959665 -25.909376 4.440027
0.674415 -26.678314 7.622448
-3.535665 -25.920929 -0.927124
0.662419 -27.137854 7.781452
0.019807 -27.043797 6.485031
-3.663022 -26.504749 -0.944790
0.849664 -27.584976 8.039829
0.098279 -27.498217 6.517363
0.336434 -26.267805 7.673454
0.381763 -26.703333 7.642675
-0.460804 -26.556414 5.968489
0.172894 -27.136288 7.410408
-0.805674 -26.997866 5.478531
0.071139 -27.558172 7.087006
-3.972220 -27.109064 -0.929829
1.377125 -26.557083 10.280680
-4.444350 -25.399380 -0.992195
-0.248916 -26.671730 7.009733
-4.334050 -25.981211 -0.934853
0.336443 -27.226374 8.322124
0.386825 -27.652895 8.303101
0.993947 -26.556702 10.084293
0.250484 -26.413046 8.674812
1.417348 -27.020521 10.781689
0.689416 -26.901232 9.395763
1.200409 -27.405264 10.526110
-0.147352 -27.655752 7.858707
0.903977 -26.613111 10.445084
0.994222 -27.018225 10.506912
0.902282 -27.426029 10.490810
0.997884 -27.826851 10.562748
-0.397075 -27.689117 7.967054
0.526529 -26.615623 10.273085
0.891081 -27.067215 10.832394
0.824163 -27.474649 10.860987
0.660985 -27.846691 10.459864
0.306011 -26.647551 10.392405
0.573664 -27.083115 10.766029
0.423676 -27.483702 10.647638
0.399426 -27.874346 10.500408
0.071711 -26.677063 10.487711
0.160217 -27.086018 10.538681
0.356353 -27.532637 11.028212
-0.483318 -27.435959 9.564756
0.013666 -27.891499 10.326756
-1.389015 -27.768747 7.871899
-0.277579 -26.687401 10.387308
-0.373584 -27.073746 10.118319
-1.627872 -26.897573 7.962925
-0.860373 -27.452595 9.434889
-1.739696 -27.795025 7.818750
-0.604152 -26.702618 10.333857
-0.406518 -27.132370 10.563135
-2.003415 -27.388138 8.032204
-3.078296 -27.272697 6.231842
-1.990312 -27.830175 7.941372
-0.943078 -26.716803 10.267126
-0.773795 -27.145275 10.443356
-7.702445 -26.230312 -1.001503
-1.016863 -27.551315 10.186832
-2.273547 -27.421005 8.122816
-2.239974 -27.865522 8.066259
-3.110356 -27.798292 6.630882
-1.294762 -26.730026 10.187414
-1.243810 -27.146219 10.166742
-2.590695 -27.449411 8.139690
-2.693597 -27.885895 7.861954
-1.883245 -26.708849 9.741104
-1.671906 -27.154320 9.972368
-3.176003 -26.967619 7.582445
-8.559928 -26.299320 -0.972298
-8.660546 -26.922729 -0.928513
-3.487659 -27.883558 7.130867
-2.194541 -26.731054 9.747229
-3.841002 -26.491192 7.191036
-9.077294 -25.728348 -0.938499
-1.894380 -27.188728 10.111057
-3.219888 -27.029232 8.044859
-8.979932 -26.336128 -0.933868
-3.557952 -27.476910 7.671831
-9.101663 -26.960327 -0.922237
-3.301711 -27.951111 7.958456
-8.930268 -27.569551 -0.802261
-4.011508 -26.540623 7.464794
-9.531987 -25.758610 -0.944778
-2.071918 -27.228367 10.318512
-3.726682 -27.035366 7.787622
-9.406402 -26.372921 -0.899269
-2.197804 -27.658834 10.264124
-4.068728 -27.490704 7.418169
-9.549829 -26.998144 -0.919395
-9.420278 -27.607588 -0.867733
-2.471076 -26.825069 10.291948
-4.217380 -26.584538 7.681379
-9.977410 -25.791159 -0.929352
-2.341111 -27.257320 10.385944
-9.856103 -26.407860 -0.893227
-4.312821 -27.529364 7.577890
-9.955178 -27.040550 -0.845135
-9.846549 -27.650663 -0.827667
-10.435540 -25.822918 -0.925442
-4.325784 -27.098711 7.929186
-10.335460 -26.440464 -0.923431
-10.434180 -27.077398 -0.873837
-10.318799 -27.691729 -0.849056
-4.695765 -26.662678 8.012436
-10.935195 -25.850250 -0.973686
-10.817105 -26.473917 -0.948074
-10.869832 -27.118763 -0.831348
-10.770417 -27.734901 -0.832111
-11.397187 -25.883608 -0.959030
-11.295236 -26.508814 -0.958946
-11.387376 -27.154535 -0.898170
-11.269622 -27.776337 -0.875393
-11.878263 -25.915571 -0.963402
-11.775386 -26.544537 -0.964283
-11.890384 -27.192602 -0.934444
-11.771399 -27.818689 -0.912735
-12.331796 -25.951889 -0.921974
-12.186816 -26.587898 -0.867306
-12.348577 -27.234976 -0.900311
-12.228467 -27.864243 -0.879562
-12.864137 -25.979891 -0.979347
-12.741515 -26.618458 -0.958183
-12.855964 -27.274784 -0.924973
-12.710746 -27.909433 -0.873249
-13.375270 -26.011637 -0.998474
-13.203250 -26.658834 -0.914848
-13.311234 -27.319113 -0.872025
-13.170678 -27.956493 -0.829433
-13.870399 -26.046310 -0.987843
-13.708901 -26.696213 -0.921597
-13.853284 -27.358707 -0.924477
-13.729581 -28.000278 -0.906960
-14.355014 -26.083147 -0.955711
-14.204345 -26.735523 -0.906612
-14.342540 -27.402725 -0.899662
-14.192966 -28.048981 -0.851753
-14.922328 -26.112371 -1.019104
-14.745229 -26.772118 -0.940388
-14.852193 -27.446468 -0.892460
-14.707404 -28.096596 -0.853676
-15.372891 -26.154770 -0.928574
-15.232049 -26.814194 -0.897800
-15.376460 -27.490398 -0.894627
-15.249204 -28.144266 -0.880402
-15.938870 -26.186602 -0.971130
-15.809442 -26.850273 -0.957211
-15.922071 -27.534239 -0.913475
-15.768048 -28.193754 -0.869652
-16.488426 -26.221346 -0.983772
-16.299900 -26.894106 -0.902424
-16.412033 -27.582048 -0.856945
-16.263069 -28.244915 -0.822060
-17.040413 -26.257097 -0.989639
-16.876160 -26.932734 -0.940445
-16.994579 -27.626209 -0.900642
-16.837612 -28.294746 -0.859623
-17.594761 -26.293856 -0.988693
-17.429031 -26.974258 -0.941109
-17.573528 -27.671801 -0.929447
-17.434761 -28.345175 -0.912518
-18.151386 -26.331619 -0.980896
-17.984200 -27.016788 -0.934925
-18.148594 -27.718784 -0.943478
-17.942074 -28.398941 -0.853153
-18.737053 -26.368132 -0.995781
-18.541573 -27.060322 -0.921860
-18.706070 -27.767685 -0.928070
-18.544579 -28.451544 -0.891514
-19.352444 -26.403538 -1.032612
-19.128136 -27.103203 -0.931278
-19.265640 -27.817585 -0.905712
-19.109459 -28.506098 -0.877991
-19.916199 -26.444450 -1.003304
-19.771873 -27.143972 -0.991634
-19.882011 -27.866430 -0.934647
-19.690159 -28.561438 -0.871975
-20.537117 -26.482147 -1.024731
-20.363979 -27.189144 -0.985672
-20.446041 -27.918425 -0.897820
-20.307671 -28.617315 -0.894791
-21.126095 -26.523607 -1.002354
-20.958469 -27.235409 -0.972191
-21.067707 -27.969553 -0.911255
-20.900196 -28.674757 -0.880894
-21.731289 -26.565130 -0.986713
-21.583313 -27.281305 -0.979603
-21.692131 -28.021870 -0.916618
-21.530113 -28.732880 -0.895016
-14.749372 -27.133158 6.575130
-22.352978 -26.606787 -0.977421
-22.147175 -27.331562 -0.915417
-22.319225 -28.075373 -0.913879
-22.120319 -28.792631 -0.858566
-22.984291 -26.649126 -0.967072
-22.783920 -27.379383 -0.914131
-22.948887 -28.130058 -0.902988
-22.776802 -28.852924 -0.877560
-23.589279 -26.694513 -0.920868
-23.416107 -27.428740 -0.897610
-23.588245 -28.185743 -0.890812
-23.407425 -28.914680 -0.860123
-15.329507 -27.294701 7.494619
-23.905479 -26.759138 -0.592766
-23.999901 -27.481487 -0.824757
-24.244652 -28.242290 -0.883980
-24.040440 -28.977613 -0.834457
-24.050247 -26.834019 -0.105713
-24.636417 -27.533117 -0.792164
-24.881687 -28.300564 -0.848091
-24.734329 -29.041557 -0.854977
-24.152443 -26.910576 0.414806
-25.444820 -27.579227 -0.906414
-25.609642 -28.358252 -0.884632
-25.431355 -29.106873 -0.866158
-24.062317 -26.996958 1.101063
-26.109337 -27.632652 -0.875732
-26.311264 -28.417946 -0.884598
-26.094193 -29.173536 -0.834538
-23.745564 -27.093853 1.974556
-26.851147 -27.684658 -0.902428
-27.015778 -28.479004 -0.875107
-15.228169 -29.216763 9.383087
-23.673500 -27.175461 2.617847
-24.636936 -27.837799 1.649715
-27.490669 -27.741711 -0.827251
-27.723080 -28.541428 -0.856110
-27.509857 -29.310902 -0.816921
-28.604206 -27.005919 -0.999641
-24.762375 -27.907042 2.130283
-28.433052 -28.605211 -0.827541
-28.179993 -29.381420 -0.758038
-29.143055 -27.065121 -0.813728
-24.928333 -27.974434 2.571976
-29.084152 -28.671032 -0.738136
-28.829144 -29.453012 -0.670959
-21.869755 -27.484276 5.786192
-25.182114 -28.038885 2.937801
-29.619698 -27.914051 -0.716606
-14.523416 -29.398893 11.732634
-21.823784 -27.555840 6.344296
-25.517941 -28.101044 3.236416
-30.531120 -27.969004 -0.819828
-25.632137 -28.842995 3.298557
-16.609650 -29.464211 10.462315
-30.217602 -29.600517 -0.540192
-21.794308 -27.625494 6.880793
-17.508331 -28.368439 10.170572
-26.047153 -28.158623 3.382893
-16.558704 -29.510649 10.943066
-32.575031 -27.258226 -0.997868
-18.239445 -28.407385 10.046879
-21.974678 -28.322109 7.129969
-25.267902 -29.670481 4.580320
-33.288113 -27.316910 -0.895161
-22.068985 -28.382658 7.560564
-22.374123 -28.438583 7.828232
-21.218750 -29.722513 8.717821
-19.012177 -28.559778 10.811361
-22.548695 -28.497019 8.194283
-22.471161 -29.161438 8.384447
-22.711540 -28.555412 8.567190
-22.514648 -27.992893 9.305847
-25.743835 -28.572035 6.890553
-23.595383 -29.277634 8.557081
-22.224697 -28.064648 9.985540
-27.685734 -28.611664 6.050505
-23.876263 -29.335918 8.852331
-21.645260 -28.142702 10.850368
-28.734509 -30.147352 5.889502
-21.435226 -28.208294 11.446707
-24.353123 -28.776943 9.372616
-39.262199 -28.632278 -0.694088
-21.209183 -28.272827 12.043098
-40.082306 -28.708799 -0.566254
-19.360657 -30.023432 13.182291
-20.709465 -28.920570 12.706551
-20.568600 -29.523941 12.913862
14.246580 -29.157757 35.462173
14.193937 -29.162766 35.433628
14.200366 -29.159466 35.442730
14.218493 -29.162306 35.451420
14.163951 -29.164932 35.426445
14.180405 -29.160633 35.438004
14.171788 -29.164902 35.433167
14.152291 -29.161804 35.427284
14.188732 -29.164434 35.444061
14.178341 -29.161324 35.442379
14.196795 -29.164341 35.450413
14.213723 -29.160469 35.461151
14.268532 -29.161160 35.485729
14.212880 -29.160765 35.463047
14.194949 -29.164980 35.454510
14.175390 -29.162354 35.449009
14.194055 -29.165298 35.456570
14.183644 -29.162361 35.455143
14.202364 -29.165142 35.462559
14.219978 -29.164474 35.472237