# This PCD file was generated using the MATLAB® pcwrite function
# from Computer Vision System Toolbox®.
# .PCD v.7 - Point Cloud Data file format
VERSION .7
FIELDS x y z
SIZE 4 4 4
TYPE F F F
COUNT 1 1 1
WIDTH 940
HEIGHT 1
VIEWPOINT 0 0 0 1 0 0 0
POINTS 940
DATA ascii
34.505180 -6.708983 3.226460
34.697529 -7.212326 3.000114
34.558540 -6.633040 2.645920
34.698437 -7.154181 2.477644
34.508133 -6.580489 2.175547
34.647465 -7.106180 2.005903
32.240662 -7.067706 4.376160
34.665894 -7.041769 1.441187
32.151421 -7.028299 3.983757
31.760601 -7.631022 4.462753
31.343956 -7.669590 4.483345
31.494362 -7.067401 3.788305
31.002743 -7.691734 4.415552
31.033398 -7.121325 3.868204
30.565468 -7.736624 4.477148
30.593483 -7.170995 3.930325
30.202625 -7.765076 4.449440
30.209385 -7.207183 3.926529
29.870476 -7.786880 4.386179
29.797836 -7.251398 3.967211
29.626297 -7.788051 4.206514
29.388676 -7.295947 4.012913
29.351788 -7.796564 4.069250
28.959259 -7.346963 4.095959
28.991161 -7.826384 4.056213
28.622559 -7.373732 4.054108
28.631897 -7.856529 4.047316
28.220322 -7.419236 4.114248
28.207516 -7.903746 4.140991
27.864353 -7.452773 4.113359
27.873859 -7.928932 4.107866
27.509876 -7.486616 4.116531
27.519524 -7.960008 4.111620
27.135689 -7.526885 4.157072
27.124130 -8.002529 4.186199
26.784626 -7.561317 4.168480
26.773506 -8.034189 4.198372
26.414532 -7.602152 4.217573
26.403805 -8.071697 4.248285
26.087421 -7.631036 4.203213
26.077190 -8.098359 4.234612
25.721298 -7.672414 4.260551
25.711475 -8.136409 4.292759
25.397053 -7.701852 4.253660
25.392685 -8.162235 4.277966
25.059399 -7.736132 4.276100
25.070061 -8.189723 4.275221
24.713852 -7.773713 4.319595
24.705463 -8.229926 4.353937
24.379759 -7.808500 4.349607
24.376572 -8.260691 4.375952
24.056698 -7.840498 4.365862
24.091122 -8.279290 4.322863
23.757915 -7.865168 4.341774
23.773941 -8.307810 4.334135
23.482292 -7.882535 4.276718
23.476107 -8.331078 4.313503
23.372217 -8.773758 4.240782
23.409792 -9.207114 4.191456
23.184662 -7.907739 4.258587
23.196722 -8.349112 4.260473
23.062120 -8.799456 4.251547
23.090710 -9.232923 4.220230
22.887848 -7.933200 4.243513
22.904518 -8.371531 4.236902
22.783491 -8.816776 4.203012
22.764603 -9.261145 4.270336
22.591879 -7.958912 4.231485
22.604488 -8.396944 4.234182
22.471252 -8.844193 4.229025
22.474390 -9.280864 4.252079
22.263447 -7.996902 4.294205
22.280415 -8.430792 4.288450
22.181297 -8.865705 4.213276
22.201569 -9.296482 4.200645
22.002602 -8.011077 4.216499
22.015764 -8.445766 4.219988
21.883961 -8.889910 4.218555
21.904379 -9.318874 4.206223
21.725384 -8.031528 4.177357
21.738880 -8.465097 4.181173
21.627670 -8.902142 4.136019
21.632328 -9.335008 4.160254
21.432781 -8.058218 4.177204
21.446560 -8.490114 4.181406
21.331795 -8.926832 4.147036
21.336922 -9.357874 4.171703
21.141171 -8.085140 4.180017
21.170681 -8.509946 4.148109
21.040920 -8.950531 4.151920
21.081120 -9.370205 4.094481
20.869429 -8.104842 4.140072
20.880062 -8.535434 4.154116
20.769852 -8.968398 4.113791
20.791046 -9.392468 4.102407
20.594246 -8.126286 4.111898
20.623802 -8.549011 4.080332
20.495373 -8.987724 4.087475
20.531502 -9.406398 4.039370
20.315891 -8.149457 4.095592
20.345449 -8.570934 4.064217
20.206978 -9.012115 4.100824
20.228542 -9.433390 4.089931
20.045208 -8.169904 4.063519
20.057102 -8.597118 4.078583
19.933746 -9.031911 4.079918
19.955517 -9.452065 4.069242
19.740395 -8.205360 4.126728
19.773350 -8.622175 4.086548
19.661016 -9.051943 4.061636
19.686428 -9.469917 4.041845
19.484648 -8.220369 4.062895
19.500725 -8.643442 4.069368
19.388809 -9.072208 4.045969
19.410992 -9.490121 4.035717
19.212212 -8.242994 4.048033
19.228636 -8.664942 4.054798
19.104099 -9.097468 4.070417
19.139542 -9.509495 4.022863
18.953133 -8.259985 3.998335
18.982800 -8.676050 3.967815
18.846073 -9.113427 4.022442
18.884630 -9.523852 3.965511
18.681513 -8.283079 3.988562
18.698683 -8.703329 3.995836
18.575588 -9.134374 4.014561
18.598396 -9.548918 4.004921
18.410500 -8.306396 3.981377
18.428020 -8.725520 3.988930
18.305729 -9.155540 4.009251
18.328747 -9.568962 3.999813
18.140120 -8.329935 3.976765
18.169849 -8.742669 3.946756
18.048252 -9.172225 3.968554
18.071522 -9.585077 3.959259
17.870396 -8.353689 3.974716
17.888626 -8.770559 3.982824
17.782230 -9.192669 3.958738
17.805721 -9.604536 3.949631
17.601355 -8.377659 3.975225
17.619942 -8.793400 3.983604
17.522270 -9.210999 3.932339
17.548782 -9.621130 3.913832
17.343822 -8.396072 3.940199
17.362814 -8.811239 3.948774
17.254478 -9.233051 3.937012
17.141039 -9.695303 4.416611
17.086349 -8.414730 3.907503
17.116266 -8.824125 3.878040
16.990025 -9.254150 3.934618
16.961996 -9.683588 4.118017
16.818823 -8.439357 3.915417
16.851309 -8.846346 3.876532
16.570244 -9.346980 4.530485
16.616692 -9.737314 4.436255
16.441841 -8.528434 4.357374
16.426966 -8.952603 4.501894
16.489674 -9.284342 3.831264
16.609634 -9.653540 3.446735
16.238810 -8.517673 4.130995
16.361267 -8.870857 3.726858
16.432621 -9.205426 2.986507
17.260843 -8.801517 -0.421104
17.293001 -9.269251 -0.444618
16.203430 -8.400965 3.183567
17.096382 -8.335604 -0.474636
16.978758 -8.816496 -0.500477
17.008881 -9.285357 -0.514259
16.758036 -7.895287 -0.429699
16.786865 -8.365939 -0.436871
16.667627 -8.846543 -0.451389
16.697926 -9.313723 -0.464947
16.472801 -7.911870 -0.495689
16.501999 -8.382502 -0.502777
16.422827 -8.841763 -0.700470
16.464161 -9.306602 -0.762836
16.172840 -7.938586 -0.491360
16.255310 -8.375328 -0.750656
16.130112 -8.862219 -0.733688
16.151121 -9.336509 -0.698589
15.931775 -7.923583 -0.775578
15.959949 -8.397640 -0.773041
15.810496 -8.898621 -0.627804
15.364389 -9.607841 1.770155
15.613918 -7.963460 -0.678753
15.644226 -8.434025 -0.685608
15.041632 -9.209208 1.883757
15.090569 -9.628992 1.766249
15.546803 -9.388053 -0.649265
15.321325 -7.985429 -0.705559
14.856622 -8.802997 2.001070
14.777676 -9.225694 1.833458
14.797798 -9.661038 1.872561
15.262848 -9.404927 -0.713501
14.521773 -8.423813 2.207893
14.561089 -8.843210 2.137829
14.499993 -9.251282 1.863846
14.949787 -9.438512 -0.608498
14.221552 -8.473589 2.396120
14.297401 -8.861191 2.101208
14.228031 -9.273764 1.867331
14.239943 -9.712968 1.965816
14.669262 -9.453993 -0.687229
13.961385 -8.490455 2.352373
14.030462 -8.881898 2.086506
13.959544 -9.294279 1.853596
13.972676 -9.732985 1.952328
14.372780 -9.479340 -0.665150
13.700864 -8.507588 2.310888
13.762245 -8.904070 2.083994
13.682785 -9.321550 1.901285
13.665874 -9.779778 2.217100
14.081382 -9.502058 -0.669960
13.429284 -8.535870 2.350201
13.487618 -8.932576 2.133030
13.413854 -9.343584 1.902233
13.790318 -9.525021 -0.672184
13.158770 -8.564324 2.391975
13.215494 -8.960028 2.174725
13.141602 -9.369063 1.935165
13.188179 -9.782276 1.797632
13.499613 -9.548227 -0.671829
12.902195 -8.578116 2.327967
12.955076 -8.976759 2.130177
12.873717 -9.391520 1.940916
12.920598 -9.803303 1.793440
13.212765 -9.568884 -0.698563
12.632929 -8.606972 2.374510
12.692025 -8.996173 2.107620
12.602013 -9.418442 1.988588
12.647903 -9.829180 1.841106
12.917218 -9.597209 -0.643600
12.372756 -8.625301 2.344599
12.422851 -9.023026 2.146618
12.330471 -9.446585 2.048601
12.381280 -9.850632 1.841682
12.631842 -9.617446 -0.675152
12.102354 -8.658519 2.425514
12.153733 -9.051246 2.197916
12.069151 -9.464373 2.012011
12.114051 -9.873219 1.854521
11.836113 -8.687885 2.479252
11.885789 -9.079622 2.251629
11.803444 -9.487651 2.027248
11.851377 -9.891487 1.820089
11.576951 -8.706865 2.456284
11.621280 -9.104617 2.278028
11.538248 -9.511136 2.044834
11.581079 -9.919018 1.887270
11.312427 -8.736586 2.514715
11.356146 -9.132147 2.326588
11.271068 -9.538949 2.104460
11.315378 -9.942225 1.907166
11.049140 -8.766454 2.575500
11.093794 -9.156340 2.347757
11.000800 -9.575108 2.245924
11.048569 -9.968292 1.959232
10.798041 -8.766613 2.410835
10.833467 -9.177250 2.341471
10.745924 -9.582799 2.111568
10.782385 -9.995399 2.023611
10.548109 -8.754307 2.149189
10.583199 -9.169568 2.089323
10.587452 -9.319867 -0.685059
10.623676 -9.778281 -0.696953
10.374239 -8.399632 -0.757050
10.409103 -8.867857 -0.712540
10.300426 -9.346275 -0.656872
10.336922 -9.804111 -0.668705
10.086020 -8.427380 -0.727791
10.122330 -8.891569 -0.712986
10.015579 -9.364918 -0.705761
10.052436 -9.823282 -0.717636
9.798438 -8.455342 -0.696014
9.835812 -8.914405 -0.720856
9.729134 -9.391808 -0.672581
9.766262 -9.849592 -0.684395
9.511638 -8.479725 -0.691479
9.549256 -8.937507 -0.726242
9.443439 -9.414971 -0.676701
9.480884 -9.872730 -0.688511
9.224719 -8.496819 -0.743969
9.262687 -8.960875 -0.729130
9.157740 -9.438399 -0.678333
9.195501 -9.896132 -0.690144
8.937604 -8.520494 -0.744362
8.976125 -8.984505 -0.729523
8.872059 -9.462089 -0.677483
8.910136 -9.919795 -0.689293
8.651619 -8.550643 -0.692654
8.689591 -9.008396 -0.727425
8.586418 -9.486037 -0.674145
8.623895 -9.940424 -0.725811
8.362255 -8.563690 -0.777321
8.403110 -9.032548 -0.722820
8.298217 -9.502607 -0.747906
8.338284 -9.964634 -0.719982
8.076522 -8.593086 -0.730545
8.116700 -9.056957 -0.715729
8.013684 -9.530919 -0.699787
8.052758 -9.989100 -0.711666
7.791578 -8.622679 -0.681282
7.831794 -9.084867 -0.676346
7.727946 -9.555666 -0.688972
7.767336 -10.013820 -0.700863
7.500633 -8.637918 -0.748466
7.541962 -9.102245 -0.733765
7.437629 -9.573211 -0.755180
7.479734 -10.035618 -0.727379
7.211056 -8.658349 -0.773476
7.252338 -9.122114 -0.768780
7.154173 -9.602221 -0.699615
7.196895 -10.064015 -0.671799
6.923910 -8.683882 -0.756336
6.965657 -9.147606 -0.751671
6.865486 -9.624084 -0.721031
6.905917 -10.083261 -0.733078
6.633636 -8.704906 -0.776272
6.675892 -9.169142 -0.771709
6.576300 -9.646258 -0.739910
6.617092 -10.105963 -0.752022
6.346530 -8.730968 -0.754105
6.389250 -9.195160 -0.749577
6.286633 -9.668741 -0.756237
6.327788 -10.128971 -0.768433
6.055647 -8.752581 -0.768959
6.098875 -9.217283 -0.764534
5.996512 -9.691532 -0.770012
6.038029 -10.152287 -0.782288
5.765407 -8.775667 -0.771374
5.808056 -9.239714 -0.776932
5.710390 -9.718168 -0.741634
5.752222 -10.178893 -0.753941
5.473745 -8.797886 -0.781105
5.516815 -9.262451 -0.786762
5.419771 -9.741539 -0.750324
5.803833 -10.416116 2.099054
5.465513 -10.205003 -0.733006
5.186728 -8.825008 -0.748837
5.225177 -9.285493 -0.794022
5.128764 -9.765213 -0.756439
5.522890 -10.429187 1.971231
5.172588 -10.227716 -0.759026
4.887905 -8.842099 -0.802654
4.933162 -9.308839 -0.798698
4.837392 -9.789189 -0.759975
5.250328 -10.448512 1.925076
4.881662 -10.252209 -0.762665
4.602196 -8.870903 -0.755459
4.640795 -9.332488 -0.800785
4.545678 -9.813468 -0.760933
4.989680 -10.474606 1.970213
4.596160 -10.279856 -0.724247
4.301831 -8.888681 -0.803986
4.354129 -9.360382 -0.760937
4.259801 -9.841420 -0.719917
4.728014 -10.500191 2.007753
4.304918 -10.304916 -0.722767
4.014743 -8.916888 -0.761513
4.061470 -9.384599 -0.757885
3.969441 -9.867098 -0.705914
4.474773 -10.529469 2.096798
4.011765 -10.329577 -0.728550
3.714535 -8.936467 -0.794895
3.768527 -9.409115 -0.752224
3.668715 -9.888098 -0.748238
3.713072 -10.352489 -0.761192
3.429368 -8.966301 -0.737537
3.477089 -9.434887 -0.734169
3.368679 -9.910297 -0.778011
3.413442 -10.375767 -0.791126
3.128066 -8.986533 -0.765591
3.167080 -9.451420 -0.811333
3.075261 -9.936098 -0.765903
3.129734 -10.405443 -0.730114
2.823921 -9.006049 -0.800636
2.872744 -9.476892 -0.797710
2.781641 -9.962193 -0.751175
2.827122 -10.428706 -0.764500
2.530929 -9.032382 -0.774502
2.572156 -9.499855 -0.810711
2.479633 -9.985413 -0.772835
2.533683 -10.455615 -0.747253
2.235825 -9.057926 -0.755478
2.275105 -9.525015 -0.801506
2.176791 -10.008995 -0.791729
2.231587 -10.480237 -0.766384
1.929569 -9.078486 -0.782299
1.971169 -9.547733 -0.818768
1.882029 -10.036034 -0.768963
1.928679 -10.505220 -0.782738
1.624637 -9.100472 -0.796608
1.684646 -9.578074 -0.755676
1.577933 -10.060301 -0.782356
1.634169 -10.533069 -0.757446
1.318935 -9.122819 -0.808105
1.379822 -9.601441 -0.767487
1.263515 -10.081905 -0.831657
1.320539 -10.556266 -0.807056
1.012493 -9.145525 -0.816784
1.064474 -9.621611 -0.815105
0.969970 -10.110661 -0.791046
1.754497 -10.764745 2.086792
1.027677 -10.585366 -0.766636
0.705332 -9.168590 -0.822632
0.757852 -9.645732 -0.821198
1.710740 -10.437590 3.146206
0.674001 -10.138945 -0.757446
1.743924 -10.851885 3.098354
0.722209 -10.611738 -0.771858
0.397483 -9.192013 -0.825630
1.417449 -9.992540 2.732409
0.455764 -9.671953 -0.805214
1.345653 -10.434010 2.798519
0.356874 -10.161686 -0.798115
1.687241 -10.923248 3.876768
0.408164 -10.636698 -0.803127
0.102509 -9.220793 -0.777897
0.156043 -9.699356 -0.776878
1.164894 -10.481730 3.126554
0.060244 -10.190607 -0.758995
1.236217 -10.906372 3.213011
0.109257 -10.665550 -0.773777
-0.220182 -9.239928 -0.823044
-0.154937 -9.723649 -0.784092
-0.247588 -10.216971 -0.755486
0.960648 -10.929347 3.197025
-0.198173 -10.692987 -0.770451
-0.527067 -9.265400 -0.807903
-0.472424 -9.746629 -0.807461
-0.582070 -10.237389 -0.835011
0.586219 -10.933579 2.858648
-0.529263 -10.716288 -0.840725
-0.837326 -9.290236 -0.799423
-0.770364 -9.775854 -0.761173
-0.876937 -10.267998 -0.777905
0.389169 -10.973028 3.115721
-0.826671 -10.746715 -0.793312
-1.135977 -9.319275 -0.750130
-1.080318 -9.802060 -0.750156
-1.199062 -10.292733 -0.803616
0.138041 -11.001983 3.193361
-1.136154 -10.775248 -0.781231
-1.475106 -9.336202 -0.821003
-1.403256 -9.825359 -0.774105
-0.667475 -10.500501 1.749493
-1.509793 -10.320581 -0.788326
-0.106116 -11.032177 3.292160
-1.446157 -10.804131 -0.766254
-1.787364 -9.362141 -0.803650
-1.730555 -9.848280 -0.804367
0.881850 -10.903258 7.142624
-0.546991 -10.610139 2.959639
-1.830691 -10.346796 -0.798443
-0.256031 -11.077675 3.667233
-1.759863 -10.832839 -0.757805
0.396033 -10.096901 6.349350
-2.096806 -9.389363 -0.773964
0.438620 -10.477588 6.342028
-2.039483 -9.876418 -0.774940
0.516628 -10.899534 6.792147
-2.152544 -10.373415 -0.805458
-0.522040 -11.103742 3.693945
-2.090673 -10.859348 -0.793510
0.101284 -10.104131 6.229429
-2.440234 -9.407678 -0.835075
0.292218 -10.522245 6.634642
-2.385653 -9.896245 -0.845871
0.168427 -10.901330 6.511824
-0.751125 -11.135631 3.826534
-2.429659 -10.885314 -0.844734
-0.151320 -10.123801 6.234104
-2.778647 -9.428344 -0.874027
0.009165 -10.534801 6.544243
-2.726994 -9.918166 -0.894554
0.002151 -10.938164 6.740908
-2.795525 -10.428505 -0.800766
0.128247 -11.325607 6.959290
-0.330294 -10.162762 6.436743
-3.093849 -9.455822 -0.844425
-0.128141 -10.580018 6.848589
-3.041840 -9.946718 -0.865177
-0.217640 -10.964869 6.821735
-3.151952 -10.450728 -0.882359
-0.149489 -11.343813 6.880518
-0.455806 -10.214128 6.770487
-3.405793 -9.484539 -0.802551
-0.318489 -10.612810 7.004667
-3.357043 -9.975615 -0.832813
-0.324059 -11.010702 7.192669
-1.704803 -10.777949 3.660053
-3.459803 -10.482109 -0.830086
-0.487202 -11.354912 6.655741
-3.395185 -10.974289 -0.819530
-0.561407 -10.268638 7.141500
-3.714209 -9.514465 -0.748489
-0.573140 -10.632158 6.995365
-3.657836 -10.007839 -0.760395
-0.547294 -11.036174 7.257822
-3.801077 -10.508370 -0.858334
-0.537026 -11.403467 7.167877
-0.819872 -10.285953 7.125315
-0.738264 -10.669506 7.210224
-4.022306 -10.027815 -0.842209
-0.918095 -11.038715 6.964903
-4.132381 -10.536892 -0.855419
-0.782940 -11.426723 7.179718
-4.077703 -11.031315 -0.873375
-1.075479 -10.304489 7.120920
-4.554658 -9.525106 -1.164505
-1.023452 -10.683483 7.131611
-4.354523 -10.054926 -0.837357
-1.120321 -11.068426 7.090555
-4.464585 -10.565833 -0.849232
-0.975280 -11.456491 7.322948
-2.493429 -11.282045 3.702215
-4.401738 -11.062769 -0.849033
-1.450015 -10.297745 6.844501
-1.989422 -10.180755 5.590609
-4.757325 -9.580431 -0.843616
-1.365710 -10.687940 6.927710
-1.408118 -11.085602 7.016169
-4.781835 -10.597484 -0.803078
-1.189525 -11.483667 7.412577
-4.801236 -11.086361 -0.995949
-1.793972 -10.299541 6.654755
-5.116086 -9.601736 -0.886433
-1.600090 -10.712934 6.983643
-5.049614 -10.105471 -0.881714
-1.726209 -11.099342 6.880978
-5.159802 -10.621042 -0.890881
-1.841420 -11.464808 6.507221
-5.059465 -11.125967 -0.809158
-2.096957 -10.311274 6.568981
-5.419264 -9.635251 -0.798336
-1.850616 -10.735361 7.005358
-5.393107 -10.132522 -0.884907
-1.965147 -11.124762 6.931374
-5.482721 -10.652967 -0.847221
-2.452359 -11.454095 5.738867
-5.409821 -11.156096 -0.829903
-2.360489 -10.331781 6.577036
-5.772061 -9.659142 -0.816040
-2.018254 -10.771785 7.210842
-5.721039 -10.162772 -0.848354
-1.944036 -11.183989 7.545891
-5.818512 -10.683624 -0.827614
-2.149275 -11.534941 6.993868
-5.753218 -11.187529 -0.828873
-2.594929 -10.358318 6.650837
-6.126239 -9.683531 -0.830105
-2.446258 -10.766256 6.857533
-6.057890 -10.192049 -0.826641
-2.489771 -11.170456 6.939669
-6.159309 -10.714167 -0.813675
-2.319394 -11.567743 7.193148
-6.089147 -11.220204 -0.806271
-2.707603 -10.407520 6.978138
-6.464426 -9.711630 -0.804596
-2.699686 -10.789793 6.887466
-6.412746 -10.219084 -0.837528
-2.872847 -11.179498 6.700623
-2.712466 -11.580563 6.925406
-6.456144 -11.250619 -0.843307
-2.806623 -10.457915 7.323378
-6.834172 -9.734597 -0.838276
-2.834629 -10.831280 7.161713
-6.755708 -10.248578 -0.817863
-2.862383 -11.235391 7.271969
-6.874440 -10.772983 -0.838100
-3.557045 -11.556798 5.757217
-6.802823 -11.283452 -0.831615
-3.008244 -10.489107 7.454844
-3.690603 -10.370274 6.101822
-7.147296 -9.768288 -0.752293
-2.992549 -10.868633 7.382917
-7.130824 -10.274002 -0.857151
-3.329539 -11.236329 6.878626
-7.200225 -10.806900 -0.777843
-2.962289 -11.653595 7.502790
-7.141456 -11.317461 -0.798512
-7.542298 -9.788381 -0.822880
-3.334312 -10.879881 7.240957
-4.933538 -10.657681 4.124357
-7.475900 -10.304438 -0.830246
-3.469821 -11.274290 7.139341
-4.876929 -11.124043 4.414936
-7.562810 -10.837252 -0.785385
-3.142725 -11.684910 7.671947
-7.494403 -11.350829 -0.788647
-7.888648 -9.817507 -0.792034
-7.821704 -10.335305 -0.799816
-4.976668 -11.171230 4.803225
-7.917407 -10.869076 -0.771435
-3.381548 -11.711769 7.727388
-4.831755 -11.605572 4.966949
-8.240411 -9.846313 -0.766441
-8.177623 -10.365379 -0.783455
-5.378616 -11.187476 4.619553
-8.296676 -10.899031 -0.797764
-3.393530 -11.754699 8.207901
-5.392102 -11.615202 4.482430
-8.231681 -11.417005 -0.810734
-8.626563 -9.870393 -0.798412
-8.558442 -10.392920 -0.807190
-4.249310 -11.350573 7.233137
-6.015835 -11.182627 4.020651
-8.658404 -10.931394 -0.784954
-5.645004 -11.647488 4.584179
-8.956071 -9.903819 -0.721741
-4.909628 -10.910702 6.400444
-8.906909 -10.425171 -0.765755
-4.532755 -11.374540 7.229050
-9.021192 -10.964248 -0.768326
-4.575552 -11.763558 7.052650
-5.692382 -11.692918 5.054703
-8.955081 -11.486551 -0.782104
-9.315251 -9.933277 -0.693783
-4.875394 -10.972286 6.974905
-9.265836 -10.456690 -0.738091
-4.986070 -11.384089 6.933262
-9.424724 -10.994102 -0.817219
-6.589488 -11.686124 4.021946
-9.362908 -11.519381 -0.840187
-5.339168 -10.573788 6.774492
-9.715476 -9.957543 -0.730991
-5.178185 -10.993591 6.951166
-9.665723 -10.484122 -0.775730
-5.143118 -11.420306 7.161062
-9.774997 -11.029297 -0.766670
-5.031937 -11.823538 7.253338
-9.702683 -11.556911 -0.772694
-5.436414 -10.622058 7.107031
-10.041219 -9.992900 -0.635117
-5.446800 -11.019281 6.990932
-10.011642 -10.518337 -0.714397
-5.353523 -11.451813 7.295301
-10.161563 -11.062014 -0.772587
-5.343242 -11.849213 7.214994
-6.986249 -11.760272 4.447140
-10.088573 -11.592334 -0.779118
-5.653124 -10.653457 7.234663
-10.392552 -10.025141 -0.578705
-5.612513 -11.056250 7.204399
-7.734761 -10.831163 3.691923
-10.414681 -10.546930 -0.743538
-5.630118 -11.478154 7.320333
-10.518489 -11.097726 -0.723015
-5.604486 -11.878060 7.265722
-5.868692 -10.684960 7.364183
-5.450849 -11.126389 7.945974
-7.996442 -10.865499 3.814205
-10.803926 -10.577770 -0.742638
-8.049544 -11.344913 3.891392
-10.912820 -11.131129 -0.729164
-6.222984 -11.889898 6.740683
-7.157647 -11.844593 5.226500
-10.864797 -11.664899 -0.779194
-5.428489 -10.798266 8.533714
-6.237442 -10.697307 7.250826
-11.075198 -10.093541 -0.421181
-5.771384 -11.146152 7.896469
-11.194596 -10.609182 -0.737446
-5.075093 -11.611403 9.136467
-5.089240 -11.984158 9.025148
-6.548160 -11.917404 6.706808
-11.260364 -11.701794 -0.781258
-5.951031 -10.790088 8.166094
-5.679207 -11.206129 8.498325
-5.581738 -11.619857 8.782690
-5.288123 -12.013861 9.150671
-7.868236 -11.902633 5.128351
-11.641242 -11.739979 -0.753658
-6.612289 -10.767880 7.605398
-11.862012 -10.151231 -0.408348
-5.708680 -11.252879 8.896067
-11.876325 -10.683294 -0.555164
-5.870762 -11.644421 8.778543
-12.099463 -11.235252 -0.712791
-5.688295 -12.035451 8.968313
-8.259435 -11.931238 5.035326
-12.006734 -11.779354 -0.696793
-8.813741 -10.573334 4.763401
-12.276893 -10.178733 -0.424408
-6.296474 -11.248725 8.444260
-7.485572 -11.142715 6.656158
-8.635955 -11.040155 4.926271
-6.105392 -11.672918 8.860748
-12.516318 -11.269961 -0.726185
-5.970742 -12.062580 8.974247
-8.271037 -11.975127 5.521206
-7.394746 -10.792497 7.354849
-12.665538 -10.209991 -0.394444
-6.551436 -11.275608 8.505304
-7.593570 -11.185946 6.967276
-8.938254 -11.070252 4.982729
-6.373473 -11.699609 8.895731
-6.287872 -12.088930 8.933731
-12.874063 -11.854682 -0.769882
-7.393054 -10.848656 7.811293
-13.106406 -10.236309 -0.434021
-6.829181 -11.300895 8.536119
-13.031524 -10.786084 -0.448910
-6.790244 -11.718146 8.720160
-13.247081 -11.347557 -0.582573
-6.259951 -12.127337 9.398649
-7.021920 -12.102059 8.296669
-8.784688 -12.043581 5.747309
-7.632171 -10.878341 7.915205
-13.486257 -10.269947 -0.378677
-7.377608 -11.304940 8.185940
-13.445300 -10.819256 -0.443130
-6.564968 -11.773004 9.464157
-13.540875 -11.390967 -0.402905
-6.610879 -12.153045 9.313677
-13.611907 -11.937148 -0.626373
-7.905669 -10.904702 7.972816
-13.930884 -10.297623 -0.408344
-7.776242 -11.322521 8.062784
-13.831527 -10.855300 -0.391998
-6.760192 -11.803737 9.602278
-7.601245 -11.759835 8.434242
-13.950017 -11.428441 -0.382793
-6.673009 -12.187756 9.639332
-14.068826 -11.976561 -0.670536
-8.132232 -10.936001 8.097807
-14.354110 -10.328341 -0.400517
-7.889758 -11.362370 8.340258
-14.253856 -10.889234 -0.385025
-8.000407 -11.782559 8.315351
-14.401856 -11.464462 -0.414433
-7.243823 -12.208523 9.261951
-14.404315 -12.020018 -0.539646
-8.351916 -10.968016 8.232933
-14.802772 -10.357447 -0.419807
-8.148643 -11.391279 8.417404
-14.677756 -10.923816 -0.373154
-8.139716 -11.818535 8.554041
-14.826037 -11.502655 -0.400608
-7.774577 -12.231951 8.956995
-8.769755 -10.981886 8.107632
-15.301797 -10.382860 -0.497364
-8.648522 -11.403857 8.178505
-15.151389 -10.955722 -0.420101
-15.257762 -11.541223 -0.389797
-15.164151 -12.105871 -0.387272
-15.742881 -10.414612 -0.489708
-8.897798 -11.434585 8.279015
-15.603206 -10.990068 -0.429596
-8.923717 -11.868129 8.369305
-15.703303 -11.579937 -0.389721
-8.482953 -12.290219 8.852755
-15.633235 -12.147749 -0.419640
-16.173283 -10.448115 -0.461151
-16.013828 -11.027899 -0.378632
-16.138260 -11.619858 -0.368633
-8.911374 -12.319055 8.716839
-16.067616 -12.191089 -0.399078
-16.679943 -10.476022 -0.521099
-16.444088 -11.065159 -0.346401
-16.618465 -11.658780 -0.397007
-16.522190 -12.234794 -0.396828
-17.202129 -10.503822 -0.590187
-17.001648 -11.095653 -0.464272
-17.101017 -11.698522 -0.419456
-16.978573 -12.279228 -0.389091
-17.638134 -10.539540 -0.545055
-17.493092 -11.131186 -0.490166
-17.560295 -11.739942 -0.405197
-17.462212 -12.324084 -0.406654
-18.159081 -10.569578 -0.594009
-18.057686 -11.163736 -0.594086
-18.072903 -11.780458 -0.446453
-17.948071 -12.369757 -0.418232
-18.539619 -10.610988 -0.469723
-18.470032 -11.205446 -0.508450
-18.562099 -11.822651 -0.450916
-10.319179 -12.483321 9.042599
-18.403534 -12.416512 -0.385822
-19.110725 -10.639392 -0.559322
-19.001087 -11.241850 -0.553730
-9.817952 -12.119172 10.095978
-19.132416 -11.863487 -0.539577
-10.083329 -12.520577 9.711006
-18.906445 -12.463672 -0.400661
-19.579163 -10.676111 -0.522064
-19.501804 -11.280771 -0.554832
-10.685803 -12.135136 9.501080
-19.626476 -11.907442 -0.531174
-10.620858 -12.552728 9.491241
-19.411633 -12.511687 -0.409172
-20.049042 -10.713552 -0.479122
-19.937653 -11.323546 -0.475471
-11.027987 -12.166122 9.512150
-20.142616 -11.951732 -0.538845
-10.995986 -12.586610 9.464659
-19.932426 -12.560518 -0.426159
-20.574455 -10.748277 -0.489246
-20.516193 -11.360822 -0.545609
-20.647438 -11.997192 -0.525288
-11.237666 -12.621324 9.590149
-21.102200 -10.783900 -0.492691
-21.016205 -11.402530 -0.520481
-21.167866 -12.043211 -0.519966
-11.424016 -12.656222 9.776588
-21.063072 -12.660916 -0.527813
-21.659782 -10.818796 -0.518337
-21.545513 -11.443971 -0.518093
-21.759453 -12.088865 -0.580334
-21.619118 -12.712635 -0.553028
-22.185242 -10.856650 -0.500896
-22.076996 -11.486305 -0.508945
-22.256737 -12.137189 -0.532471
-22.149986 -12.765233 -0.542263
-22.754799 -10.893076 -0.519440
-22.638622 -11.528554 -0.521503
-22.790619 -12.185785 -0.513950
-22.689938 -12.818759 -0.531818
-23.256149 -10.934221 -0.460049
-23.146175 -11.573649 -0.470230
-23.354851 -12.234914 -0.516773
-23.217834 -12.873097 -0.500290
-23.880280 -10.970016 -0.513187
-23.740791 -11.616879 -0.496620
-23.892857 -12.285330 -0.484272
-23.761799 -12.928419 -0.475998
-24.421261 -11.011154 -0.474827
-24.302265 -11.662228 -0.480400
-24.519249 -12.335835 -0.527950
-24.379719 -12.985370 -0.514053
-25.022125 -11.050478 -0.484413
-24.880379 -11.708129 -0.470631
-25.090630 -12.387934 -0.508274
-24.978916 -13.043202 -0.523148
-25.625626 -11.090865 -0.486015
-25.504669 -11.753902 -0.494141
-25.664131 -12.441001 -0.481087
-25.544117 -13.101619 -0.490185
-26.231674 -11.132311 -0.479580
-26.087620 -11.801858 -0.468719
-26.269238 -12.494909 -0.473297
-26.118622 -13.161084 -0.456558
-26.869934 -11.173606 -0.491756
-26.717266 -11.849817 -0.475742
-26.876762 -12.549873 -0.457420
-26.724819 -13.221987 -0.442093
-27.421017 -11.219535 -0.415985
-27.237278 -11.901186 -0.374882
-27.516621 -12.605856 -0.459831
-27.355827 -13.284332 -0.439362
-28.124561 -11.260746 -0.463959
-27.939297 -11.949948 -0.424854
-28.151588 -12.662976 -0.446995
-28.004498 -13.348078 -0.441177
-28.770725 -11.305423 -0.450321
-28.584015 -12.001068 -0.413097
-28.766163 -12.721167 -0.406113
-28.610222 -13.412066 -0.395180
-29.480747 -11.349188 -0.479206
-29.261890 -12.052854 -0.418282
-29.474857 -12.780717 -0.433887
-29.294479 -13.478720 -0.405285
-30.163151 -11.395247 -0.472816
-29.942619 -12.105865 -0.414108
-30.163609 -12.841468 -0.432724
-29.973946 -13.546443 -0.399544
-30.879398 -11.441596 -0.482128
-30.688236 -12.159341 -0.450897
-30.847374 -12.903412 -0.415726
-30.687199 -13.616138 -0.409542
-31.661366 -11.487485 -0.531139
-31.437351 -12.214219 -0.477154
-31.596424 -12.967061 -0.438923
-31.426941 -13.687738 -0.428207
-32.352474 -11.537379 -0.495277
-32.158329 -12.270782 -0.468182
-32.372463 -13.032325 -0.469936
-32.146267 -13.760077 -0.417938
-33.141232 -11.586105 -0.522766
-32.913837 -12.328404 -0.473476
-33.159954 -13.099134 -0.495945
-32.900085 -13.834606 -0.421902
-33.845600 -11.638363 -0.472916
-33.640526 -12.387609 -0.443966
-33.918919 -13.167038 -0.486660
-33.696896 -13.911695 -0.445240
-34.697002 -11.688697 -0.520149
-34.530464 -12.447377 -0.523338
-34.721058 -13.236862 -0.496265
-34.521255 -13.991018 -0.474949
-35.528076 -11.741154 -0.537434
-35.327873 -12.509192 -0.519066
-35.518387 -13.308059 -0.488472
-35.284542 -14.069841 -0.445709
-36.330086 -11.795774 -0.519531
-36.160938 -12.572421 -0.526608
-36.335075 -13.380980 -0.480820
-36.115582 -14.152189 -0.452045
-37.110466 -11.852275 -0.472950
-36.964634 -12.637210 -0.499130
-37.253277 -13.457118 -0.530048
-36.949951 -14.236088 -0.446320
-37.843903 -11.910931 -0.381313
-37.804104 -12.703491 -0.482803
-38.018898 -13.532102 -0.458347
-37.787498 -14.321529 -0.428471
-38.653793 -11.969774 -0.329632
-38.712925 -12.771488 -0.499115
-38.694340 -14.410942 -0.443195
-39.666443 -12.027535 -0.398624
-39.525463 -12.840806 -0.435703
-39.906906 -13.693500 -0.513512
-39.621487 -14.502704 -0.455574
-40.399052 -12.911873 -0.398792
-40.856758 -13.776905 -0.520065
-40.543922 -14.595893 -0.448765
-41.616188 -13.857494 -0.389183
-41.444485 -14.689791 -0.412170
-42.563656 -13.944005 -0.363853
-42.517426 -14.792345 -0.468342
-43.429066 -14.030036 -0.272289
-43.416126 -14.889401 -0.398426
-44.308792 -14.987695 -0.310108
9.185369 -12.655318 31.907146
9.139496 -12.658032 31.886990
9.128096 -12.655240 31.886980
9.155146 -12.657718 31.900238
9.091233 -12.656911 31.871321
9.136316 -12.658956 31.893232
9.161888 -12.654479 31.908842
9.108383 -12.660725 31.882154
9.124912 -12.656194 31.893513
9.143296 -12.659069 31.901756
9.123890 -12.656511 31.895710
9.142347 -12.659363 31.903795
9.150166 -12.655677 31.910345
9.168654 -12.658092 31.918316
9.131030 -12.656748 31.904194
9.149617 -12.659416 31.911976
9.139606 -12.660241 31.909962