# This PCD file was generated using the MATLAB® pcwrite function
# from Computer Vision System Toolbox®.
# .PCD v.7 - Point Cloud Data file format
VERSION .7
FIELDS x y z
SIZE 4 4 4
TYPE F F F
COUNT 1 1 1
WIDTH 772
HEIGHT 1
VIEWPOINT 0 0 0 1 0 0 0
POINTS 772
DATA ascii
-0.237939 -0.442657 -0.250335
-0.290684 -0.443970 -0.287746
-0.249919 -0.448407 -0.281113
-0.275719 -0.434846 -0.292975
-0.235126 -0.439245 -0.285983
-0.220726 -0.404442 -0.258693
-0.174472 -0.404640 -0.244291
-0.219307 -0.402579 -0.276320
-0.114504 -0.370506 -0.201471
-0.178251 -0.379697 -0.253917
-0.119790 -0.372574 -0.225038
-0.222449 -0.401978 -0.318453
-0.079958 -0.349694 -0.201081
-0.188045 -0.382656 -0.302234
-0.053259 -0.334116 -0.190163
-0.128244 -0.350008 -0.257932
-0.083540 -0.349958 -0.241254
-0.120184 -0.344677 -0.268010
-0.031822 -0.320646 -0.201974
-0.080414 -0.322708 -0.243020
-0.067598 -0.339448 -0.260654
-0.078731 -0.320752 -0.259677
-0.016452 -0.310533 -0.220344
-0.045753 -0.302431 -0.240773
-0.002561 -0.302085 -0.222221
-0.087170 -0.322957 -0.307470
-0.000798 -0.300276 -0.238392
-0.072607 -0.314246 -0.309877
0.037102 -0.278754 -0.210756
-0.045947 -0.299271 -0.297474
0.038895 -0.276945 -0.226645
-0.013524 -0.281355 -0.277267
0.076176 -0.255845 -0.198020
0.000667 -0.272919 -0.278760
0.060498 -0.263528 -0.236081
0.003013 -0.270603 -0.295006
0.114636 -0.233374 -0.184034
0.058164 -0.241121 -0.243470
0.093583 -0.243942 -0.229762
0.042992 -0.247830 -0.282033
0.152454 -0.211354 -0.168821
0.074219 -0.230741 -0.259782
0.148683 -0.212590 -0.191599
0.059624 -0.237096 -0.298626
0.128542 -0.222596 -0.237817
0.096150 -0.217372 -0.267999
0.152984 -0.208647 -0.221945
0.104341 -0.212109 -0.275806
0.160830 -0.203614 -0.229287
0.129115 -0.198453 -0.259925
0.168733 -0.198552 -0.236547
0.137252 -0.193242 -0.267401
0.187333 -0.187797 -0.227767
0.145448 -0.188002 -0.274792
0.226796 -0.165982 -0.186568
0.175029 -0.172031 -0.249995
0.218788 -0.169415 -0.217418
0.167285 -0.174800 -0.281241
0.161683 -0.155413 -0.283731
0.157460 -0.136220 -0.274364
0.242041 -0.156275 -0.199690
0.191231 -0.161716 -0.263940
0.165734 -0.130960 -0.281352
0.229415 -0.162110 -0.238871
0.220025 -0.146272 -0.238072
0.178409 -0.144789 -0.297726
0.174062 -0.125674 -0.288255
0.247450 -0.151755 -0.228964
0.207651 -0.151295 -0.277548
0.182445 -0.120362 -0.295072
0.250412 -0.149343 -0.243628
0.215940 -0.146046 -0.284225
0.210566 -0.127025 -0.286492
0.190882 -0.115024 -0.301802
0.273142 -0.136567 -0.224980
0.244161 -0.130988 -0.257513
0.218934 -0.121739 -0.293040
0.199372 -0.109661 -0.308445
0.281041 -0.131581 -0.231101
0.232676 -0.135473 -0.297321
0.247142 -0.107361 -0.265943
0.227979 -0.095690 -0.281479
0.303312 -0.119109 -0.211860
0.245967 -0.127782 -0.295318
0.255364 -0.102183 -0.272130
0.241277 -0.088327 -0.279331
0.329969 -0.104402 -0.183784
0.268751 -0.115489 -0.276200
0.263634 -0.096981 -0.278232
0.244717 -0.085155 -0.293952
0.323622 -0.106851 -0.214895
0.277045 -0.110277 -0.282260
0.271952 -0.091758 -0.284249
0.262816 -0.075798 -0.283021
0.331457 -0.101934 -0.220506
0.285387 -0.105042 -0.288234
0.280318 -0.086512 -0.290180
0.280711 -0.066577 -0.271823
0.348382 -0.092338 -0.208818
0.312152 -0.090947 -0.259709
0.307259 -0.072968 -0.261555
0.293695 -0.059442 -0.268970
0.347259 -0.092039 -0.231486
0.320332 -0.085829 -0.265335
0.310893 -0.069868 -0.275800
0.301960 -0.054274 -0.274596
0.385988 -0.071317 -0.175978
0.328557 -0.080690 -0.270877
0.323708 -0.062690 -0.272638
0.310270 -0.049086 -0.280137
0.363233 -0.082065 -0.242138
0.319221 -0.083886 -0.311266
0.331998 -0.057521 -0.278052
0.332148 -0.038395 -0.259382
0.413936 -0.055363 -0.159532
0.366818 -0.060109 -0.237831
0.340331 -0.052332 -0.283381
0.327020 -0.038649 -0.290962
0.383575 -0.069885 -0.243639
0.353491 -0.065153 -0.286992
0.344398 -0.048991 -0.297454
0.348592 -0.028162 -0.269787
0.387508 -0.066960 -0.257498
0.361888 -0.059935 -0.292192
0.374094 -0.034592 -0.258305
0.343940 -0.028134 -0.301443
0.399749 -0.059842 -0.253549
0.374465 -0.052773 -0.288410
0.361405 -0.038437 -0.307762
0.352462 -0.022849 -0.306552
0.411897 -0.052789 -0.249437
0.378804 -0.049445 -0.302334
0.374080 -0.031389 -0.303837
0.361026 -0.017546 -0.311574
0.455436 -0.030088 -0.173319
0.407355 -0.034953 -0.262401
0.398792 -0.019297 -0.272789
0.381967 -0.007479 -0.289578
0.428169 -0.042725 -0.258769
0.395880 -0.038884 -0.312128
0.423007 -0.007519 -0.241353
0.394454 -0.000724 -0.285296
0.489585 -0.011330 -0.136529
0.423839 -0.024771 -0.271643
0.427175 -0.004156 -0.254840
0.398888 0.002966 -0.298957
0.463261 -0.023397 -0.222305
0.416916 -0.026535 -0.312483
0.423831 -0.003851 -0.286509
0.411316 0.009670 -0.294429
0.489519 -0.009527 -0.180858
0.440470 -0.014526 -0.280546
0.443570 0.005938 -0.263514
0.431330 0.019138 -0.271497
0.479145 -0.013624 -0.230611
0.434161 -0.015924 -0.321500
0.440704 0.006524 -0.295227
0.428321 0.020127 -0.303216
0.494197 -0.005287 -0.216246
0.457242 -0.004220 -0.289108
0.460103 0.016091 -0.271853
0.433171 0.024046 -0.316670
0.491699 -0.005467 -0.247822
0.462147 -0.000597 -0.302486
0.471988 0.022599 -0.266660
0.445467 0.030643 -0.311653
0.520181 0.009291 -0.196134
0.474150 0.006144 -0.297326
0.476769 0.026300 -0.279851
0.464797 0.039664 -0.287966
0.501333 0.001325 -0.274131
0.465681 0.004009 -0.347760
0.488581 0.032750 -0.274423
0.473246 0.044830 -0.291869
0.516168 0.009503 -0.259270
0.491190 0.016562 -0.305197
0.493563 0.036562 -0.287509
0.485156 0.051171 -0.286364
0.518016 0.011512 -0.281639
0.496501 0.020408 -0.318355
0.492134 0.037989 -0.319292
0.490237 0.055199 -0.299415
0.541976 0.023925 -0.238316
0.508355 0.027031 -0.312718
0.494376 0.040882 -0.341777
0.488908 0.057170 -0.331202
0.553086 0.030253 -0.232289
0.513867 0.030987 -0.325761
0.522132 0.053201 -0.288928
0.510569 0.066652 -0.297202
0.578954 0.043380 -0.178883
0.534775 0.041312 -0.291562
0.527513 0.057230 -0.301788
0.519099 0.071835 -0.300641
0.569158 0.040020 -0.238770
0.531353 0.041612 -0.332811
0.551118 0.067773 -0.257760
0.539971 0.080825 -0.266126
0.582899 0.047496 -0.222880
0.554656 0.052785 -0.288715
0.556411 0.071737 -0.270394
0.545265 0.084952 -0.278777
0.590858 0.052318 -0.225862
0.560281 0.056784 -0.301408
0.567607 0.077764 -0.263937
0.556599 0.090900 -0.272355
0.582699 0.049933 -0.286098
0.560553 0.058714 -0.333166
0.573094 0.081833 -0.276455
0.562086 0.095132 -0.284888
0.596373 0.057351 -0.269906
0.566659 0.062991 -0.345838
0.573301 0.084203 -0.308097
0.573328 0.101012 -0.278245
0.625068 0.071302 -0.195897
0.586023 0.072343 -0.310470
0.589875 0.091964 -0.282175
0.579008 0.105347 -0.290656
0.622932 0.071694 -0.236974
0.587015 0.074689 -0.342186
0.611201 0.101094 -0.236770
0.590153 0.111158 -0.283793
0.633410 0.077587 -0.229895
0.605780 0.083668 -0.306427
0.606749 0.102128 -0.287552
0.596023 0.115596 -0.296079
0.639103 0.081428 -0.242039
0.611983 0.087979 -0.318743
0.617655 0.107944 -0.280440
0.607069 0.121334 -0.288998
0.640445 0.083479 -0.273535
0.613694 0.090741 -0.350395
0.623711 0.112321 -0.292586
0.613127 0.125874 -0.301154
0.672845 0.098381 -0.169040
0.640684 0.102333 -0.275263
0.634514 0.118064 -0.285260
0.621710 0.131024 -0.303562
0.665628 0.096936 -0.239281
0.649061 0.107356 -0.277567
0.640757 0.122541 -0.297274
0.623453 0.134764 -0.335052
0.683931 0.105846 -0.192642
0.646905 0.108929 -0.328537
0.651453 0.128208 -0.289736
0.638938 0.141341 -0.308114
0.673984 0.103576 -0.282579
0.657723 0.114829 -0.320994
0.657880 0.132783 -0.301615
0.647580 0.146508 -0.310259
0.699458 0.115129 -0.196495
0.672342 0.121854 -0.293754
0.668466 0.138374 -0.293868
0.666577 0.153382 -0.263425
0.690865 0.113657 -0.286588
0.675195 0.125263 -0.325144
0.675075 0.143046 -0.305608
0.664919 0.156856 -0.314285
0.715050 0.124429 -0.200033
0.689408 0.132033 -0.297626
0.700351 0.151544 -0.219091
0.683215 0.163301 -0.267112
0.719523 0.127901 -0.221365
0.697966 0.137130 -0.299432
0.692338 0.153326 -0.309251
0.682326 0.167222 -0.317959
0.725904 0.132100 -0.232822
0.699862 0.140518 -0.340553
0.709505 0.159898 -0.261692
0.692826 0.172576 -0.309822
0.741597 0.139415 -0.185004
0.715128 0.147332 -0.302783
0.709663 0.163620 -0.312544
0.699796 0.177602 -0.321279
0.742055 0.141691 -0.235807
0.719167 0.151419 -0.333962
0.726118 0.169758 -0.264675
0.716672 0.183180 -0.273471
0.761161 0.149819 -0.158008
0.733794 0.157842 -0.295896
0.732964 0.174538 -0.275930
0.718873 0.188026 -0.314365
0.762164 0.152407 -0.208740
0.740977 0.162657 -0.307157
0.737161 0.179190 -0.306923
0.726106 0.193191 -0.325593
0.763922 0.155437 -0.259507
0.750917 0.167977 -0.298527
0.755124 0.184758 -0.238786
0.740504 0.198170 -0.287249
0.775660 0.161181 -0.230863
0.758273 0.172883 -0.309635
0.754468 0.189416 -0.309314
0.750339 0.203095 -0.278469
0.780491 0.165222 -0.261711
0.768087 0.178116 -0.300810
0.766683 0.194462 -0.280588
0.753778 0.208651 -0.319187
0.791802 0.170703 -0.232844
0.775614 0.183112 -0.311763
0.780671 0.199108 -0.231847
0.766061 0.213246 -0.290385
0.800815 0.175616 -0.223757
0.789294 0.188383 -0.262946
0.783604 0.204427 -0.282405
0.771295 0.218967 -0.321067
0.809687 0.180441 -0.214573
0.794842 0.193316 -0.293626
0.793035 0.209254 -0.273232
0.784173 0.223021 -0.282102
0.816860 0.185050 -0.225233
0.805941 0.198171 -0.264478
0.800560 0.214390 -0.283879
0.788848 0.229281 -0.322594
0.825597 0.189785 -0.215875
0.810407 0.203569 -0.314966
0.809855 0.219127 -0.274523
0.800265 0.233344 -0.293359
0.830419 0.194577 -0.266306
0.819125 0.208680 -0.315546
0.813888 0.225787 -0.334855
0.809635 0.237958 -0.283926
0.841532 0.199123 -0.216855
0.829097 0.213412 -0.296081
0.826702 0.228994 -0.275474
0.817409 0.243386 -0.294327
0.849508 0.203790 -0.217225
0.839321 0.217732 -0.266532
0.834553 0.234300 -0.285798
0.823387 0.250387 -0.334547
0.857489 0.208454 -0.217514
0.843897 0.224834 -0.346714
0.843570 0.238852 -0.276085
0.835150 0.252878 -0.284979
0.865146 0.213315 -0.227715
0.854453 0.228783 -0.307001
0.852011 0.243777 -0.276262
0.841164 0.260765 -0.335011
0.874722 0.216550 -0.167881
0.861832 0.235299 -0.347092
0.860454 0.248698 -0.276355
0.852182 0.262809 -0.285252
0.881100 0.223005 -0.237885
0.871546 0.239298 -0.317179
0.869739 0.251961 -0.246419
0.860353 0.268441 -0.295231
0.889447 0.227079 -0.217864
0.880295 0.244389 -0.317143
0.876534 0.260909 -0.316205
0.867855 0.276304 -0.335034
0.897313 0.233606 -0.267714
0.888758 0.250965 -0.346979
0.885671 0.264076 -0.286100
0.877748 0.277677 -0.285016
0.905339 0.235528 -0.197573
0.897880 0.252394 -0.276864
0.894250 0.268340 -0.275873
0.886150 0.283426 -0.294733
0.913185 0.240078 -0.197303
0.906496 0.259048 -0.306521
0.902724 0.273965 -0.285513
0.894798 0.287564 -0.284430
0.921231 0.245130 -0.206939
0.915695 0.266587 -0.346053
0.911152 0.278131 -0.275121
0.903350 0.293390 -0.293968
0.928875 0.249162 -0.196527
0.923850 0.269095 -0.305662
0.920642 0.287901 -0.334410
0.912258 0.301166 -0.323323
0.937421 0.254885 -0.215972
0.931681 0.271964 -0.275190
0.928049 0.287898 -0.274030
0.920545 0.303329 -0.292857
0.947548 0.262691 -0.265227
0.941197 0.279117 -0.304454
0.937142 0.294573 -0.293264
0.928885 0.307267 -0.282227
0.954408 0.265471 -0.234626
0.952028 0.288129 -0.353511
0.944936 0.297637 -0.272598
0.939048 0.317500 -0.331151
0.962545 0.270159 -0.233854
0.958533 0.289110 -0.302896
0.956224 0.308423 -0.331393
0.947532 0.321510 -0.320332
0.971331 0.275608 -0.242949
0.970110 0.298540 -0.351704
0.961808 0.307346 -0.270826
0.954901 0.323121 -0.289598
0.975895 0.276265 -0.192303
0.975853 0.299071 -0.300991
0.970863 0.313263 -0.279736
0.965145 0.331633 -0.318305
0.985325 0.282467 -0.211185
0.988172 0.308916 -0.349534
0.978661 0.317022 -0.268716
0.974573 0.337920 -0.327062
0.992414 0.286139 -0.200186
0.993151 0.308997 -0.298737
0.987854 0.323008 -0.277436
0.982733 0.341721 -0.315925
1.004115 0.294420 -0.238678
1.006208 0.319255 -0.347001
0.998892 0.331477 -0.305831
0.992298 0.348074 -0.324483
1.004065 0.291230 -0.158219
1.011380 0.319990 -0.306029
1.008521 0.337701 -0.314310
1.003716 0.357237 -0.352667
1.014948 0.298638 -0.186620
1.023180 0.328405 -0.334226
1.016289 0.341421 -0.302945
1.005338 0.351140 -0.272267
1.032166 0.311642 -0.264229
1.032094 0.333494 -0.332656
1.027126 0.349041 -0.321076
1.017819 0.361776 -0.310105
1.036785 0.313084 -0.233092
1.045733 0.343505 -0.370409
1.029047 0.345823 -0.260359
1.023327 0.362277 -0.278945
1.043602 0.316569 -0.221647
1.049893 0.343639 -0.329249
1.038638 0.352003 -0.268494
1.035305 0.371737 -0.306668
1.048857 0.318761 -0.200323
1.049447 0.339468 -0.258652
1.045768 0.355337 -0.256900
1.039114 0.370380 -0.265628
1.068576 0.333168 -0.277106
1.067648 0.353736 -0.325485
1.055486 0.361578 -0.264836
1.052747 0.381649 -0.302881
1.080164 0.340549 -0.294766
1.080953 0.362973 -0.352839
1.068239 0.370980 -0.292200
1.061449 0.386586 -0.300856
1.087160 0.344113 -0.282938
1.085353 0.363781 -0.321366
1.072286 0.371104 -0.260840
1.070138 0.391510 -0.298744
1.080392 0.336652 -0.192986
1.095816 0.370270 -0.328927
1.079069 0.374219 -0.248980
1.072705 0.389427 -0.257638
1.098890 0.349542 -0.249396
1.103003 0.373771 -0.316893
1.097389 0.388928 -0.305093
1.087473 0.401317 -0.294260
1.099780 0.348424 -0.208286
1.113584 0.380316 -0.324238
1.102619 0.390429 -0.283307
1.097793 0.408031 -0.301575
1.105831 0.351432 -0.196357
1.113183 0.377255 -0.273292
1.112995 0.397009 -0.290545
1.111742 0.418561 -0.328094
1.111720 0.354344 -0.184391
1.123585 0.383687 -0.280505
1.119717 0.400068 -0.278346
1.113361 0.415919 -0.286885
1.138139 0.372902 -0.268951
1.146114 0.400357 -0.345491
1.130207 0.406700 -0.285369
1.123852 0.422712 -0.293877
1.142294 0.374417 -0.247057
1.155143 0.405435 -0.342680
1.136747 0.409645 -0.273044
1.130534 0.425576 -0.281538
1.137274 0.369125 -0.186734
1.146984 0.396275 -0.262947
1.155798 0.424002 -0.318186
1.147262 0.438536 -0.317035
1.165694 0.388791 -0.270400
1.175362 0.417358 -0.346367
1.153704 0.419158 -0.267402
1.147634 0.435170 -0.275849
1.171790 0.391791 -0.257935
1.182113 0.420565 -0.333706
1.173446 0.433891 -0.312124
1.164906 0.448422 -0.310974
1.175285 0.392914 -0.235902
1.191061 0.425573 -0.330536
1.179907 0.436767 -0.299453
1.164654 0.444695 -0.269818
1.170949 0.388398 -0.185368
1.199988 0.430562 -0.327276
1.191009 0.443707 -0.305711
1.184798 0.460439 -0.314034
1.181345 0.394622 -0.191909
1.198853 0.427609 -0.286027
1.197281 0.446466 -0.292919
1.191212 0.463117 -0.301225
1.186562 0.397109 -0.179411
1.217773 0.440485 -0.320490
1.208482 0.453450 -0.298948
1.202412 0.470260 -0.307216
1.188890 0.397557 -0.157467
1.216014 0.437171 -0.279291
1.214563 0.456090 -0.286040
1.218832 0.482107 -0.331836
1.221660 0.419615 -0.238907
1.235463 0.450330 -0.313350
1.225860 0.463115 -0.291837
1.219931 0.480003 -0.300049
1.238495 0.430249 -0.263540
1.255461 0.463786 -0.347084
1.231748 0.465635 -0.278817
1.228652 0.484844 -0.296334
1.246918 0.434921 -0.259906
1.253052 0.460093 -0.305859
1.245971 0.475020 -0.293686
1.234584 0.487223 -0.283237
1.255315 0.439574 -0.256187
1.276507 0.476045 -0.348465
1.260453 0.484541 -0.308344
1.254520 0.501905 -0.316435
1.254445 0.437790 -0.224574
1.258491 0.460735 -0.260961
1.272214 0.491798 -0.313544
1.260469 0.504281 -0.303133
1.259426 0.440106 -0.211551
1.269989 0.467684 -0.266273
1.277994 0.494234 -0.300177
1.260295 0.501440 -0.271414
1.280348 0.453406 -0.244532
1.287906 0.479365 -0.289830
1.292956 0.504002 -0.314308
1.293182 0.526915 -0.340611
1.295222 0.462485 -0.258819
1.312661 0.496009 -0.331424
1.295419 0.503837 -0.291662
1.289761 0.521353 -0.299622
1.280088 0.451052 -0.190676
1.321624 0.500942 -0.326940
1.294314 0.500941 -0.259965
1.311243 0.536855 -0.331574
1.318857 0.476374 -0.268527
1.330554 0.505851 -0.322367
1.312722 0.513347 -0.282801
1.320225 0.541789 -0.326922
1.306328 0.466807 -0.209712
1.339452 0.510735 -0.317705
1.311137 0.510175 -0.251152
1.315872 0.535695 -0.286097
1.342926 0.490475 -0.277608
1.348318 0.515594 -0.312955
1.329898 0.522762 -0.273598
1.338090 0.551581 -0.317350
1.336921 0.485373 -0.236974
1.357149 0.520428 -0.308118
1.356108 0.540964 -0.313642
1.346972 0.556439 -0.312431
1.352583 0.494847 -0.250254
1.376862 0.533050 -0.330021
1.361353 0.543053 -0.299718
1.355818 0.561271 -0.307424
1.311835 0.466633 -0.129653
1.359878 0.519451 -0.262565
1.373769 0.550604 -0.303539
1.364629 0.566077 -0.302330
1.365403 0.501379 -0.231749
1.383433 0.534775 -0.293080
1.378805 0.552565 -0.289520
1.388076 0.582607 -0.332455
1.373616 0.505849 -0.226848
1.407496 0.550368 -0.323188
1.391283 0.560136 -0.293087
1.382140 0.575607 -0.291880
1.381793 0.510293 -0.221866
1.416419 0.555217 -0.317752
1.396110 0.561970 -0.278977
1.406053 0.592377 -0.321502
1.402078 0.522716 -0.243041
1.425303 0.560038 -0.312227
1.424413 0.581270 -0.317135
1.414983 0.597219 -0.315892
1.410384 0.527217 -0.237770
1.446283 0.573307 -0.332708
1.429296 0.583120 -0.302767
1.423872 0.602033 -0.310195
1.435378 0.542653 -0.267059
1.459399 0.581041 -0.335534
1.425854 0.578869 -0.271148
1.416704 0.594336 -0.269946
1.418388 0.530584 -0.209748
1.451714 0.574328 -0.295129
1.446821 0.592588 -0.291194
1.461879 0.627349 -0.341394
1.452329 0.551803 -0.255754
1.477413 0.590765 -0.323521
1.459729 0.600349 -0.293814
1.433747 0.603529 -0.258469
1.425708 0.533555 -0.181760
1.447563 0.568863 -0.240690
1.464179 0.601936 -0.279275
1.459013 0.620987 -0.286530
1.469116 0.560837 -0.244116
1.495252 0.600365 -0.311153
1.490145 0.619131 -0.306966
1.493293 0.645219 -0.331009
1.477446 0.565309 -0.238173
1.499664 0.602079 -0.296408
1.498975 0.623868 -0.300607
1.493652 0.643467 -0.307733
1.499458 0.578608 -0.257311
1.512912 0.609838 -0.298434
1.507759 0.628572 -0.294160
1.511292 0.654867 -0.317923
1.503256 0.580136 -0.242721
1.535382 0.623850 -0.316946
1.516497 0.633244 -0.287627
1.506838 0.649545 -0.286367
1.516287 0.587606 -0.244728
1.544288 0.628608 -0.310225
1.529782 0.641162 -0.289261
1.524575 0.660981 -0.296239
1.529399 0.595113 -0.246555
1.557843 0.636508 -0.311653
1.552466 0.655742 -0.307121
1.528755 0.662220 -0.281241
1.552253 0.608832 -0.264587
1.561954 0.638021 -0.296520
1.566034 0.663795 -0.308286
1.565318 0.687626 -0.323275
1.546077 0.603985 -0.233378
1.556239 0.632947 -0.265126
1.570107 0.665120 -0.293055
1.546015 0.671395 -0.267480
1.574168 0.620994 -0.259035
1.584305 0.650573 -0.290555
1.583699 0.673169 -0.293945
1.578453 0.693597 -0.300690
1.547509 0.603160 -0.195752
1.588075 0.651882 -0.275314
1.587544 0.674355 -0.278644
1.601784 0.708961 -0.317314
1.591052 0.629929 -0.244955
1.616722 0.669800 -0.300005
1.616069 0.692835 -0.303104
1.620531 0.720884 -0.325599
1.625124 0.650612 -0.277470
1.635664 0.681193 -0.308330
1.624900 0.697492 -0.295473
1.619621 0.718375 -0.302038
1.623338 0.648581 -0.254192
1.654795 0.692677 -0.316356
1.633676 0.702111 -0.287756
1.633478 0.726688 -0.302101
1.615990 0.643067 -0.223216
1.642948 0.683617 -0.277143
1.663013 0.720993 -0.311104
1.652483 0.738722 -0.309748
1.640167 0.657422 -0.239130
1.635815 0.677735 -0.246047
1.671916 0.725661 -0.302996
1.671672 0.750842 -0.317090
1.675418 0.678691 -0.270072
1.702669 0.720654 -0.323180
1.680760 0.730289 -0.294801
1.675430 0.751775 -0.301117
1.656776 0.666114 -0.223740
1.690166 0.711223 -0.284144
1.694878 0.738546 -0.294141
1.689534 0.760182 -0.300393
1.714517 0.701389 -0.284389
1.726027 0.733580 -0.313882
1.698267 0.739425 -0.278151
1.687732 0.757150 -0.276802
1.678720 0.678128 -0.215576
1.691019 0.709473 -0.244889
1.728734 0.758852 -0.299731
1.712532 0.773206 -0.290847
1.754316 0.724414 -0.297459
1.738269 0.739211 -0.289032
1.759604 0.778480 -0.320764
1.704991 0.766120 -0.259814
1.740407 0.714843 -0.258908
1.735796 0.736436 -0.265420
1.746336 0.767981 -0.282107
1.751997 0.797913 -0.302876
1.754646 0.722808 -0.257623
1.784020 0.766660 -0.308291
1.777537 0.787760 -0.302500
1.771977 0.810380 -0.308409
1.757353 0.723604 -0.241502
1.815811 0.786113 -0.328317
1.792084 0.796183 -0.300511
1.780898 0.814981 -0.299089
1.789124 0.742409 -0.261706
1.824869 0.790780 -0.318773
1.795201 0.796862 -0.283888
1.789751 0.819538 -0.289682
1.797661 0.746798 -0.252556
1.833858 0.795401 -0.309140
1.809723 0.805252 -0.281607
1.832867 0.848209 -0.323055
1.835933 0.769541 -0.279009
1.884014 0.826581 -0.349334
1.859381 0.837266 -0.321673
1.847691 0.856900 -0.320193
1.838596 0.770275 -0.262311
1.875408 0.819820 -0.317889
1.844796 0.826028 -0.283453
1.874218 0.873765 -0.331164
1.859290 0.782114 -0.266694
1.932413 0.855269 -0.363809
1.877368 0.846450 -0.301392
1.865675 0.866082 -0.299916
1.855632 0.778963 -0.242939
1.935712 0.856149 -0.346136
1.862199 0.834893 -0.263495
1.892379 0.883016 -0.310337
1.919651 0.817355 -0.295127
1.969372 0.876483 -0.362911
1.919322 0.871623 -0.308134
1.931320 0.908396 -0.333962
1.897310 0.802735 -0.250539
1.935586 0.853651 -0.304080
1.928265 0.876150 -0.297436
1.910233 0.892066 -0.289159
1.937214 0.826246 -0.274117
1.988003 0.885915 -0.340623
1.961818 0.897025 -0.313511
1.949548 0.917612 -0.311972
2.015593 0.873200 -0.337149
2.028539 0.910513 -0.362796
1.970812 0.901555 -0.302381
1.995460 0.947616 -0.340693
2.005584 0.866114 -0.305822
2.006304 0.895132 -0.317975
2.004830 0.922640 -0.317505
1.992270 0.943703 -0.315934
2.059593 0.898052 -0.340464
2.047191 0.919882 -0.339319
1.982226 0.906276 -0.273342
2.013816 0.956823 -0.317392
2.048328 0.948449 -0.320099
2.022865 0.961343 -0.305608
2.083109 0.969878 -0.333638
2.089046 1.004940 -0.351136
2.066370 0.957422 -0.295997
2.085555 1.000825 -0.325952
2.101369 0.978933 -0.308822
2.101144 1.009744 -0.319678
2.090715 1.000966 -0.288480
2.139138 1.000729 -0.302001
2.138889 1.031993 -0.312562
2.154535 1.040898 -0.305544
2.203988 1.040054 -0.317911
1.079703 0.313131 0.680373
2.183477 1.058771 -0.310234
2.225995 1.085748 -0.326214
1.077334 0.306707 0.689764
1.061991 0.300743 0.701646
1.085384 0.311723 0.685842
1.083454 0.314953 0.686079
1.121131 0.334620 0.659300
1.105177 0.329286 0.670950
1.073915 0.303927 0.700950
1.058371 0.297712 0.712395
1.096002 0.317968 0.686106
1.052466 0.293575 0.719596
1.097225 0.318551 0.688139
1.074324 0.307966 0.704788
1.098433 0.319124 0.690185
1.110448 0.331803 0.679637
1.090571 0.318352 0.697806
1.064976 0.297316 0.720593
1.042050 0.285952 0.736536
1.064285 0.300514 0.722500