# This PCD file was generated using the MATLAB® pcwrite function
# from Computer Vision System Toolbox®.
# .PCD v.7 - Point Cloud Data file format
VERSION .7
FIELDS x y z
SIZE 4 4 4
TYPE F F F
COUNT 1 1 1
WIDTH 746
HEIGHT 1
VIEWPOINT 0 0 0 1 0 0 0
POINTS 746
DATA ascii
-29.849630 -16.121498 0.159929
-29.346388 -15.822183 0.143364
-29.636461 -15.281178 0.197767
-28.345312 -15.228471 0.134274
-27.827765 -14.923597 0.161486
-28.135424 -14.412649 0.188837
-27.345425 -14.638128 0.163618
-27.663340 -14.138914 0.177185
-26.936831 -14.392362 0.099218
-27.225977 -13.883406 0.139214
-26.464342 -14.113343 0.108982
-26.776815 -13.622540 0.121489
-26.000254 -13.839402 0.119261
-26.316223 -13.356559 0.124353
-25.589159 -13.593983 0.081324
-25.902637 -13.114831 0.085859
-25.122301 -13.319812 0.112474
-25.464655 -12.861448 0.081470
-24.707870 -13.073766 0.094452
-25.028355 -12.609533 0.083721
-24.326019 -12.845297 0.047079
-24.618992 -12.371661 0.064137
-23.920454 -12.604932 0.033991
-24.211031 -12.135053 0.050631
-23.516350 -12.365862 0.026937
-23.804531 -11.899738 0.043158
-23.138046 -12.140726 -0.003300
-23.424114 -11.677877 0.012537
-22.736837 -11.904203 0.001375
-23.020508 -11.445111 0.016800
-22.337271 -11.669073 0.011984
-22.642672 -11.225579 -0.002625
-21.963039 -11.447549 -0.001398
-22.218285 -10.983784 0.043093
-21.613541 -11.239231 -0.039499
-21.867170 -10.778402 0.004879
-21.218603 -11.008031 -0.012003
-21.516991 -10.573929 -0.028427
-20.871471 -10.801847 -0.039856
-21.167795 -10.370390 -0.056849
-20.525373 -10.596623 -0.062857
-20.802370 -10.159472 -0.057335
-20.180359 -10.392388 -0.081024
-20.426970 -9.944269 -0.037165
-19.791908 -10.166543 -0.031925
-20.087116 -9.746690 -0.058453
-20.166149 -9.206796 -0.029850
-19.455177 -9.967443 -0.047949
-19.714827 -9.534054 -0.027937
-19.843216 -9.021065 -0.067945
-20.112005 -8.591215 -0.060448
-19.152292 -9.785853 -0.106831
-19.416172 -9.357081 -0.094950
-19.504374 -8.828629 -0.077955
-19.748871 -8.391963 -0.039223
-18.790495 -9.574950 -0.074083
-19.052254 -9.149450 -0.062561
-19.161201 -8.634762 -0.075386
-19.448702 -8.219711 -0.100613
-18.473190 -9.386885 -0.100393
-18.738796 -8.966253 -0.097176
-18.841158 -8.451688 -0.100258
-19.088257 -8.022714 -0.069946
-18.140942 -9.191732 -0.098244
-18.420761 -8.781291 -0.119587
-18.522022 -8.269456 -0.120890
-18.767742 -7.842900 -0.090811
-17.825638 -9.005469 -0.115932
-18.082500 -8.587255 -0.105310
-18.187851 -8.081062 -0.112913
-18.426592 -7.655067 -0.074978
-17.485518 -8.807260 -0.088560
-17.766607 -8.404175 -0.119091
-17.865568 -7.898391 -0.116808
-18.150944 -7.494613 -0.152605
-17.172503 -8.622961 -0.097631
-17.451729 -8.221992 -0.128700
-17.534025 -7.712173 -0.099974
-17.775127 -7.293715 -0.070667
-16.840397 -8.429632 -0.069466
-17.112364 -8.028893 -0.092827
-17.234795 -7.540474 -0.128393
-17.495579 -7.132491 -0.132360
-16.529781 -8.247348 -0.070076
-16.784798 -7.841775 -0.068975
-16.941393 -7.371681 -0.161308
-17.180208 -6.957205 -0.132391
-16.264528 -8.087713 -0.141920
-16.533501 -7.690193 -0.166159
-16.633577 -7.197097 -0.165390
-16.871080 -6.784915 -0.136692
-15.950810 -7.904650 -0.126375
-16.242510 -7.520651 -0.193138
-16.341707 -7.029753 -0.190767
-16.573071 -6.617512 -0.153849
-15.667167 -7.736654 -0.157473
-15.913350 -7.334106 -0.148790
-16.011383 -6.846540 -0.144716
-16.280874 -6.452831 -0.175697
-15.374691 -7.564701 -0.167990
-15.643500 -7.174956 -0.202066
-15.721499 -6.680919 -0.162407
-15.974732 -6.283133 -0.168383
-15.073795 -7.389043 -0.157673
-15.317123 -6.990626 -0.149508
-15.432414 -6.516029 -0.176464
-15.684281 -6.120013 -0.182814
-14.806296 -7.229856 -0.203667
-15.048615 -6.832781 -0.195707
-15.144156 -6.351888 -0.186918
-15.394656 -5.957641 -0.193632
-14.502846 -7.053725 -0.177279
-14.762019 -6.667165 -0.204130
-14.852120 -6.186602 -0.185135
-15.124739 -5.803195 -0.235409
-14.218678 -6.887221 -0.181715
-14.476305 -6.502325 -0.208975
-14.570267 -6.025923 -0.197083
-14.818024 -5.635211 -0.204521
-13.953053 -6.729883 -0.217512
-14.191503 -6.338278 -0.210260
-14.284698 -5.864134 -0.196831
-14.549410 -5.482027 -0.239521
-13.687857 -6.573032 -0.250122
-13.925296 -6.182769 -0.243069
-13.995645 -5.701373 -0.184280
-14.245101 -5.315981 -0.201214
-13.388903 -6.400589 -0.209047
-13.642158 -6.020196 -0.237476
-13.751547 -5.557030 -0.256308
-13.977918 -5.164126 -0.229509
-13.125174 -6.245086 -0.234982
-13.360029 -5.858468 -0.228390
-13.451166 -5.390583 -0.210445
-13.689302 -5.004854 -0.210419
-12.845380 -6.082394 -0.222198
-13.095804 -5.704840 -0.251371
-13.186379 -5.238679 -0.231970
-13.410516 -4.849627 -0.205553
-12.566659 -5.920579 -0.205965
-12.819674 -5.546453 -0.244446
-12.922150 -5.087332 -0.250368
-13.145443 -4.699720 -0.224098
-12.309107 -5.768901 -0.231163
-12.573093 -5.400975 -0.296911
-12.642034 -4.930210 -0.229759
-12.897699 -4.556247 -0.275377
-12.059915 -5.621337 -0.271360
-12.290438 -5.240562 -0.265568
-12.395474 -4.786368 -0.277842
-12.617078 -4.401636 -0.251863
-11.799313 -5.468820 -0.281561
-12.044613 -5.095969 -0.312107
-12.133082 -4.636779 -0.286947
-12.353841 -4.253488 -0.261114
-11.539367 -5.316912 -0.288691
-11.787262 -4.946839 -0.328646
-11.871358 -4.487806 -0.292990
-12.091270 -4.105953 -0.267303
-11.280102 -5.165626 -0.292768
-11.507578 -4.788869 -0.287529
-11.610329 -4.339462 -0.295982
-11.845059 -3.964248 -0.306877
-11.036245 -5.021545 -0.330423
-11.266730 -4.647167 -0.334484
-11.350019 -4.191761 -0.295940
-11.583631 -3.817819 -0.307119
-10.781758 -4.872980 -0.337772
-11.022257 -4.504219 -0.369581
-11.105303 -4.050068 -0.329639
-11.322948 -3.672047 -0.304346
-10.510207 -4.717202 -0.296068
-10.749135 -4.350096 -0.328220
-10.849883 -3.904824 -0.332941
-11.077880 -3.531644 -0.335415
-10.253872 -4.568505 -0.288134
-10.477351 -4.196985 -0.283598
-10.616561 -3.767704 -0.388853
-10.833059 -3.391590 -0.363762
-10.011948 -4.426399 -0.314379
-10.234690 -4.055736 -0.309994
-10.327037 -3.611302 -0.293648
-10.574219 -3.247533 -0.352287
-9.773640 -4.286093 -0.347250
-9.992311 -3.914854 -0.333683
-10.073955 -3.468067 -0.288111
-10.305721 -3.101042 -0.309938
-9.532238 -4.144694 -0.368143
-9.750242 -3.774353 -0.354689
-9.845160 -3.333366 -0.345152
-10.059112 -2.961565 -0.320496
-9.275217 -3.996947 -0.339451
-9.511762 -3.635471 -0.382381
-9.589795 -3.190043 -0.324724
-9.816346 -2.823535 -0.337687
-9.025491 -3.852640 -0.326614
-9.257544 -3.490985 -0.360449
-9.348249 -3.051641 -0.339031
-9.560775 -2.682230 -0.314619
-8.794859 -3.716584 -0.367590
-9.001145 -3.346114 -0.326195
-9.097631 -2.910662 -0.322371
-9.335146 -2.549599 -0.373503
-8.555266 -3.577041 -0.377687
-8.773288 -3.211996 -0.374151
-8.866339 -2.776119 -0.359694
-9.065110 -2.405267 -0.297668
-8.327724 -3.442651 -0.423132
-8.533375 -3.073750 -0.381746
-8.626019 -2.639023 -0.366077
-8.849133 -2.275643 -0.379887
-8.066018 -3.294748 -0.351904
-8.296808 -2.936970 -0.396227
-8.377335 -2.499768 -0.341280
-8.608403 -2.139786 -0.383852
-7.841863 -3.162197 -0.401764
-8.069067 -2.803484 -0.436769
-8.161099 -2.370363 -0.418705
-8.379892 -2.007230 -0.423334
-7.604011 -3.024445 -0.401419
-7.819134 -2.662701 -0.398384
-7.919048 -2.233675 -0.407814
-8.131250 -1.870156 -0.393515
-7.377152 -2.891207 -0.436872
-7.591811 -2.529835 -0.433929
-7.680382 -2.098310 -0.403879
-7.900311 -1.737565 -0.418446
-7.140049 -2.754268 -0.431454
-7.353964 -2.393752 -0.428631
-7.444906 -1.964149 -0.406984
-7.672197 -1.605800 -0.450548
-6.913402 -2.621523 -0.462044
-7.126853 -2.261378 -0.459311
-7.215003 -1.831731 -0.426847
-7.425528 -1.470451 -0.412868
-6.674724 -2.484565 -0.441923
-6.897256 -2.128424 -0.477951
-6.990259 -1.700810 -0.463614
-7.185022 -1.336874 -0.391796
-6.450773 -2.353232 -0.477343
-6.663013 -1.994315 -0.474810
-6.753220 -1.567139 -0.449636
-6.970291 -1.208418 -0.464855
-6.215410 -2.218054 -0.461889
-6.426907 -1.859992 -0.459473
-6.526245 -1.436127 -0.471941
-6.740289 -1.077293 -0.477600
-5.969751 -2.079690 -0.395267
-6.200453 -1.728731 -0.480495
-6.278736 -1.300968 -0.404377
-6.496351 -0.944287 -0.429672
-5.752942 -1.951484 -0.452673
-5.974067 -1.597688 -0.499163
-6.063627 -1.172987 -0.470497
-6.278630 -0.815630 -0.486153
-5.519318 -1.817869 -0.429747
-5.730896 -1.462551 -0.437395
-5.826468 -1.040830 -0.436853
-6.040527 -0.684370 -0.452694
-5.296217 -1.687930 -0.453260
-5.505288 -1.332322 -0.451214
-5.600496 -0.911121 -0.449579
-5.813955 -0.554954 -0.465542
-5.069309 -1.557003 -0.454868
-5.277843 -1.201888 -0.452906
-5.376650 -0.781978 -0.469759
-5.589577 -0.425981 -0.485828
-4.846327 -1.427486 -0.473753
-5.052575 -1.072211 -0.462040
-5.141290 -0.651407 -0.428783
-5.355259 -0.296454 -0.454821
-4.605917 -1.293274 -0.391996
-4.822028 -0.941703 -0.439367
-4.925296 -0.523785 -0.483580
-5.129361 -0.167960 -0.460617
-4.395411 -1.167675 -0.475094
-4.602540 -0.813675 -0.473339
-4.691034 -0.394207 -0.437805
-4.903649 -0.039750 -0.464094
-4.166363 -1.037262 -0.447611
-4.379475 -0.685116 -0.485369
-4.472995 -0.266591 -0.478262
-4.685206 0.088101 -0.504625
-3.948625 -0.909909 -0.486879
-4.154886 -0.556532 -0.485245
-4.249717 -0.138652 -0.486916
-4.459627 0.215887 -0.503527
-3.730525 -0.782517 -0.523949
-3.935078 -0.428836 -0.512465
-4.024984 -0.010889 -0.483410
-4.227822 0.343074 -0.460653
-3.505219 -0.653746 -0.509310
-3.712192 -0.300899 -0.517672
-3.799039 0.116556 -0.467724
-4.003042 0.470048 -0.454905
-3.281630 -0.525617 -0.502270
-3.493525 -0.173520 -0.550322
-3.581912 0.243804 -0.509129
-3.790278 0.597954 -0.525986
-3.058328 -0.397826 -0.492945
-3.257752 -0.045326 -0.451860
-3.357714 0.370740 -0.498795
-3.565474 0.724599 -0.515741
-2.835331 -0.270384 -0.481340
-3.039453 0.081497 -0.479973
-3.133830 0.497324 -0.486183
-3.340981 0.850891 -0.503214
-2.618020 -0.143778 -0.517174
-2.820876 0.208310 -0.505886
-2.913797 0.624048 -0.501083
-3.121789 0.977977 -0.528082
-2.399300 -0.017052 -0.540873
-2.602038 0.335104 -0.529602
-2.692564 0.750450 -0.503828
-2.897676 1.103708 -0.511038
-2.172960 0.109715 -0.482712
-2.378991 0.461421 -0.511311
-2.473442 0.877154 -0.524229
-2.678295 1.230562 -0.531462
-1.954371 0.236026 -0.501953
-2.157235 0.587507 -0.500719
-2.249364 1.002322 -0.492672
-2.454630 1.355694 -0.509922
-1.735573 0.362289 -0.518995
-1.937403 0.713682 -0.507812
-2.030198 1.128713 -0.508633
-2.238893 1.484130 -0.565689
-1.516581 0.488495 -0.533836
-1.718293 0.839956 -0.522663
-1.810846 1.255042 -0.522392
-2.018905 1.610825 -0.579489
-1.294311 0.613807 -0.496582
-1.496937 0.965304 -0.505396
-1.591326 1.381298 -0.533945
-1.795588 1.735249 -0.551260
-1.078084 0.740696 -0.556917
-1.277717 1.091304 -0.515827
-1.371654 1.507473 -0.543295
-1.578437 1.863990 -0.600451
-0.856735 0.865664 -0.525211
-1.059968 1.218337 -0.553995
-1.151847 1.633557 -0.550436
-1.355438 1.987893 -0.567778
-0.639013 0.992552 -0.571184
-0.838864 1.343035 -0.530088
-0.931921 1.759541 -0.555372
-1.135177 2.114068 -0.572721
-0.416763 1.115616 -0.495098
-0.617716 1.466908 -0.493984
-0.711895 1.885413 -0.558102
-0.914815 2.240133 -0.575453
-0.199504 1.243986 -0.576633
-0.399571 1.594346 -0.535536
-0.491783 2.011166 -0.558620
-0.694367 2.366078 -0.575975
0.021205 1.367394 -0.526106
-0.179802 1.719819 -0.534954
-0.271603 2.136790 -0.556934
-0.473851 2.491893 -0.574286
0.240312 1.494923 -0.573265
0.039388 1.847517 -0.572094
-0.051371 2.262274 -0.553041
-0.254323 2.620981 -0.610228
0.460307 1.619668 -0.558289
0.259312 1.974783 -0.597038
0.168894 2.387610 -0.546942
-0.033418 2.746681 -0.604109
0.680482 1.746949 -0.591034
0.479732 2.100803 -0.599806
0.388865 2.519336 -0.618366
0.187073 2.875979 -0.635597
0.900177 1.869628 -0.541700
0.700178 2.225308 -0.580412
0.609757 2.644690 -0.607824
0.408300 3.001524 -0.625040
1.120961 1.996917 -0.570011
0.920752 2.351079 -0.578758
0.831082 2.773484 -0.634903
0.629685 3.130992 -0.652058
1.342616 2.125053 -0.606056
1.142991 2.482388 -0.644646
1.052228 2.898645 -0.619923
0.850690 3.252070 -0.597284
1.564259 2.251972 -0.619909
1.364039 2.607409 -0.628563
1.273325 3.023609 -0.602726
1.073380 3.385942 -0.659573
1.784978 2.376638 -0.601637
1.586513 2.735791 -0.650078
1.494355 3.148366 -0.583319
1.293965 3.506444 -0.600393
2.005623 2.501094 -0.581158
1.804156 2.853102 -0.549974
1.716965 3.277211 -0.601439
1.516634 3.635960 -0.618433
2.230909 2.632168 -0.638041
2.030948 2.989032 -0.646559
1.940080 3.406170 -0.617281
1.738119 3.760635 -0.594542
2.455296 2.761001 -0.662771
2.252269 3.113529 -0.621571
2.161416 3.530591 -0.591179
1.963470 3.895328 -0.647675
2.673627 2.881559 -0.595848
2.473464 3.237786 -0.594376
2.382617 3.654767 -0.562870
2.184735 4.018537 -0.609390
2.897760 3.009387 -0.606144
2.697515 3.366208 -0.604612
2.609414 3.788655 -0.611521
2.406348 4.142773 -0.578794
3.128596 3.144467 -0.683496
2.925311 3.499292 -0.652159
2.830107 3.911362 -0.568825
2.631414 4.273788 -0.595356
3.350251 3.268471 -0.649538
3.150537 3.628031 -0.657761
3.059157 4.047013 -0.622669
2.855450 4.402049 -0.589867
3.575892 3.396633 -0.652905
3.375196 3.755598 -0.651176
3.283694 4.174904 -0.614922
3.081487 4.533264 -0.601789
3.792964 3.515633 -0.574995
3.593788 3.875493 -0.583128
3.510503 4.305582 -0.624577
3.309958 4.667675 -0.631041
4.029530 3.654280 -0.662550
3.822967 4.007981 -0.611441
3.741115 4.440743 -0.661379
3.541298 4.805522 -0.677528
4.246203 3.772716 -0.580214
4.045743 4.132611 -0.578341
3.962141 4.562778 -0.607372
3.763828 4.929240 -0.633274
4.483547 3.910924 -0.653013
4.276070 4.265392 -0.601919
4.195200 4.699803 -0.649208
3.995493 5.065917 -0.665131
4.703942 4.032668 -0.595690
4.509871 4.401308 -0.642673
4.422718 4.829336 -0.639610
4.223066 5.196116 -0.655416
4.944829 4.173025 -0.673307
4.743298 4.536152 -0.671135
4.650530 4.958858 -0.627663
4.449605 5.324561 -0.633591
5.173214 4.301503 -0.660280
4.971599 4.665221 -0.658033
4.883026 5.093349 -0.642616
4.684671 5.463606 -0.667885
5.408444 4.435721 -0.683931
5.204896 4.798953 -0.671827
5.119315 5.231463 -0.674566
4.913364 5.593902 -0.651028
5.644519 4.570230 -0.705067
5.433933 4.928078 -0.653954
5.340395 5.352482 -0.606829
5.142294 5.724151 -0.631800
5.874240 4.698919 -0.684805
5.671826 5.065382 -0.682262
5.577885 5.490906 -0.633842
5.376314 5.860067 -0.639244
6.104171 4.827546 -0.662169
5.907074 5.199659 -0.688618
5.821622 5.635157 -0.687288
5.621170 6.007853 -0.702145
6.326523 4.949677 -0.598444
6.129840 5.322019 -0.624777
6.057518 5.770637 -0.689756
5.858678 6.146346 -0.714081
6.578704 5.096100 -0.677343
6.385300 5.474023 -0.722736
6.290187 5.902452 -0.670446
6.087707 6.274924 -0.675364
6.818031 5.231509 -0.685930
6.616550 5.603477 -0.692595
6.535083 6.045943 -0.706322
6.326331 6.413669 -0.682255
7.049425 5.360225 -0.653500
6.856317 5.740217 -0.698454
6.758439 6.167998 -0.634071
6.557692 6.544181 -0.648273
7.298836 5.502964 -0.695347
7.094617 5.875273 -0.692142
6.998406 6.305847 -0.636059
6.805695 6.691773 -0.688244
7.542583 5.640791 -0.705711
7.337937 6.014297 -0.702377
7.256723 6.460439 -0.711679
7.057096 6.842060 -0.734913
7.784755 5.777030 -0.703871
7.589012 6.159484 -0.738520
7.498598 6.598962 -0.708221
7.296595 6.979532 -0.721735
8.034938 5.919094 -0.727926
7.831756 6.297120 -0.733816
7.752882 6.748390 -0.749514
7.538863 7.119352 -0.715427
8.278585 6.055767 -0.720732
8.075118 6.434907 -0.726469
7.984210 6.876468 -0.693373
7.784096 7.261625 -0.715910
8.522832 6.192579 -0.710886
8.326679 6.579094 -0.744799
8.240415 7.026565 -0.729071
8.047084 7.420547 -0.779543
8.781031 6.339543 -0.745497
8.574037 6.719388 -0.741455
8.495334 7.174905 -0.752413
8.291757 7.561111 -0.764982
9.026767 6.476788 -0.730162
8.827450 6.864203 -0.754150
8.751369 7.323661 -0.772833
8.544701 7.709058 -0.775785
9.284314 6.622464 -0.749596
9.087331 7.013759 -0.782686
8.994910 7.461092 -0.743641
8.793294 7.852395 -0.765059
9.531377 6.760046 -0.728752
9.334320 7.152568 -0.761578
9.241593 7.600905 -0.721100
9.058851 8.010912 -0.807301
9.778926 6.897698 -0.705191
9.570214 7.282318 -0.700567
9.500196 7.750471 -0.732918
9.295168 8.142057 -0.744516
10.048183 7.050800 -0.743807
9.850498 7.446625 -0.776041
9.771554 7.910234 -0.778700
9.568587 8.306498 -0.799208
10.309563 7.197771 -0.751518
10.099375 7.585870 -0.746525
10.035466 8.063147 -0.793591
9.814369 8.445467 -0.758615
10.571927 7.345073 -0.756214
10.373539 7.744316 -0.787832
10.294340 8.211385 -0.787046
10.078444 8.600321 -0.770287
10.835251 7.492693 -0.757881
10.623790 7.883906 -0.752533
10.557164 8.362430 -0.786659
10.352832 8.763643 -0.806223
11.116102 7.652367 -0.802181
10.903664 8.045743 -0.796612
10.820907 8.513765 -0.783209
10.612971 8.913895 -0.793364
11.364676 7.788820 -0.752054
11.165225 8.193183 -0.782713
11.098689 8.675974 -0.812941
10.877078 9.067115 -0.786543
11.648021 7.949423 -0.789850
11.458042 8.363738 -0.847311
11.351048 8.817248 -0.767056
11.142052 9.220593 -0.776625
11.922333 8.103260 -0.797098
11.711307 8.504129 -0.799980
11.644802 8.991148 -0.826250
11.434714 9.397064 -0.835440
12.176163 8.242486 -0.747145
11.993082 8.665428 -0.821684
11.912517 9.143783 -0.810085
11.701895 9.551304 -0.818977
12.477920 8.414604 -0.810726
12.261813 8.816606 -0.804173
12.181018 9.296626 -0.790775
11.969859 9.705752 -0.799364
12.763009 8.574719 -0.825903
12.531319 8.967986 -0.783510
12.479344 9.472324 -0.839302
12.267093 9.884018 -0.847502
13.018952 8.714441 -0.766619
12.831467 9.141392 -0.830595
12.753586 9.628694 -0.822165
12.551621 10.051078 -0.856522
13.306056 8.875196 -0.775129
13.072539 9.271283 -0.732666
13.036208 9.791101 -0.819342
12.822596 10.206479 -0.826883
13.610166 9.047113 -0.815283
13.390683 9.456788 -0.807856
13.323748 9.956802 -0.821810
13.109315 10.374263 -0.828999
13.883945 9.198006 -0.781565
13.675646 9.617743 -0.800161
13.628101 10.134814 -0.855564
13.412565 10.554837 -0.862347
14.186898 9.368270 -0.805563
13.969665 9.784773 -0.806381
13.902360 10.289404 -0.816042
13.686279 10.711025 -0.822510
14.466529 9.522407 -0.773739
14.244577 9.937710 -0.765644
14.209530 10.468451 -0.842260
13.976459 10.879964 -0.813866
14.772138 9.693620 -0.790283
14.565641 10.123097 -0.816378
14.518328 10.648124 -0.864500
14.283881 11.062057 -0.835873
15.087784 9.871094 -0.820086
14.876088 10.300378 -0.837160
14.807843 10.812819 -0.840055
14.592893 11.244750 -0.853874
15.379068 10.031887 -0.794607
15.171001 10.466202 -0.819834
15.123693 10.996653 -0.862974
14.903457 11.428024 -0.867847
15.693287 10.207533 -0.807974
15.484294 10.644506 -0.832743
15.419662 11.165191 -0.839520
15.198590 11.598634 -0.844019
16.026915 10.395562 -0.851030
15.803498 10.826441 -0.850014
15.734076 11.346865 -0.845951
15.529097 11.796216 -0.883581
16.326199 10.560450 -0.822493
16.137718 11.018309 -0.888256
16.067682 11.542058 -0.881676
15.844097 11.981088 -0.885288
16.649424 10.740699 -0.831940
16.451195 11.195209 -0.880314
16.362700 11.708440 -0.838156
16.138342 12.149419 -0.841402
16.964827 10.915376 -0.820557
16.770531 11.375698 -0.876610
16.704102 11.908137 -0.873507
16.478275 12.352269 -0.876270
17.305136 11.105904 -0.846346
17.091219 11.556643 -0.868734
17.042847 12.105254 -0.895977
16.811056 12.548944 -0.890074
17.628069 11.284625 -0.834761
17.413218 11.738014 -0.856665
17.359922 12.286129 -0.873062
17.131638 12.735717 -0.874937
17.991188 11.489012 -0.884136
17.774855 11.946025 -0.905495
17.682880 12.470748 -0.854115
17.472218 12.937026 -0.887934
18.317142 11.668781 -0.863691
18.080435 12.115197 -0.852198
18.031155 12.672975 -0.871181
17.814514 13.138959 -0.896263
18.624331 11.836020 -0.806797
18.426075 12.311215 -0.859344
18.390997 12.882825 -0.899452
18.158482 13.341488 -0.899891
19.013006 12.055391 -0.873922
18.773371 12.507820 -0.861782
18.738005 13.082899 -0.898838
18.504074 13.544584 -0.898790
19.363377 12.249550 -0.871952
19.137413 12.715201 -0.883286
19.086596 13.283515 -0.893461
18.871000 13.762875 -0.924480
19.736015 12.457501 -0.896769
19.472744 12.902674 -0.852421
19.457005 13.498943 -0.914679
19.219959 13.967150 -0.913620
20.089718 12.652815 -0.885027
19.866085 13.128618 -0.903173
19.808874 13.700683 -0.899490
19.585590 14.183084 -0.921278
20.444895 12.848604 -0.868465
20.240959 13.341531 -0.917150
20.182957 13.917421 -0.910398
19.958151 14.403413 -0.931490
20.822935 13.058471 -0.877951
20.596581 13.541011 -0.894964
20.558924 14.134831 -0.915997
20.332592 14.624409 -0.936388
21.197418 13.265557 -0.874449
20.953579 13.740907 -0.867893
20.915474 14.338097 -0.885754
20.714104 14.849859 -0.943546
21.579071 13.476679 -0.873322
21.355196 13.969906 -0.896757
21.337786 14.586437 -0.941391
21.092213 15.072127 -0.937656
21.962486 13.688396 -0.866806
21.753574 14.196117 -0.912230
21.741056 14.820807 -0.960672
21.493484 15.310468 -0.956352
22.392385 13.928891 -0.914865
22.165073 14.430362 -0.936922
22.124510 15.040813 -0.944233
21.918579 15.565202 -0.998911
22.779636 14.141934 -0.897022
22.550873 14.647038 -0.918413
22.509590 15.261330 -0.922323
22.275017 15.769770 -0.939066
23.191338 14.369810 -0.903234
22.960852 14.879030 -0.923918
22.941080 15.513053 -0.953592
22.682259 16.010183 -0.940226
23.628138 14.612829 -0.932751
23.367132 15.107980 -0.916117
23.352352 15.750193 -0.949270
23.113840 16.267221 -0.964439
24.020712 14.827599 -0.897657
23.781008 15.341286 -0.909664
23.811295 16.019148 -0.996637
23.553438 16.529133 -0.989330
24.485346 15.086791 -0.943439
24.243311 15.605536 -0.954725
24.203682 16.242035 -0.951078
23.966921 16.771685 -0.971802
24.875471 15.298947 -0.889296
24.637859 15.824986 -0.907095
24.644072 16.496881 -0.956650
24.376431 17.010715 -0.941067
25.380760 15.582131 -0.964205
25.075232 16.071678 -0.903347
25.063086 16.736546 -0.927443
24.799194 17.258413 -0.918348
25.568508 16.353891 -0.956175
25.501600 16.988710 -0.912970
25.258972 17.531406 -0.931093
25.996037 17.277782 -0.954090
25.727053 17.809370 -0.943638
26.493324 17.567888 -0.987453
26.215494 18.100695 -0.969437
26.950636 17.830383 -0.965521
26.682451 18.376131 -0.960459
27.224638 18.703026 -1.024767
0.649233 0.231780 28.265125
24.844906 16.228430 3.731134
0.647616 0.234544 28.265368
0.696862 0.262689 28.223930
0.656351 0.240021 28.262127
0.646199 0.229136 28.276011
0.676902 0.253790 28.245008
0.686709 0.255474 28.240376
0.697738 0.267689 28.228310
0.648367 0.230145 28.279015
0.653367 0.237236 28.273134
0.689440 0.256741 28.244225
0.674275 0.251163 28.256598
0.690784 0.257360 28.246168
0.648942 0.233768 28.282288
0.692114 0.257970 28.248125
0.676757 0.252305 28.260220
0.684718 0.257399 28.256216
0.660448 0.236979 28.280930
0.672400 0.248856 28.269648
0.659884 0.240220 28.282806