# This PCD file was generated using the MATLAB® pcwrite function
# from Computer Vision System Toolbox®.
# .PCD v.7 - Point Cloud Data file format
VERSION .7
FIELDS x y z
SIZE 4 4 4
TYPE F F F
COUNT 1 1 1
WIDTH 777
HEIGHT 1
VIEWPOINT 0 0 0 1 0 0 0
POINTS 777
DATA ascii
-5.767275 -3.418638 -0.660653
-5.796760 -3.279029 -0.618104
-5.595818 -3.317874 -0.599799
-5.650622 -3.195182 -0.583295
-5.496965 -3.258748 -0.609226
-5.590572 -3.158570 -0.632567
-5.379143 -3.188843 -0.596957
-5.452272 -3.079203 -0.600445
-5.274701 -3.126655 -0.596363
-5.334239 -3.011020 -0.586388
-5.183355 -3.072005 -0.607840
-5.255233 -2.964216 -0.611535
-5.079717 -3.010402 -0.604115
-5.157243 -2.907115 -0.614827
-4.989003 -2.956228 -0.612730
-5.065922 -2.853713 -0.623603
-4.867718 -2.884705 -0.584785
-4.949916 -2.786956 -0.602871
-4.777852 -2.831136 -0.590385
-4.853199 -2.730766 -0.601592
-4.694367 -2.781249 -0.601808
-4.787586 -2.691512 -0.634647
-4.611105 -2.731537 -0.612018
-4.679289 -2.629174 -0.616309
-4.528077 -2.682007 -0.621023
-4.601803 -2.583588 -0.632684
-4.463009 -2.642709 -0.650857
-4.536406 -2.544578 -0.662658
-4.339372 -2.570263 -0.605828
-4.435413 -2.486398 -0.647395
-4.245750 -2.514894 -0.596094
-4.370213 -2.447582 -0.675335
-4.198546 -2.485839 -0.645099
-4.241050 -2.374387 -0.619772
-4.094136 -2.424472 -0.617861
-4.187875 -2.342140 -0.660556
-4.012989 -2.376310 -0.619532
-4.088864 -2.285319 -0.639708
-3.921021 -2.322094 -0.604665
-4.024350 -2.247061 -0.663472
-3.873707 -2.293105 -0.650376
-3.915160 -2.184938 -0.624488
-3.782408 -2.239363 -0.633212
-3.856609 -2.149964 -0.653967
-3.707881 -2.195117 -0.638248
-3.748745 -2.088717 -0.612092
-3.633599 -2.151052 -0.642261
-3.722947 -2.071268 -0.687099
-3.570127 -2.113100 -0.661174
-3.610762 -2.007868 -0.634739
-3.454497 -2.045922 -0.599160
-3.536696 -1.964813 -0.636691
-3.417479 -2.022887 -0.656272
-3.478594 -1.930268 -0.661819
-3.328919 -1.971001 -0.631948
-3.404907 -1.887504 -0.661919
-3.241017 -1.919544 -0.606327
-3.300864 -1.828767 -0.612043
-3.346634 -1.728044 -0.652405
-3.379232 -1.623547 -0.614752
-3.193599 -1.890764 -0.645146
-3.263469 -1.805264 -0.667346
-3.258123 -1.678872 -0.625324
-3.321354 -1.589893 -0.636876
-3.126219 -1.850859 -0.650418
-3.185643 -1.760478 -0.656261
-3.165275 -1.627663 -0.588686
-3.248145 -1.549152 -0.633489
-3.044479 -1.802986 -0.629870
-3.118108 -1.721161 -0.660724
-3.103023 -1.591651 -0.600674
-3.175264 -1.508637 -0.629130
-2.987273 -1.768831 -0.649971
-3.026474 -1.669260 -0.622516
-3.060459 -1.565349 -0.645402
-3.097750 -1.466068 -0.615433
-2.896935 -1.716274 -0.610525
-2.993265 -1.648007 -0.683844
-3.007813 -1.534089 -0.672890
-3.040328 -1.432801 -0.634359
-2.840106 -1.682402 -0.628945
-2.893097 -1.591786 -0.626616
-2.907280 -1.479454 -0.615073
-2.968355 -1.392918 -0.627214
-2.755646 -1.633223 -0.595677
-2.812737 -1.545999 -0.601880
-2.854971 -1.448451 -0.640938
-2.906302 -1.357623 -0.636147
-2.708241 -1.604644 -0.629582
-2.765259 -1.517376 -0.635838
-2.797877 -1.415138 -0.657663
-2.853796 -1.326691 -0.661435
-2.647152 -1.568503 -0.637223
-2.717518 -1.488620 -0.669310
-2.704122 -1.364121 -0.604857
-2.759299 -1.276856 -0.608731
-2.555321 -1.515400 -0.583647
-2.615756 -1.431927 -0.598679
-2.643022 -1.328991 -0.611248
-2.720868 -1.252333 -0.658406
-2.516670 -1.491734 -0.632889
-2.599183 -1.419329 -0.691400
-2.590965 -1.298244 -0.634283
-2.623151 -1.201315 -0.594814
-2.464671 -1.460710 -0.655646
-2.516197 -1.372471 -0.653418
-2.516857 -1.256961 -0.613058
-2.571180 -1.170808 -0.617108
-2.399915 -1.422681 -0.651533
-2.464005 -1.341519 -0.675613
-2.477865 -1.232502 -0.661081
-2.510319 -1.136385 -0.621287
-2.335444 -1.384849 -0.646598
-2.390608 -1.299724 -0.653211
-2.400073 -1.189592 -0.629394
-2.458264 -1.105877 -0.642363
-2.275350 -1.349458 -0.649697
-2.350992 -1.275254 -0.700597
-2.352299 -1.160982 -0.658681
-2.397593 -1.071617 -0.645159
-2.203374 -1.307587 -0.625398
-2.257753 -1.223457 -0.632131
-2.291929 -1.126439 -0.660777
-2.341284 -1.039303 -0.656124
-2.147770 -1.274731 -0.635853
-2.222032 -1.201002 -0.687267
-2.239848 -1.095827 -0.680030
-2.289143 -1.008818 -0.675377
-2.092214 -1.241927 -0.645667
-2.146160 -1.158188 -0.652500
-2.159760 -1.052167 -0.635859
-2.196343 -0.960919 -0.604335
-2.025265 -1.202935 -0.627821
-2.109866 -1.135440 -0.706740
-2.111906 -1.023605 -0.662732
-2.140721 -0.929086 -0.613067
-1.981265 -1.176490 -0.663377
-2.034776 -1.093142 -0.670310
-2.033015 -0.980707 -0.616681
-2.096927 -0.902289 -0.648309
-1.900127 -1.129857 -0.607713
-1.975427 -1.058828 -0.669180
-1.985290 -0.952269 -0.642285
-2.048938 -0.873694 -0.674055
-1.866960 -1.109338 -0.669428
-1.923647 -1.028340 -0.685573
-1.937364 -0.923735 -0.667403
-1.970463 -0.832389 -0.626348
-1.797620 -1.069206 -0.639420
-1.864577 -0.994241 -0.683106
-1.874648 -0.888478 -0.655386
-1.922624 -0.803929 -0.650834
-1.742806 -1.036986 -0.645255
-1.812814 -0.963809 -0.698309
-1.812292 -0.853458 -0.642605
-1.860001 -0.769399 -0.638074
-1.688078 -1.004839 -0.650465
-1.754047 -0.929935 -0.694517
-1.764341 -0.824977 -0.665986
-1.801323 -0.736563 -0.633780
-1.646785 -0.979954 -0.692074
-1.688697 -0.892869 -0.671530
-1.716206 -0.796410 -0.688879
-1.763935 -0.712363 -0.684340
-1.559307 -0.930250 -0.603305
-1.637205 -0.862666 -0.684862
-1.654409 -0.761789 -0.674102
-1.705311 -0.679604 -0.678873
-1.524467 -0.908873 -0.662386
-1.566078 -0.822907 -0.641744
-1.592994 -0.727418 -0.658580
-1.640190 -0.644352 -0.654084
-1.463885 -0.873708 -0.646430
-1.527721 -0.799162 -0.691174
-1.557817 -0.704576 -0.717187
-1.592099 -0.615877 -0.675255
-1.428145 -0.851841 -0.704789
-1.438757 -0.750934 -0.590250
-1.496626 -0.670381 -0.700441
-1.530924 -0.582340 -0.658410
-1.367793 -0.816856 -0.687612
-1.430905 -0.741882 -0.732666
-1.435837 -0.636445 -0.682966
-1.482786 -0.553881 -0.678485
-1.278701 -0.766665 -0.575312
-1.337483 -0.691739 -0.611120
-1.387531 -0.607909 -0.702556
-1.422139 -0.520699 -0.660311
-1.253998 -0.750683 -0.670032
-1.315961 -0.676003 -0.715398
-1.339070 -0.579304 -0.721655
-1.373972 -0.492267 -0.679295
-1.189193 -0.713482 -0.631767
-1.241843 -0.635285 -0.648814
-1.267449 -0.541030 -0.664249
-1.313874 -0.459452 -0.659808
-1.106193 -0.666777 -0.526030
-1.185488 -0.603058 -0.638374
-1.230481 -0.517260 -0.720265
-1.268571 -0.432093 -0.687230
-1.077495 -0.648675 -0.610110
-1.115924 -0.564733 -0.579556
-1.170934 -0.484165 -0.699565
-1.217378 -0.402599 -0.695118
-1.039982 -0.625912 -0.665346
-1.086779 -0.545255 -0.663423
-1.122467 -0.455642 -0.716489
-1.158002 -0.370273 -0.673747
-0.961997 -0.582052 -0.566703
-1.013055 -0.505185 -0.584011
-1.050570 -0.417784 -0.646486
-1.099069 -0.338228 -0.651690
-0.907330 -0.550417 -0.553607
-0.970438 -0.479473 -0.619079
-1.015069 -0.394470 -0.710352
-1.050925 -0.309936 -0.667439
-0.864674 -0.525026 -0.588126
-0.922584 -0.451362 -0.634470
-0.954283 -0.361221 -0.677454
-1.002656 -0.281592 -0.682699
-0.819338 -0.498248 -0.612586
-0.895645 -0.432605 -0.736376
-0.908326 -0.333765 -0.701880
-0.956705 -0.253977 -0.707137
-0.784711 -0.476951 -0.685065
-0.826512 -0.394986 -0.663797
-0.857509 -0.304455 -0.706470
-0.893921 -0.221057 -0.663314
-0.727876 -0.444290 -0.660189
-0.789258 -0.371525 -0.726280
-0.802275 -0.273550 -0.691099
-0.850250 -0.194172 -0.696419
-0.673563 -0.412964 -0.644393
-0.729977 -0.338422 -0.691177
-0.745219 -0.242083 -0.665380
-0.790633 -0.162499 -0.661016
-0.631433 -0.387820 -0.686507
-0.675410 -0.307453 -0.674886
-0.705266 -0.216768 -0.717052
-0.742379 -0.134265 -0.673667
-0.575448 -0.355717 -0.659849
-0.617237 -0.275039 -0.638454
-0.648589 -0.185564 -0.690201
-0.683655 -0.103156 -0.637001
-0.518123 -0.323011 -0.622766
-0.574883 -0.249319 -0.679645
-0.598194 -0.156602 -0.692088
-0.645567 -0.077680 -0.697506
-0.485997 -0.302815 -0.722319
-0.517399 -0.217348 -0.642022
-0.551565 -0.128895 -0.713065
-0.597017 -0.049334 -0.708692
-0.410445 -0.261253 -0.576099
-0.467561 -0.188580 -0.643027
-0.495784 -0.098275 -0.684466
-0.535414 -0.017890 -0.650665
-0.372508 -0.238180 -0.645346
-0.419459 -0.160525 -0.653351
-0.447343 -0.070032 -0.694609
-0.490760 0.009429 -0.680425
-0.327468 -0.211615 -0.674876
-0.377679 -0.134900 -0.702595
-0.398818 -0.041760 -0.704262
-0.444022 0.037301 -0.699909
-0.258732 -0.173772 -0.546073
-0.327587 -0.106043 -0.702137
-0.348655 -0.013033 -0.703557
-0.393799 0.065901 -0.699209
-0.218280 -0.149449 -0.604170
-0.271755 -0.075135 -0.661642
-0.301535 0.014861 -0.722097
-0.340540 0.094968 -0.678241
-0.177010 -0.124669 -0.661918
-0.211083 -0.042698 -0.580957
-0.252783 0.043206 -0.730278
-0.296535 0.122471 -0.716033
-0.126288 -0.095499 -0.649951
-0.177755 -0.019849 -0.697663
-0.198620 0.072765 -0.698343
-0.244989 0.151142 -0.703910
-0.068847 -0.063371 -0.577937
-0.118143 0.011932 -0.615813
-0.150034 0.100974 -0.705495
-0.198998 0.179121 -0.730892
-0.029885 -0.039528 -0.664142
-0.078277 0.037276 -0.692112
-0.101388 0.129198 -0.712156
-0.142606 0.208014 -0.678059
0.022441 -0.009792 -0.630748
-0.023280 0.067287 -0.638888
-0.052685 0.157436 -0.718327
-0.101218 0.235833 -0.743781
0.066751 0.016502 -0.676385
0.018828 0.093578 -0.704416
0.000214 0.186184 -0.684225
-0.044511 0.264233 -0.679914
0.116006 0.044877 -0.671819
0.076744 0.123983 -0.610290
0.048719 0.214268 -0.689381
0.003984 0.292311 -0.685069
0.163590 0.072571 -0.686679
0.114431 0.149559 -0.734684
0.093729 0.242209 -0.733890
0.047753 0.320814 -0.739505
0.217743 0.102678 -0.611320
0.167194 0.178511 -0.689289
0.145862 0.270455 -0.698225
0.101108 0.348487 -0.693912
0.262503 0.129307 -0.665086
0.215730 0.206565 -0.693216
0.192289 0.298703 -0.731832
0.148925 0.376751 -0.707564
0.308052 0.156374 -0.718422
0.264303 0.234621 -0.696653
0.241180 0.326933 -0.735044
0.195471 0.405531 -0.740681
0.359209 0.185146 -0.671441
0.310149 0.262645 -0.749526
0.291852 0.354751 -0.707819
0.246417 0.433024 -0.713478
0.409639 0.213480 -0.623930
0.364875 0.290466 -0.632140
0.340574 0.382845 -0.710036
0.294051 0.461758 -0.735656
0.457353 0.241133 -0.635870
0.410200 0.318776 -0.704029
0.389320 0.410933 -0.711762
0.344017 0.489282 -0.717427
0.503196 0.268896 -0.727303
0.461155 0.345944 -0.635550
0.438085 0.439012 -0.712998
0.393274 0.517012 -0.708682
0.552935 0.296774 -0.678303
0.507578 0.374848 -0.706497
0.486866 0.467082 -0.713743
0.441695 0.545508 -0.719411
0.601931 0.324205 -0.628804
0.558027 0.400752 -0.607033
0.535659 0.495140 -0.713998
0.489729 0.575029 -0.749620
0.649867 0.352663 -0.688807
0.605012 0.430875 -0.707005
0.584460 0.523183 -0.713761
0.539422 0.601684 -0.719429
0.698152 0.379497 -0.628337
0.653897 0.456777 -0.636555
0.633103 0.552533 -0.743004
0.588046 0.630873 -0.738667
0.747251 0.408886 -0.707353
0.702738 0.488551 -0.755522
0.682073 0.579217 -0.711814
0.637359 0.655372 -0.677554
0.795178 0.435777 -0.665914
0.750429 0.512482 -0.644140
0.731169 0.608788 -0.740062
0.686120 0.687766 -0.745706
0.842769 0.462608 -0.634000
0.799928 0.542727 -0.702139
0.780193 0.636882 -0.737852
0.734901 0.713821 -0.713566
0.890598 0.489856 -0.621598
0.846684 0.567331 -0.629803
0.828462 0.663107 -0.705216
0.783576 0.741062 -0.700900
0.939540 0.518175 -0.638670
0.897351 0.598518 -0.696767
0.879829 0.696282 -0.781820
0.833358 0.772084 -0.737586
0.988768 0.546639 -0.655239
0.944746 0.624696 -0.663422
0.927591 0.721705 -0.738234
0.882076 0.799311 -0.723933
1.037703 0.574766 -0.661326
0.996231 0.656001 -0.719345
0.976627 0.749729 -0.734049
0.931434 0.828152 -0.729709
1.087418 0.603470 -0.676879
1.041610 0.680051 -0.655153
1.025639 0.777719 -0.729370
0.980436 0.856136 -0.725032
1.141046 0.635147 -0.741703
1.091977 0.709743 -0.680153
1.077127 0.808995 -0.763983
1.029966 0.885036 -0.729801
1.186867 0.660679 -0.696484
1.143501 0.740387 -0.714564
1.126379 0.837083 -0.758286
1.080245 0.914978 -0.743992
1.237320 0.689747 -0.710484
1.191549 0.767466 -0.698728
1.175594 0.865130 -0.752095
1.127961 0.940902 -0.717970
1.274686 0.709202 -0.584936
1.248251 0.802589 -0.781693
1.221359 0.889297 -0.705740
1.178465 0.970933 -0.731138
1.336954 0.746794 -0.717058
1.294751 0.828120 -0.744980
1.273899 0.921095 -0.738232
1.228369 0.999968 -0.733872
1.386930 0.775378 -0.719577
1.346962 0.858765 -0.767272
1.322982 0.949008 -0.730560
1.276509 1.026710 -0.716314
1.434649 0.802352 -0.701789
1.396245 0.886782 -0.759318
1.372013 0.976873 -0.722397
1.327472 1.056943 -0.727916
1.484672 0.830925 -0.703304
1.450214 0.918701 -0.790391
1.425600 1.009207 -0.753217
1.378680 1.087296 -0.738974
1.525485 0.853165 -0.635216
1.495906 0.943694 -0.751796
1.474817 1.037137 -0.744016
1.428969 1.116471 -0.739636
1.577974 0.883408 -0.655507
1.543756 0.970524 -0.732495
1.522667 1.063796 -0.724481
1.476880 1.143004 -0.720110
1.632327 0.914844 -0.685064
1.591393 0.997212 -0.712732
1.573056 1.092828 -0.724133
1.527190 1.172151 -0.719758
1.691869 0.949669 -0.743481
1.647715 1.030702 -0.751437
1.622072 1.120585 -0.713454
1.576196 1.199903 -0.709081
1.739360 0.976396 -0.722718
1.689124 1.052555 -0.691439
1.683224 1.159015 -0.780615
1.638237 1.240756 -0.785975
1.784923 1.001854 -0.691707
1.736245 1.078892 -0.670272
1.726279 1.181446 -0.729719
1.678574 1.259732 -0.715557
1.837215 1.031730 -0.699367
1.810457 1.125625 -0.804958
1.788758 1.220586 -0.795536
1.737200 1.296697 -0.761845
1.882317 1.056887 -0.667451
1.844051 1.141724 -0.704587
1.831347 1.242713 -0.743725
1.786553 1.324564 -0.749037
1.950134 1.096766 -0.751928
1.917049 1.187091 -0.818145
1.887837 1.276511 -0.769304
1.841075 1.357251 -0.764863
1.987358 1.116797 -0.680101
1.957144 1.208101 -0.755901
1.937237 1.304364 -0.755445
1.895946 1.390114 -0.780072
2.056760 1.157530 -0.763107
2.020445 1.246032 -0.809640
1.994421 1.338511 -0.779787
1.939757 1.412869 -0.736656
2.106075 1.185304 -0.748489
2.055598 1.263571 -0.727238
2.035738 1.359839 -0.726245
1.996843 1.447582 -0.760392
2.150846 1.210173 -0.714081
2.111123 1.295790 -0.741102
2.101771 1.400861 -0.787937
2.054411 1.482544 -0.783453
2.204388 1.240612 -0.717773
2.180322 1.337626 -0.812066
2.142577 1.421860 -0.733499
2.103971 1.510405 -0.767438
2.251013 1.266647 -0.692078
2.232351 1.367188 -0.805326
2.200795 1.456507 -0.755405
2.155609 1.540058 -0.760502
2.316888 1.304801 -0.742548
2.279668 1.393432 -0.778893
2.259478 1.491394 -0.776619
2.209542 1.571624 -0.762571
2.376127 1.338710 -0.763524
2.331605 1.422900 -0.771111
2.308982 1.519160 -0.759016
2.270661 1.609144 -0.792611
2.404813 1.353445 -0.669511
2.370986 1.443666 -0.715175
2.368288 1.554354 -0.778929
2.320320 1.636975 -0.774410
2.480031 1.397281 -0.746383
2.445885 1.488923 -0.791880
2.428041 1.589777 -0.798132
2.369846 1.664711 -0.755713
2.512902 1.414658 -0.670705
2.498159 1.518517 -0.782343
2.475105 1.615622 -0.769378
2.429463 1.700675 -0.774288
2.578382 1.452316 -0.708169
2.572294 1.562972 -0.847761
2.527282 1.645289 -0.759023
2.479004 1.728376 -0.754489
2.661821 1.501031 -0.801270
2.619544 1.589049 -0.818069
2.587769 1.681058 -0.776284
2.541901 1.766783 -0.781110
2.693837 1.517866 -0.724289
2.657878 1.609121 -0.759800
2.648680 1.717042 -0.792811
2.602594 1.803284 -0.797585
2.761035 1.556419 -0.759399
2.719064 1.644608 -0.776068
2.698359 1.744754 -0.771283
2.658020 1.835514 -0.794673
2.816587 1.587749 -0.756361
2.765576 1.670207 -0.745006
2.759817 1.780999 -0.786447
2.710660 1.865512 -0.781851
2.875422 1.621065 -0.761993
2.808700 1.693557 -0.704229
2.809463 1.808648 -0.763801
2.760295 1.893156 -0.759209
2.921607 1.646597 -0.729913
2.905090 1.752312 -0.820389
2.871444 1.845140 -0.777586
2.821987 1.930124 -0.772973
2.987277 1.684033 -0.752742
2.919451 1.756549 -0.695354
2.933820 1.881828 -0.790609
2.874696 1.960093 -0.758400
3.019789 1.701189 -0.682858
3.004698 1.807697 -0.772650
2.983520 1.909440 -0.766209
2.936958 1.997333 -0.770735
3.113328 1.755532 -0.777594
3.067720 1.844072 -0.784640
3.033042 1.936931 -0.741314
2.980010 2.019904 -0.727567
3.145346 1.772368 -0.706796
3.134561 1.882888 -0.804967
3.109623 1.983453 -0.788666
3.059285 2.069862 -0.783993
3.226580 1.819093 -0.763013
3.166818 1.899036 -0.733649
3.159332 2.011001 -0.762496
3.122601 2.107618 -0.794025
3.279693 1.848704 -0.745719
3.255449 1.951969 -0.806879
3.223024 2.048304 -0.771904
3.168912 2.132592 -0.758203
3.355049 1.891748 -0.781903
3.308930 1.981920 -0.788746
3.287070 2.085779 -0.780518
3.225515 2.165247 -0.748886
3.423598 1.930619 -0.799122
3.377214 2.021442 -0.805907
3.351465 2.123424 -0.788330
3.300244 2.211257 -0.783601
3.454096 1.946497 -0.726154
3.423272 2.046535 -0.768620
3.427446 2.168986 -0.822044
3.327901 2.222489 -0.701619
3.530762 1.990193 -0.759778
3.515217 2.101205 -0.837571
3.481268 2.199200 -0.801525
3.433213 2.290729 -0.805611
3.616145 2.039069 -0.810051
3.569238 2.131358 -0.816667
3.546662 2.237324 -0.806895
3.494570 2.326586 -0.802106
3.670074 2.068987 -0.788619
3.647101 2.176782 -0.848024
3.612375 2.275598 -0.811441
3.544466 2.354069 -0.771532
3.728038 2.101303 -0.775374
3.701354 2.207011 -0.825712
3.678401 2.314019 -0.815155
3.621777 2.401380 -0.801592
3.769280 2.123580 -0.726564
3.739023 2.226640 -0.767926
3.728386 2.341500 -0.783246
3.663656 2.423039 -0.752351
3.865370 2.178656 -0.790311
3.834699 2.283241 -0.831418
3.794745 2.380054 -0.785454
3.741770 2.470741 -0.780611
3.919448 2.208555 -0.766217
3.897559 2.318857 -0.824369
3.878268 2.430114 -0.821256
3.808128 2.509905 -0.781955
3.995364 2.251461 -0.784516
3.951930 2.349050 -0.799374
3.924043 2.454679 -0.778765
3.878982 2.552197 -0.791007
4.058456 2.286674 -0.776135
4.023730 2.390257 -0.807980
4.012931 2.508159 -0.821066
3.958800 2.600756 -0.816140
4.130730 2.327319 -0.783996
4.069221 2.414787 -0.764627
4.063006 2.535559 -0.785783
4.013210 2.631223 -0.789331
4.189641 2.359975 -0.765527
4.150458 2.461857 -0.788515
4.148655 2.586679 -0.817422
4.093942 2.680229 -0.812459
4.257849 2.398125 -0.763201
4.241500 2.515017 -0.828072
4.230528 2.635169 -0.839433
4.179785 2.732697 -0.842806
4.335734 2.441976 -0.776732
4.333434 2.568636 -0.866280
4.303811 2.677860 -0.843613
4.234620 2.763315 -0.813610
4.442781 2.503055 -0.839090
4.379149 2.593179 -0.819996
4.354096 2.705267 -0.805392
4.298508 2.800245 -0.800375
4.512346 2.541862 -0.833648
4.467413 2.644357 -0.847688
4.441978 2.757493 -0.832552
4.371823 2.843693 -0.802805
4.567416 2.572061 -0.802660
4.537059 2.683816 -0.841235
4.506592 2.794286 -0.817496
4.436027 2.880738 -0.787888
4.632257 2.608010 -0.787411
4.592220 2.714195 -0.809390
4.581009 2.837482 -0.817911
4.529055 2.937685 -0.820943
4.712267 2.652878 -0.795717
4.657132 2.750631 -0.793174
4.645906 2.874371 -0.801153
4.588939 2.971616 -0.796046
4.813091 2.709965 -0.835179
4.772351 2.818309 -0.856785
4.720839 2.917789 -0.799655
4.663511 3.015630 -0.794524
4.847846 2.728069 -0.768926
4.797336 2.829841 -0.774356
4.791032 2.958049 -0.789160
4.733411 3.056365 -0.784013
4.944500 2.782595 -0.798033
4.903736 2.891879 -0.819290
4.902259 3.024992 -0.841167
4.823635 3.110956 -0.804269
4.994451 2.809601 -0.754514
4.959088 2.922212 -0.783509
4.952606 3.052197 -0.796912
4.919608 3.169349 -0.831045
5.113453 2.877144 -0.812617
5.087987 2.997983 -0.857050
5.065366 3.119906 -0.846001
4.985391 3.207043 -0.809474
5.147347 2.894661 -0.744008
5.101144 3.002183 -0.756926
5.136925 3.160780 -0.831161
5.056418 3.248264 -0.794837
5.251478 2.953353 -0.775928
5.199332 3.058841 -0.780953
5.187227 3.187867 -0.784543
5.148692 3.303836 -0.810080
5.361973 3.015701 -0.813942
5.309143 3.122564 -0.818867
5.280440 3.242647 -0.798664
5.225557 3.348873 -0.800992
5.439970 3.058954 -0.804426
5.430915 3.193532 -0.870317
5.396105 3.311792 -0.841783
5.313447 3.401284 -0.806030
5.523831 3.105592 -0.801425
5.481514 3.220697 -0.821332
5.468619 3.353049 -0.822712
5.407249 3.457580 -0.817311
5.630793 3.165675 -0.827328
5.576730 3.275203 -0.831986
5.563557 3.408655 -0.832620
5.479568 3.499331 -0.797269
5.744289 3.229501 -0.859045
5.666820 3.326494 -0.833760
5.630846 3.446453 -0.803975
5.574249 3.556030 -0.805944
5.777387 3.246360 -0.785321
5.722910 3.356933 -0.789816
5.732276 3.506060 -0.818684
5.675091 3.616745 -0.820550
5.897700 3.314043 -0.821637
5.842470 3.426112 -0.826023
5.805575 3.547599 -0.795295
5.736789 3.651201 -0.782484
5.983466 3.361528 -0.812316
5.939591 3.481498 -0.831179
5.925404 3.618766 -0.828917
5.861443 3.727600 -0.823345
6.087431 3.419552 -0.823460
6.007681 3.519124 -0.798765
5.999255 3.660526 -0.803096
5.917619 3.758275 -0.775965
6.155812 3.456823 -0.790027
6.123395 3.585696 -0.822790
6.120500 3.732373 -0.833310
6.031990 3.827588 -0.799177
6.291052 3.532898 -0.833880
6.233895 3.649000 -0.837876
6.194849 3.774324 -0.805032
6.158965 3.905110 -0.834666
6.378285 3.581015 -0.819174
6.345068 3.712624 -0.851235
6.317445 3.846812 -0.831792
6.227348 3.943709 -0.798077
6.515295 3.657953 -0.859071
6.432396 3.761700 -0.834945
6.392242 3.888923 -0.801029
6.325686 4.002060 -0.795291
6.622136 3.717313 -0.862130
6.575547 3.844531 -0.879636
6.540666 3.977522 -0.851806
6.448706 4.076586 -0.818493
6.716891 3.769607 -0.849844
6.638832 3.878913 -0.832869
6.616070 4.019873 -0.818281
6.554198 4.139430 -0.819253
6.799226 3.814658 -0.822587
6.777296 3.958709 -0.866796
6.741374 4.093632 -0.837752
6.647840 4.194386 -0.804876
6.920062 3.881928 -0.834549
6.859730 4.004559 -0.837921
6.842290 4.151921 -0.828434
6.779088 4.273927 -0.829182
7.035113 3.945778 -0.837931
6.999717 4.085073 -0.867825
6.968943 4.226304 -0.844066
6.873561 4.329235 -0.811612
7.098650 3.979810 -0.786741
7.037621 4.103966 -0.789916
7.077155 4.288993 -0.837962
7.012548 4.413566 -0.838476
7.260297 4.070425 -0.832753
7.224134 4.212309 -0.861899
7.172895 4.343777 -0.817194
7.095082 4.460891 -0.804647
7.423169 4.161636 -0.876020
7.340316 4.278196 -0.859537
7.327313 4.435225 -0.852805
7.241881 4.550044 -0.833824
7.430442 4.494451 -0.834930
7.350811 4.614388 -0.822399
7.533844 4.553770 -0.815479
7.466635 4.683114 -0.815545
7.684005 4.642179 -0.837986
7.609200 4.769082 -0.831694
7.788236 4.701831 -0.814883
7.719474 4.833979 -0.814704
7.946599 4.795092 -0.838844
7.883410 4.933495 -0.844593
8.078772 4.871925 -0.836038
7.974524 4.985788 -0.805547
8.231997 4.961715 -0.848890
8.140015 5.086003 -0.830480
0.853911 0.381750 5.572013
8.310363 5.004952 -0.794533
0.824766 0.367454 5.595642
8.265650 5.160365 -0.817327
0.877255 0.395935 5.558653
0.833740 0.372950 5.593182
0.850533 0.379279 5.583441
0.827862 0.369041 5.600554
0.865786 0.388573 5.574141
0.877773 0.400890 5.563140
0.824395 0.362920 5.609261
0.829864 0.370061 5.603879
0.868194 0.389798 5.578213
0.880352 0.402201 5.567503
0.840634 0.372710 5.601741
0.824703 0.366510 5.612606
0.870541 0.390985 5.582331
0.882866 0.403473 5.571915
0.849887 0.378175 5.600070
0.862507 0.390345 5.589784
0.836283 0.369717 5.612226
0.812938 0.358669 5.627780
0.842847 0.377564 5.609016