# This PCD file was generated using the MATLAB® pcwrite function
# from Computer Vision System Toolbox®.
# .PCD v.7 - Point Cloud Data file format
VERSION .7
FIELDS x y z
SIZE 4 4 4
TYPE F F F
COUNT 1 1 1
WIDTH 771
HEIGHT 1
VIEWPOINT 0 0 0 1 0 0 0
POINTS 771
DATA ascii
-13.360353 -7.662780 -0.618346
-13.153962 -7.539656 -0.651881
-13.274461 -7.274296 -0.618876
-12.896072 -7.387253 -0.629212
-13.054477 -7.146433 -0.635820
-12.665311 -7.250482 -0.629161
-12.822186 -7.011997 -0.635990
-12.441918 -7.118049 -0.632239
-12.597333 -6.881779 -0.639285
-12.187680 -6.968175 -0.597710
-12.366964 -6.748710 -0.632276
-12.010484 -6.862317 -0.641754
-12.137638 -6.616372 -0.621675
-11.783565 -6.728269 -0.627623
-11.909393 -6.484785 -0.607508
-11.582544 -6.609079 -0.638004
-11.707330 -6.367575 -0.617838
-11.357683 -6.476462 -0.617051
-11.537069 -6.267746 -0.660506
-11.164463 -6.361942 -0.628284
-11.286951 -6.124760 -0.608027
-10.965894 -6.244499 -0.629446
-11.087342 -6.009297 -0.609140
-10.762167 -6.124247 -0.620373
-10.936993 -5.920590 -0.665323
-10.589054 -6.021454 -0.644816
-10.738635 -5.806046 -0.660981
-10.375265 -5.895735 -0.615148
-10.493596 -5.666480 -0.594697
-10.203458 -5.793889 -0.634257
-10.344596 -5.578820 -0.643481
-10.014859 -5.682648 -0.628447
-10.131474 -5.456759 -0.607886
-9.838538 -5.578449 -0.634967
-9.977442 -5.366595 -0.644548
-9.645924 -5.465156 -0.616136
-9.789289 -5.258218 -0.633505
-9.499096 -5.377792 -0.655775
-9.641708 -5.171702 -0.673357
-9.335795 -5.281222 -0.670315
-9.466227 -5.070344 -0.672681
-9.145603 -5.169604 -0.643717
-9.274830 -4.960608 -0.646203
-8.972781 -5.067870 -0.637811
-9.112000 -4.866251 -0.656066
-8.827558 -4.981743 -0.668878
-8.960586 -4.778078 -0.679456
-8.666644 -4.886881 -0.674232
-8.777263 -4.673028 -0.653229
-8.480102 -4.777730 -0.637424
-8.605639 -4.574331 -0.640343
-8.336245 -4.692618 -0.662238
-8.445377 -4.481781 -0.641132
-8.167046 -4.593390 -0.644711
-8.301334 -4.397923 -0.664013
-8.351583 -4.154196 -0.675236
-8.024061 -4.508925 -0.665538
-8.157587 -4.314303 -0.685033
-8.197030 -4.066486 -0.679088
-8.316880 -3.864690 -0.676982
-7.841374 -4.402344 -0.618951
-7.993862 -4.220229 -0.671430
-8.037929 -3.976640 -0.672679
-8.156987 -3.776156 -0.670673
-7.704464 -4.321440 -0.643932
-7.845988 -4.134622 -0.680310
-7.849241 -3.872287 -0.614561
-7.992685 -3.685730 -0.653973
-7.562904 -4.238008 -0.658886
-7.703536 -4.051958 -0.695548
-7.731846 -3.803332 -0.670087
-7.829234 -3.595874 -0.635052
-7.416891 -4.152170 -0.663678
-7.522351 -3.949061 -0.642248
-7.589580 -3.722167 -0.682485
-7.686627 -3.515806 -0.647339
-7.276141 -4.069340 -0.674952
-7.400443 -3.877363 -0.687014
-7.433117 -3.634136 -0.667853
-7.549345 -3.438295 -0.666220
-7.140482 -3.989415 -0.692862
-7.259386 -3.795708 -0.696618
-7.291838 -3.553676 -0.676503
-7.407475 -3.358782 -0.674950
-6.995859 -3.904577 -0.692104
-7.099953 -3.704556 -0.670506
-7.132044 -3.464286 -0.649365
-7.251621 -3.273014 -0.656413
-6.856360 -3.822663 -0.698002
-6.960001 -3.623671 -0.676350
-7.015245 -3.395967 -0.696993
-7.125030 -3.200694 -0.687057
-6.717311 -3.741072 -0.702127
-6.825068 -3.545484 -0.688992
-6.870620 -3.314192 -0.691764
-6.984485 -3.122138 -0.690452
-6.578729 -3.659814 -0.704490
-6.694980 -3.469888 -0.708580
-6.731141 -3.235026 -0.693320
-6.844415 -3.043917 -0.692090
-6.440628 -3.578897 -0.705099
-6.560675 -3.392182 -0.717930
-6.592153 -3.156205 -0.693130
-6.704834 -2.966043 -0.691979
-6.281497 -3.486437 -0.660435
-6.422361 -3.312491 -0.716921
-6.453671 -3.077739 -0.691203
-6.588164 -2.898500 -0.733703
-6.148977 -3.408763 -0.666108
-6.267320 -3.224283 -0.679193
-6.320058 -3.001714 -0.696315
-6.444869 -2.819190 -0.721584
-6.041905 -3.345181 -0.722895
-6.147292 -3.154193 -0.709715
-6.178290 -2.921905 -0.682183
-6.310940 -2.744164 -0.725259
-5.897478 -3.261076 -0.699060
-6.014747 -3.077743 -0.712368
-6.079356 -2.862549 -0.754718
-6.168865 -2.665684 -0.709631
-5.770047 -3.186399 -0.708856
-5.890854 -3.005800 -0.731144
-5.921718 -2.775432 -0.701888
-6.031706 -2.589508 -0.701106
-5.642925 -3.111956 -0.717123
-5.755000 -2.927829 -0.721740
-5.785737 -2.698708 -0.691600
-5.895131 -2.513729 -0.690896
-5.504401 -3.031328 -0.697016
-5.651565 -2.866428 -0.782249
-5.682468 -2.637431 -0.751350
-5.775486 -2.445389 -0.714843
-5.366618 -2.951189 -0.675162
-5.488991 -2.775076 -0.706893
-5.515588 -2.546483 -0.666019
-5.643867 -2.371985 -0.710447
-5.252233 -2.883920 -0.705750
-5.401010 -2.721586 -0.800829
-5.400843 -2.479998 -0.695949
-5.508794 -2.297244 -0.695442
-5.119277 -2.806565 -0.689739
-5.221420 -2.621930 -0.676510
-5.282251 -2.411781 -0.715530
-5.389880 -2.229484 -0.715077
-5.001520 -2.737568 -0.708506
-5.114553 -2.559026 -0.722557
-5.145058 -2.335079 -0.688214
-5.267265 -2.160239 -0.724267
-4.866037 -2.658983 -0.680248
-4.978283 -2.481436 -0.694407
-5.012347 -2.260582 -0.668356
-5.118714 -2.080293 -0.668059
-4.766370 -2.599931 -0.742037
-4.874958 -2.420390 -0.747104
-4.937999 -2.212745 -0.793817
-5.030171 -2.025389 -0.756789
-4.631843 -2.522005 -0.710776
-4.746715 -2.346976 -0.734323
-4.777281 -2.125728 -0.697574
-4.868584 -1.940450 -0.660534
-4.531777 -2.462810 -0.770266
-4.639627 -2.284130 -0.775443
-4.687708 -2.070957 -0.784208
-4.779514 -1.885328 -0.747034
-4.385088 -2.378460 -0.698941
-4.481853 -2.196327 -0.676381
-4.546242 -1.992947 -0.730814
-4.651382 -1.814363 -0.730708
-4.301053 -2.327992 -0.802536
-4.395064 -2.143589 -0.770602
-4.439198 -1.930403 -0.768807
-4.544220 -1.751912 -0.768731
-4.152757 -2.242948 -0.718711
-4.258869 -2.066647 -0.724071
-4.296104 -1.852011 -0.702884
-4.390278 -1.671014 -0.674887
-4.052291 -2.183700 -0.773492
-4.158382 -2.007224 -0.778888
-4.179824 -1.785573 -0.710184
-4.299921 -1.615314 -0.757103
-3.906157 -2.100018 -0.686306
-4.014260 -1.926672 -0.701175
-4.066873 -1.720655 -0.725604
-4.167257 -1.543154 -0.716313
-3.820466 -2.048756 -0.785803
-3.925816 -1.873140 -0.791296
-3.960092 -1.658446 -0.758669
-4.066653 -1.483452 -0.768234
-3.667588 -1.961670 -0.667092
-3.771659 -1.788055 -0.672668
-3.823389 -1.583506 -0.695992
-3.938198 -1.413210 -0.734047
-3.575562 -1.907088 -0.745556
-3.685557 -1.735669 -0.770121
-3.716945 -1.521583 -0.726564
-3.819468 -1.346798 -0.726818
-3.439018 -1.828901 -0.670999
-3.533959 -1.652172 -0.648141
-3.590520 -1.451325 -0.689409
-3.680846 -1.273237 -0.651686
-3.349016 -1.775440 -0.756909
-3.455328 -1.603309 -0.772134
-3.498030 -1.395287 -0.765316
-3.600175 -1.220927 -0.765632
-3.211499 -1.696920 -0.669876
-3.327350 -1.531227 -0.723441
-3.364377 -1.322306 -0.696833
-3.465714 -1.149252 -0.697237
-3.118245 -1.641792 -0.744158
-3.231342 -1.474152 -0.788282
-3.268613 -1.264911 -0.761074
-3.367421 -1.090528 -0.751889
-2.985112 -1.565773 -0.663769
-3.084449 -1.393581 -0.660000
-3.144179 -1.195991 -0.718609
-3.245067 -1.023482 -0.719080
-2.886565 -1.507933 -0.716686
-3.007941 -1.345510 -0.799629
-3.040381 -1.135400 -0.751852
-3.141217 -0.962861 -0.752340
-2.778286 -1.445041 -0.730010
-2.870493 -1.269612 -0.697279
-2.917153 -1.067268 -0.706732
-3.014921 -0.894861 -0.697630
-2.678920 -1.386807 -0.780926
-2.785205 -1.217424 -0.806209
-2.813418 -1.006798 -0.737699
-2.920773 -0.837463 -0.767309
-2.544653 -1.310587 -0.675616
-2.638638 -1.137828 -0.652501
-2.700437 -0.942852 -0.728789
-2.797970 -0.770954 -0.719701
-2.449525 -1.254618 -0.743717
-2.563209 -1.089939 -0.808052
-2.605213 -0.885556 -0.796486
-2.696306 -0.711146 -0.758204
-2.329569 -1.185954 -0.693998
-2.429739 -1.016527 -0.700048
-2.477628 -0.816454 -0.717085
-2.576892 -0.646065 -0.717772
-2.233686 -1.129629 -0.760085
-2.332045 -0.958806 -0.756389
-2.379848 -0.758219 -0.772936
-2.470873 -0.585060 -0.734579
-2.114758 -1.061644 -0.707890
-2.214461 -0.892593 -0.713999
-2.259902 -0.692247 -0.720223
-2.360739 -0.522954 -0.730745
-2.007476 -0.999623 -0.713159
-2.106946 -0.830759 -0.719296
-2.163509 -0.634437 -0.783794
-2.262543 -0.464076 -0.784527
-1.900290 -0.937698 -0.717313
-1.999527 -0.769021 -0.723475
-2.037410 -0.566825 -0.689364
-2.141192 -0.399284 -0.719620
-1.799731 -0.879102 -0.759686
-1.893911 -0.708070 -0.736373
-1.947563 -0.511046 -0.790175
-2.044412 -0.340686 -0.781129
-1.686236 -0.814155 -0.722286
-1.786632 -0.646495 -0.738345
-1.823172 -0.444506 -0.693203
-1.920942 -0.275992 -0.694074
-1.582351 -0.753988 -0.742837
-1.684130 -0.586830 -0.768791
-1.732078 -0.388085 -0.792098
-1.830345 -0.218570 -0.792926
-1.465625 -0.687664 -0.673447
-1.570967 -0.523125 -0.729093
-1.609436 -0.322638 -0.692628
-1.706821 -0.154546 -0.693544
-1.364749 -0.629045 -0.711562
-1.471165 -0.464506 -0.777174
-1.511386 -0.264111 -0.750030
-1.608992 -0.095502 -0.750928
-1.258388 -0.567839 -0.709073
-1.352168 -0.398996 -0.685678
-1.401710 -0.202571 -0.727267
-1.498986 -0.034416 -0.728200
-1.152183 -0.506764 -0.705489
-1.255979 -0.341654 -0.761376
-1.302772 -0.143611 -0.782668
-1.394854 0.025713 -0.743958
-1.050576 -0.447842 -0.740520
-1.143437 -0.278764 -0.707162
-1.183743 -0.080411 -0.678328
-1.285473 0.086358 -0.718998
-0.936137 -0.383174 -0.655313
-1.038436 -0.218490 -0.711353
-1.089089 -0.022174 -0.771366
-1.180181 0.146458 -0.722689
-0.839376 -0.326454 -0.737939
-0.935522 -0.158867 -0.734365
-0.976161 0.039254 -0.704424
-1.077181 0.206433 -0.745184
-0.735267 -0.266477 -0.749965
-0.838062 -0.100656 -0.816051
-0.876142 0.098679 -0.755709
-0.972868 0.266507 -0.756705
-0.627013 -0.204822 -0.711136
-0.723650 -0.038028 -0.717537
-0.768148 0.159011 -0.726340
-0.860630 0.326172 -0.687557
-0.520883 -0.144161 -0.691122
-0.625236 0.020653 -0.797205
-0.667334 0.218814 -0.775586
-0.763950 0.386705 -0.776592
-0.419718 -0.085463 -0.739852
-0.515506 0.081685 -0.736297
-0.559767 0.278821 -0.744063
-0.651915 0.445558 -0.695276
-0.313216 -0.024800 -0.707735
-0.411961 0.141474 -0.754082
-0.458189 0.338984 -0.791257
-0.550936 0.506021 -0.742422
-0.210789 0.034411 -0.744431
-0.304739 0.201573 -0.710931
-0.351082 0.398648 -0.757592
-0.444551 0.565242 -0.718737
-0.105261 0.094569 -0.720165
-0.201210 0.261275 -0.726612
-0.248771 0.459154 -0.802721
-0.342164 0.625820 -0.753849
-0.001195 0.154245 -0.724813
-0.096624 0.320956 -0.721272
-0.140333 0.517686 -0.726971
-0.235595 0.684453 -0.718064
0.102918 0.213910 -0.728413
0.007161 0.380726 -0.734866
-0.039143 0.579286 -0.809969
-0.133182 0.745582 -0.761077
0.208090 0.273482 -0.680978
0.113867 0.439201 -0.647465
0.066947 0.638210 -0.772048
-0.027138 0.803836 -0.723174
0.311258 0.333187 -0.732473
0.215298 0.500472 -0.758924
0.170630 0.699345 -0.813004
0.077136 0.863496 -0.724158
0.415468 0.392789 -0.732932
0.320120 0.559547 -0.729394
0.276163 0.757871 -0.772971
0.181431 0.923127 -0.724094
0.519695 0.452362 -0.732346
0.424002 0.621263 -0.808777
0.380486 0.819292 -0.811820
0.285154 0.984848 -0.762921
0.624227 0.512467 -0.760705
0.528743 0.679921 -0.767152
0.485429 0.877403 -0.769690
0.390051 1.042290 -0.720822
0.728165 0.571401 -0.728029
0.633408 0.739959 -0.774454
0.590359 0.939093 -0.806421
0.494380 1.104280 -0.757539
0.833145 0.631683 -0.754281
0.737853 0.799247 -0.760722
0.694682 0.996771 -0.762205
0.598656 1.161289 -0.713361
0.937259 0.690903 -0.739507
0.844190 0.861916 -0.825842
0.800186 1.058710 -0.796808
0.704344 1.227044 -0.797826
1.042404 0.751068 -0.753648
0.946901 0.918380 -0.750093
0.903856 1.115937 -0.750519
0.807416 1.280833 -0.711679
1.145909 0.809732 -0.726801
1.054244 0.981543 -0.813051
1.011413 1.180780 -0.822865
0.913863 1.345714 -0.774029
1.250732 0.869503 -0.728853
1.155824 1.037286 -0.735271
1.112889 1.234866 -0.734635
1.015955 1.399481 -0.695833
1.353143 0.927333 -0.689972
1.260219 1.096642 -0.726286
1.221562 1.300265 -0.804780
1.125203 1.468333 -0.795804
1.462799 0.990702 -0.759660
1.367101 1.158545 -0.756089
1.323530 1.355913 -0.744408
1.228567 1.525201 -0.755354
1.568137 1.050648 -0.758504
1.477370 1.223508 -0.824582
1.434191 1.422817 -0.822248
1.338125 1.592306 -0.823184
1.667564 1.106266 -0.686678
1.574613 1.275748 -0.712939
1.534052 1.476281 -0.739959
1.440584 1.647967 -0.770711
1.777182 1.169230 -0.733129
1.686650 1.341928 -0.789140
1.647726 1.545723 -0.835355
1.547685 1.710526 -0.786674
1.883591 1.229799 -0.738718
1.790581 1.400530 -0.764895
1.749375 1.601486 -0.780795
1.653473 1.771070 -0.781711
1.993452 1.292686 -0.772956
1.901356 1.465032 -0.808994
1.866024 1.672989 -0.883675
1.765695 1.839527 -0.844930
2.098176 1.351952 -0.756523
2.004225 1.522658 -0.772713
1.963238 1.724340 -0.787452
1.867168 1.894469 -0.788323
2.208951 1.415277 -0.788486
2.115988 1.587640 -0.814521
2.072715 1.788058 -0.808878
1.975359 1.957485 -0.799847
2.312511 1.473670 -0.760014
2.221102 1.647046 -0.795882
2.177840 1.847451 -0.789699
2.080464 2.016867 -0.780670
2.414411 1.530949 -0.720659
2.324773 1.705302 -0.766330
2.293086 1.916176 -0.848243
2.196346 2.087848 -0.849008
2.527534 1.595617 -0.759089
2.433712 1.767678 -0.775134
2.398537 1.975672 -0.826838
2.301851 2.147376 -0.827593
2.644475 1.662673 -0.815950
2.545882 1.832433 -0.802454
2.509564 2.040104 -0.843642
2.405846 2.205392 -0.795313
2.749604 1.721927 -0.792984
2.652495 1.892821 -0.789310
2.610490 2.095593 -0.790666
2.513842 2.267479 -0.791389
2.868023 1.789735 -0.847349
2.763933 1.956783 -0.804470
2.726606 2.164188 -0.834556
2.621972 2.329600 -0.786345
2.952348 1.835526 -0.704781
2.877484 2.022194 -0.828213
2.832008 2.223494 -0.808795
2.728640 2.390238 -0.770419
3.085954 1.912915 -0.834920
2.996884 2.091754 -0.879997
2.944142 2.288386 -0.820961
2.838594 2.453924 -0.772883
3.191281 1.972116 -0.807528
3.089755 2.141849 -0.784326
3.049468 2.347566 -0.793015
2.950536 2.519307 -0.783897
3.308283 2.038683 -0.837416
3.215763 2.215942 -0.862828
3.177119 2.424785 -0.880474
3.070101 2.591417 -0.832491
3.409551 2.095240 -0.788393
3.319395 2.273808 -0.823442
3.275120 2.477922 -0.811440
3.169947 2.645572 -0.773249
3.518817 2.156813 -0.777122
3.443238 2.345999 -0.879813
3.388513 2.543355 -0.818815
3.290639 2.718231 -0.819292
3.625957 2.217010 -0.755056
3.531964 2.393299 -0.770598
3.485484 2.595831 -0.747847
3.389971 2.772014 -0.757966
3.755747 2.291297 -0.828240
3.667776 2.473634 -0.872599
3.616380 2.674702 -0.829863
3.507545 2.841594 -0.782209
3.854067 2.345890 -0.765307
3.762134 2.524918 -0.790332
3.712877 2.726828 -0.756789
3.614883 2.902276 -0.757192
3.992829 2.425553 -0.864434
3.895473 2.603173 -0.870175
3.845623 2.806649 -0.835929
3.749093 2.985460 -0.845796
4.076060 2.470742 -0.741904
3.979416 2.647322 -0.747638
3.951174 2.865620 -0.798914
3.850127 3.040652 -0.789669
4.211583 2.548213 -0.819028
4.126687 2.734816 -0.872357
4.088479 2.948370 -0.884542
3.979324 3.119066 -0.846693
4.306376 2.600518 -0.742328
4.217073 2.783402 -0.776489
4.181750 2.998055 -0.797632
4.089967 3.182051 -0.826277
4.432828 2.672243 -0.778572
4.338004 2.852705 -0.793636
4.310523 3.074080 -0.842388
4.210767 3.253176 -0.842510
4.546238 2.735897 -0.766056
4.451372 2.916816 -0.781049
4.424221 3.138832 -0.828991
4.311255 3.307891 -0.781947
4.688323 2.817005 -0.846563
4.589942 2.997732 -0.852035
4.543550 3.207621 -0.833170
4.440656 3.385614 -0.823804
4.793932 2.875770 -0.803124
4.692787 3.054644 -0.799164
4.646343 3.264322 -0.779763
4.543498 3.442184 -0.770411
4.911214 2.941602 -0.796091
4.830315 3.134578 -0.857645
4.797886 3.356157 -0.884181
4.685428 3.529323 -0.846729
5.028743 3.007527 -0.787762
4.927089 3.187396 -0.783762
4.892056 3.406550 -0.800332
4.782540 3.581349 -0.772314
5.171623 3.088745 -0.852547
5.066096 3.268061 -0.839206
5.024801 3.484519 -0.836308
4.923396 3.667166 -0.836123
5.277337 3.147388 -0.804272
5.168617 3.324615 -0.781687
5.130501 3.543132 -0.787431
5.013955 3.714190 -0.741024
5.408947 3.221627 -0.828836
5.318831 3.412365 -0.861691
5.286699 3.637368 -0.884903
5.171841 3.812552 -0.847745
5.514509 3.280095 -0.778190
5.414847 3.464581 -0.783298
5.376556 3.684709 -0.787488
5.274531 3.868767 -0.787161
5.664181 3.365056 -0.845681
5.563718 3.551173 -0.850711
5.508480 3.761559 -0.808231
5.409194 3.949049 -0.816968
5.780377 3.429808 -0.819880
5.669529 3.609687 -0.797465
5.627581 3.829335 -0.790926
5.524815 4.014895 -0.790475
5.914405 3.505200 -0.838301
5.820354 3.697265 -0.861397
5.746844 3.897153 -0.772282
5.630295 4.073156 -0.735518
6.020101 3.563556 -0.782598
5.919153 3.751159 -0.787457
5.866257 3.965008 -0.752294
5.780316 4.164363 -0.796885
6.151283 3.637113 -0.789011
6.078994 3.844276 -0.865970
6.014578 4.052671 -0.802937
5.899981 4.232946 -0.775311
6.275475 3.706427 -0.775874
6.173884 3.895588 -0.780602
6.134808 4.120880 -0.779943
6.030558 4.309444 -0.779239
6.396088 3.773549 -0.752357
6.294312 3.963245 -0.757026
6.270084 4.199296 -0.791271
6.165322 4.388851 -0.790488
6.548052 3.859274 -0.798744
6.445543 4.050479 -0.803326
6.406009 4.278019 -0.800917
6.300734 4.468565 -0.800057
6.685308 3.936156 -0.807655
6.582339 4.128383 -0.812163
6.527090 4.346550 -0.773510
6.421582 4.537604 -0.772595
6.823190 4.013333 -0.814870
6.715790 4.204062 -0.810478
6.679741 4.436351 -0.815119
6.557973 4.617758 -0.778930
6.961682 4.090796 -0.820374
6.853754 4.282508 -0.815948
6.801503 4.505156 -0.784623
6.698901 4.701010 -0.792302
7.067367 4.148755 -0.754209
6.967673 4.345667 -0.767250
6.939599 4.584872 -0.787598
6.832550 4.778899 -0.786448
7.206499 4.226467 -0.756603
7.106411 4.424436 -0.769525
7.078268 4.664851 -0.788839
6.958502 4.851196 -0.761613
7.363431 4.314618 -0.791895
7.258435 4.511465 -0.796026
7.221698 4.747889 -0.796965
7.109415 4.941089 -0.787026
7.503944 4.392983 -0.790629
7.398489 4.590851 -0.794682
7.357261 4.825559 -0.786075
7.236067 5.013666 -0.758952
7.662752 4.482057 -0.821883
7.539074 4.670475 -0.791575
7.484548 4.897635 -0.756431
7.375647 5.095258 -0.754980
7.768533 4.539810 -0.748714
7.657991 4.736457 -0.744093
7.660359 5.001773 -0.818715
7.533060 5.189213 -0.783184
7.946906 4.640232 -0.810149
7.839793 4.841647 -0.813942
7.801980 5.083101 -0.810894
7.673903 5.271388 -0.775468
8.108259 4.730534 -0.835322
7.986710 4.924920 -0.813734
7.921423 5.149711 -0.759272
7.815222 5.353768 -0.765954
8.232995 4.799245 -0.791243
8.129590 5.005581 -0.803247
8.086630 5.246361 -0.789846
7.970576 5.445764 -0.779675
8.357668 4.867867 -0.745731
8.235356 5.063109 -0.724277
8.229626 5.328273 -0.776599
8.112990 5.528629 -0.766395
8.540202 4.970335 -0.798242
8.430967 5.176317 -0.801679
8.387216 5.419627 -0.786293
8.274439 5.624506 -0.784287
8.665473 5.039169 -0.749271
8.541581 5.236731 -0.727925
8.531237 5.501983 -0.769235
8.417942 5.707851 -0.767146
8.855045 5.145553 -0.805318
8.729886 5.345125 -0.784004
8.675650 5.584495 -0.750329
8.580947 5.804458 -0.780761
9.005997 5.229249 -0.793499
8.914758 5.451231 -0.829195
8.864633 5.695867 -0.802522
8.725464 5.888237 -0.759714
9.162514 5.316118 -0.787804
9.055891 5.530237 -0.798944
9.025254 5.788633 -0.803600
8.914457 6.002252 -0.809237
9.340190 5.415241 -0.812179
9.242903 5.637383 -0.839222
9.171479 5.871948 -0.778480
9.055260 6.083209 -0.775987
9.498124 5.502755 -0.802110
9.374748 5.710493 -0.788992
9.338406 5.968538 -0.783274
9.241487 6.194912 -0.812449
9.646083 5.584378 -0.774076
9.537707 5.802626 -0.784754
9.511277 6.068817 -0.793645
9.388296 6.279689 -0.783038
9.842254 5.693971 -0.815041
9.706578 5.898272 -0.786170
9.674601 6.162798 -0.785888
9.555973 6.378461 -0.783070
9.969781 5.763549 -0.751419
9.876204 5.994261 -0.785245
9.849103 6.263830 -0.791467
9.724393 6.477571 -0.780753
10.178751 5.880369 -0.802851
10.046564 6.090581 -0.781965
10.013772 6.358408 -0.779105
9.914601 6.591170 -0.806985
10.334226 5.966017 -0.774004
10.223070 6.190536 -0.784026
10.189813 6.460138 -0.779835
10.068701 6.680323 -0.776687
10.506721 6.061455 -0.766082
10.394886 6.287509 -0.775938
10.377557 6.569197 -0.793305
10.255427 6.791209 -0.790031
10.707992 6.173469 -0.793775
10.611796 6.411804 -0.826242
10.549763 6.668180 -0.781336
10.426827 6.891659 -0.777953
10.899125 6.279494 -0.803399
10.762936 6.495955 -0.782723
10.722596 6.767433 -0.766948
10.598854 6.992375 -0.763455
11.056794 6.366054 -0.765329
10.942575 6.597322 -0.774658
10.924182 6.884826 -0.787379
10.793721 7.108139 -0.776305
11.220505 6.456026 -0.732601
11.088558 6.678171 -0.719483
11.115546 6.995550 -0.790000
10.989626 7.224387 -0.786242
11.478198 6.600192 -0.815584
11.338658 6.821983 -0.795055
11.290576 7.095766 -0.767806
11.163846 7.326067 -0.763941
11.655293 6.697678 -0.792091
11.538207 6.935011 -0.800856
11.489334 7.210865 -0.772236
11.378702 7.454478 -0.790042
11.832904 6.795368 -0.766121
11.732824 7.044919 -0.796450
11.712467 7.341190 -0.802557
11.583275 7.575864 -0.798402
12.083257 6.934881 -0.823951
11.958032 7.173150 -0.825131
11.913323 7.457258 -0.800797
11.783038 7.693877 -0.796510
12.286795 7.047280 -0.820778
12.142531 7.276676 -0.800442
12.109105 7.569967 -0.788943
11.977798 7.808411 -0.784530
12.436032 7.128317 -0.750974
12.321517 7.376768 -0.766043
12.317680 7.690569 -0.788255
12.209010 7.946701 -0.811800
12.696468 7.273226 -0.805381
12.574318 7.521142 -0.813160
12.545419 7.823032 -0.805311
12.411572 8.065967 -0.800602
12.902544 7.386737 -0.793126
12.773263 7.632965 -0.793763
12.774389 7.956067 -0.818813
12.639165 8.201426 -0.813949
13.159741 7.529489 -0.832863
13.004005 7.763740 -0.805823
12.973644 8.070297 -0.794531
12.837397 8.317480 -0.789539
13.361435 7.640234 -0.807147
13.235924 7.895054 -0.814298
13.186000 8.192575 -0.780844
13.048585 8.441822 -0.775714
13.544552 7.740214 -0.758204
13.443667 8.011725 -0.792164
13.411736 8.323047 -0.777354
13.279230 8.578643 -0.778783
13.805334 7.884605 -0.786937
13.703151 8.159216 -0.820407
13.619445 8.442092 -0.750412
13.479625 8.695584 -0.745002
14.035096 8.011073 -0.778387
13.880486 8.257415 -0.758412
13.878906 8.593223 -0.773005
13.737425 8.849619 -0.767416
14.265790 8.137943 -0.766304
14.161676 8.417530 -0.798814
14.139790 8.745008 -0.791399
13.971168 8.987805 -0.759584
14.402050 8.897426 -0.805566
14.257243 9.159631 -0.799623
14.639487 9.034214 -0.789945
14.467421 9.282126 -0.758332
14.871230 9.167292 -0.764272
14.723728 9.434220 -0.758024
15.136922 9.321214 -0.766226
14.987755 9.591045 -0.759802
15.403818 9.475663 -0.763864
15.246370 9.744143 -0.751088
15.698812 9.647251 -0.781610
15.566020 9.936207 -0.793133
15.961393 9.798593 -0.764228
15.833856 10.094707 -0.781408
16.259089 9.971370 -0.772465
0.669692 0.369319 12.865035
16.096001 10.249324 -0.759331
16.427107 10.447827 -0.791965
0.680996 0.371599 12.862848
0.672169 0.370594 12.868834
0.683506 0.372886 12.866838
0.660713 0.362992 12.884049
0.656527 0.356224 12.891325
0.675779 0.372441 12.874621
0.685957 0.374137 12.870877
0.662901 0.364109 12.887655
0.687159 0.374748 12.872914
0.642768 0.351193 12.905876
0.688347 0.375351 12.874963
0.643700 0.351666 12.907486
0.689519 0.375944 12.877024
0.651774 0.356662 12.903784
0.683410 0.372097 12.884348
0.667113 0.366243 12.894991
0.682601 0.375899 12.886505