# This PCD file was generated using the MATLAB® pcwrite function
# from Computer Vision System Toolbox®.
# .PCD v.7 - Point Cloud Data file format
VERSION .7
FIELDS x y z
SIZE 4 4 4
TYPE F F F
COUNT 1 1 1
WIDTH 750
HEIGHT 1
VIEWPOINT 0 0 0 1 0 0 0
POINTS 750
DATA ascii
33.588478 8.551764 0.824327
33.205002 8.453606 0.714134
33.293671 7.881861 0.745422
32.473370 8.234970 0.989344
32.061352 8.125953 0.927883
31.438721 7.977182 0.592316
27.323353 6.050611 5.446938
30.933329 7.834619 0.655909
30.531288 7.727799 0.606728
30.080856 7.603519 0.622843
29.638834 7.481717 0.637253
29.217224 7.366689 0.634455
28.821501 7.260477 0.606203
28.427183 7.154387 0.582842
28.034330 7.048437 0.564350
27.596571 6.925810 0.613649
27.253204 6.837013 0.541859
27.415926 6.347003 0.471882
26.819710 6.714977 0.601597
27.020805 6.242765 0.475706
26.478539 6.626322 0.538500
26.621851 6.136830 0.492424
26.093754 6.521287 0.543926
26.280535 6.050257 0.433216
25.732573 6.424592 0.521532
25.917892 5.956089 0.410442
25.394213 6.336063 0.470688
25.556505 5.862036 0.391939
25.035311 6.239550 0.456596
25.201773 5.769973 0.369446
24.677755 6.143178 0.446728
24.821810 5.668787 0.392508
24.342302 6.054820 0.407753
24.443800 5.567880 0.420155
24.007711 5.966498 0.372562
24.124371 5.487226 0.360157
23.674019 5.878224 0.341143
23.729334 5.379550 0.430077
23.301550 5.774678 0.381208
23.396961 5.293708 0.403158
22.931215 5.671463 0.425741
23.045862 5.200875 0.414051
23.045845 4.705749 0.304083
22.601610 5.583663 0.406246
22.740053 5.123995 0.351917
22.676249 4.609338 0.355085
22.273064 5.495955 0.390436
22.405882 5.036648 0.344687
22.385370 4.538709 0.272249
19.772833 3.249929 5.156374
22.559950 4.091287 0.151556
21.964294 5.415749 0.343706
22.082361 4.952868 0.323904
22.061478 4.456915 0.253153
19.480806 3.176913 5.179399
22.229973 4.009895 0.140726
21.656063 5.335519 0.300276
21.755190 4.867468 0.315376
21.715429 4.367434 0.281235
19.194939 3.105539 5.197044
21.868479 3.918686 0.194656
21.348404 5.255276 0.260132
21.392702 4.768745 0.380396
21.316463 4.259770 0.418486
21.545935 3.839059 0.182625
21.027994 5.169632 0.249586
21.104374 4.697049 0.309187
20.992832 4.177118 0.419718
21.165737 3.741536 0.288692
20.704296 5.082317 0.251362
20.763161 4.605466 0.346773
20.723351 4.112648 0.318317
20.877426 3.671923 0.222225
20.416258 5.009261 0.185869
20.493181 4.540236 0.246431
20.418695 4.036037 0.290613
20.554264 3.591390 0.229826
20.026951 4.894187 0.336756
20.133249 4.440916 0.335638
20.114759 3.959455 0.266125
20.253881 3.517687 0.196289
19.740950 4.821328 0.278019
19.884789 4.383516 0.196579
19.832474 3.890157 0.199993
19.949877 3.442671 0.174849
19.345181 4.702190 0.464413
19.581722 4.305212 0.176456
19.509167 3.806411 0.226725
19.613550 3.357330 0.228682
19.041611 4.621160 0.457500
19.295570 4.233188 0.123442
19.211599 3.731380 0.202744
19.323933 3.286391 0.186756
18.758615 4.548596 0.408573
19.009626 4.161076 0.073298
18.891020 3.648004 0.236324
19.010792 3.207846 0.202271
18.456665 4.467678 0.407902
18.677402 4.070630 0.135120
18.606939 3.577275 0.191353
18.722424 3.136933 0.166412
18.144472 4.381960 0.437780
18.351099 3.982053 0.191528
18.323139 3.506481 0.149221
18.426836 3.063544 0.151775
17.863302 4.309431 0.397802
18.019360 3.890849 0.269869
18.043365 3.436968 0.100729
18.139524 2.992616 0.121792
17.582462 4.236849 0.360634
17.711826 3.808867 0.296743
17.745575 3.360757 0.101091
17.845360 2.919302 0.113146
17.287861 4.157892 0.363152
17.398611 3.724204 0.345360
17.473694 3.293771 0.039761
17.530458 2.839047 0.163055
16.983917 4.074357 0.396486
17.090677 3.641268 0.388096
17.177359 3.217647 0.046034
17.234941 2.764840 0.169895
16.718569 4.008044 0.330893
16.811666 3.569881 0.359762
16.858248 3.132785 0.120581
16.954218 2.695274 0.142483
16.453022 3.941556 0.267807
16.546402 3.504034 0.296883
16.554613 3.053304 0.161198
16.677298 2.626798 0.108488
16.158381 3.861341 0.291382
16.271217 3.433903 0.264585
16.246073 2.971621 0.223766
16.423628 2.565914 0.011505
15.883820 3.790230 0.261732
15.977345 3.355608 0.291300
15.955280 2.896316 0.242575
16.181967 2.509007 -0.120859
15.606552 3.717611 0.244165
15.703314 3.285504 0.264545
15.653315 2.816411 0.302099
15.889013 2.434778 -0.100086
15.317926 3.639200 0.267080
15.411604 3.207481 0.297132
15.374205 2.745010 0.298531
15.597239 2.360710 -0.076336
15.042074 3.566674 0.255074
15.147612 3.141316 0.247448
15.098749 2.674813 0.288229
15.283012 2.278691 0.026354
14.789301 3.505446 0.169832
14.883560 3.075015 0.200249
14.849476 2.614813 0.194935
14.997204 2.206117 0.046677
14.505798 3.428635 0.191566
14.597336 2.998537 0.231745
14.549664 2.534496 0.275692
14.684540 2.123933 0.165377
14.239317 3.360198 0.158876
14.344624 2.937079 0.151499
14.289478 2.469843 0.225576
14.388199 2.047076 0.239534
13.978142 3.294383 0.109571
14.073038 2.866831 0.140568
14.016159 2.399679 0.225855
14.125429 1.981810 0.201534
13.684490 3.211111 0.187410
13.789352 2.790608 0.180260
13.753601 2.333770 0.190300
13.852494 1.912769 0.204493
13.419315 3.142631 0.162493
13.514347 2.718125 0.193920
13.478930 2.262601 0.205420
13.590158 1.847369 0.171495
13.156702 3.075381 0.130432
13.263834 2.657303 0.113775
13.216930 2.196590 0.174883
13.315966 1.777492 0.189299
12.905396 3.014389 0.052517
13.001206 2.590504 0.084215
12.955041 2.130488 0.146791
13.054234 1.712003 0.161303
12.633943 2.941850 0.063988
12.729914 2.519153 0.095867
12.686712 2.061388 0.150263
12.794854 1.647264 0.126030
12.369519 2.873079 0.048960
12.467871 2.452261 0.071281
12.423242 1.994229 0.136835
12.514046 1.574252 0.190487
12.099434 2.800641 0.065588
12.189741 2.376690 0.126991
12.162133 1.927966 0.116123
12.263721 1.512659 0.121178
11.851231 2.741378 -0.022371
11.944286 2.318249 0.029419
11.903160 1.862544 0.088070
12.000906 1.446148 0.112730
11.591091 2.674747 -0.049589
11.680923 2.250106 0.021902
11.642377 1.796129 0.072186
11.734686 1.378107 0.126318
11.336248 2.611458 -0.103748
11.419731 2.182957 0.007059
11.374725 1.726184 0.097929
11.474630 1.312332 0.113001
11.082650 2.549076 -0.165413
11.151987 2.111780 0.033852
11.121537 1.663133 0.047657
11.221741 1.249354 0.062788
10.820579 2.480900 -0.175756
10.893255 2.045581 0.014084
10.859914 1.595735 0.048838
10.960243 1.182707 0.064051
10.546811 2.403990 -0.105055
10.625446 1.973588 0.055708
10.606386 1.532368 0.003199
10.702333 1.117404 0.048027
10.297310 2.344419 -0.189178
10.383419 1.917585 -0.067583
10.346738 1.465659 -0.000702
10.447529 1.053322 0.014633
10.020187 2.263593 -0.073999
10.117863 1.846493 -0.030981
10.087429 1.398920 -0.002214
10.189775 0.987828 0.003307
9.775345 2.207803 -0.192955
9.873838 1.789760 -0.149923
9.833580 1.335130 -0.040903
9.929594 0.921053 0.014126
9.510250 2.135448 -0.151716
9.614990 1.722956 -0.157986
9.575868 1.268987 -0.047602
9.677318 0.857823 -0.032095
9.254848 2.071096 -0.187136
9.359707 1.658633 -0.193388
9.321709 1.204890 -0.081686
9.422318 0.793236 -0.056221
8.999186 2.006563 -0.220259
9.104161 1.594130 -0.226494
9.068323 1.141296 -0.123407
9.169353 0.729604 -0.097900
8.743279 1.941853 -0.251080
8.848372 1.529450 -0.257303
8.808901 1.073537 -0.103262
8.907219 0.661050 -0.047867
8.483011 1.872386 -0.229980
8.588049 1.460688 -0.236149
8.554382 1.009009 -0.130444
8.653339 0.596684 -0.074984
8.224126 1.803863 -0.216427
8.333033 1.396540 -0.272249
8.305840 0.949243 -0.234947
8.399268 0.532156 -0.099815
7.969024 1.739724 -0.250204
8.073499 1.327750 -0.246374
8.050282 0.884224 -0.257612
8.147909 0.469307 -0.162216
7.713014 1.674533 -0.271749
7.817692 1.262611 -0.267902
7.794569 0.819052 -0.277975
7.890624 0.402634 -0.142622
7.454408 1.605033 -0.241224
7.560164 1.195230 -0.257240
7.538721 0.753732 -0.296036
7.636091 0.337649 -0.160591
7.200579 1.543704 -0.307928
7.304340 1.129860 -0.274147
7.282757 0.688269 -0.311796
7.383317 0.274101 -0.216194
6.944193 1.478077 -0.322557
7.049837 1.066964 -0.328640
7.025300 0.620637 -0.285330
7.126699 0.207260 -0.189657
6.687483 1.411547 -0.324911
6.793483 1.001231 -0.340956
6.769501 0.554990 -0.296469
6.875476 0.146077 -0.320625
6.431180 1.346420 -0.344891
6.536311 0.932927 -0.311049
6.513465 0.488751 -0.295317
6.619586 0.080293 -0.329460
6.174252 1.276783 -0.302731
6.280077 0.866436 -0.308756
6.257751 0.423318 -0.311834
6.363657 0.014387 -0.335995
5.917977 1.214261 -0.357990
6.024078 0.802703 -0.354076
6.001795 0.355620 -0.276096
6.107711 -0.051637 -0.340223
5.661354 1.148005 -0.361076
5.767855 0.734866 -0.327202
5.745638 0.292772 -0.357952
5.851614 -0.116718 -0.382132
5.404741 1.081640 -0.361851
5.511700 0.668618 -0.327978
5.489411 0.226449 -0.357571
5.595352 -0.183049 -0.381754
5.148160 1.015169 -0.360317
5.255575 0.602265 -0.326441
5.233224 0.160024 -0.354885
5.339131 -0.249484 -0.379065
4.891982 0.947983 -0.346495
4.998542 0.537250 -0.352554
4.977098 0.093500 -0.349890
5.082970 -0.316016 -0.374071
4.633851 0.883707 -0.380230
4.740670 0.472466 -0.386328
4.719406 0.028131 -0.382536
4.826888 -0.382640 -0.366768
4.374611 0.819736 -0.421606
4.484163 0.405674 -0.377855
4.463120 -0.038661 -0.372917
4.569064 -0.448735 -0.397112
4.117673 0.752718 -0.410803
4.224903 0.340864 -0.416950
4.204635 -0.104465 -0.400909
4.312862 -0.515618 -0.385183
3.861555 0.685094 -0.387722
3.968212 0.273797 -0.403841
3.948268 -0.171504 -0.386658
4.054283 -0.582137 -0.410864
3.604978 0.617942 -0.372299
3.708705 0.208132 -0.428278
3.686074 -0.236830 -0.449848
3.795188 -0.648905 -0.434196
3.347708 0.551203 -0.364511
3.455294 0.139442 -0.370682
3.429369 -0.304186 -0.430929
3.535597 -0.715917 -0.455170
3.091402 0.483895 -0.344460
3.196378 0.073140 -0.380497
3.172861 -0.371604 -0.409697
3.278173 -0.783300 -0.443897
2.823992 0.421345 -0.431410
2.932197 0.008161 -0.437693
2.908566 -0.437824 -0.465738
3.015007 -0.850654 -0.490015
2.567195 0.353678 -0.406651
2.674440 -0.059193 -0.422884
2.647502 -0.504990 -0.479578
2.758246 -0.918367 -0.464090
2.301076 0.289112 -0.458939
2.403987 -0.123795 -0.514961
2.390697 -0.572830 -0.451309
2.501743 -0.986128 -0.435852
2.037721 0.223032 -0.479034
2.146730 -0.191812 -0.485466
2.124150 -0.639989 -0.500090
2.235779 -1.054288 -0.484705
1.769724 0.157739 -0.526407
1.885774 -0.259226 -0.483379
1.867248 -0.708086 -0.467108
1.973975 -1.122572 -0.491419
1.512275 0.089439 -0.492170
1.621796 -0.326423 -0.498703
1.599305 -0.775846 -0.510996
1.713202 -1.190976 -0.485826
1.255152 0.021110 -0.455614
1.364790 -0.394721 -0.462164
1.336374 -0.844083 -0.512833
1.450797 -1.259652 -0.487740
0.979004 -0.043850 -0.535124
1.097073 -0.462009 -0.492422
1.073133 -0.912520 -0.512249
1.194284 -1.327993 -0.447723
0.714804 -0.111446 -0.533178
0.825230 -0.529375 -0.539900
0.811272 -0.981130 -0.499378
0.916901 -1.398372 -0.533627
0.452107 -0.179472 -0.518965
0.561006 -0.597672 -0.535578
0.545803 -1.049970 -0.503798
0.653210 -1.467741 -0.528198
0.179999 -0.246559 -0.551455
0.296525 -0.666154 -0.528816
0.267069 -1.119493 -0.574556
0.383869 -1.537892 -0.549837
-0.094954 -0.313811 -0.591181
0.016510 -0.734347 -0.598135
0.002132 -1.188852 -0.564106
0.117572 -1.607912 -0.549299
-0.360803 -0.382319 -0.579340
-0.249085 -0.803365 -0.586351
-0.271013 -1.258822 -0.590393
-0.154993 -1.678882 -0.575682
-0.635292 -0.450400 -0.604130
-0.523182 -0.872495 -0.611237
-0.528330 -1.328085 -0.535843
-0.420207 -1.749130 -0.560331
-0.908416 -0.518951 -0.616558
-0.798110 -0.941968 -0.633511
-0.800313 -1.398409 -0.547300
-0.683450 -1.819253 -0.532753
-1.186736 -0.587585 -0.645874
-1.062634 -1.011628 -0.604437
-1.084171 -1.469904 -0.604887
-0.977653 -1.893843 -0.639198
-1.451849 -0.657092 -0.614208
-1.341066 -1.081712 -0.631279
-1.353144 -1.540518 -0.591629
-1.232792 -1.963163 -0.567572
-1.738872 -0.726158 -0.667374
-1.627643 -1.152390 -0.684553
-1.648913 -1.613749 -0.682566
-1.520486 -2.037385 -0.629559
-1.999535 -0.796146 -0.611271
-1.885751 -1.222407 -0.618782
-1.914291 -1.684497 -0.644653
-1.794971 -2.109880 -0.630560
-2.298831 -0.865894 -0.697622
-2.184384 -1.294285 -0.705297
-2.184706 -1.755866 -0.623598
-2.064913 -2.181844 -0.609612
-2.557146 -0.936212 -0.626812
-2.450541 -1.364995 -0.663441
-2.460623 -1.827984 -0.619265
-2.350773 -2.256513 -0.643959
-2.836961 -1.006704 -0.630547
-2.722014 -1.436115 -0.638353
-2.750722 -1.901903 -0.660349
-2.632370 -2.330729 -0.656235
-3.125959 -1.077645 -0.660334
-3.013335 -1.508695 -0.677862
-3.033639 -1.975302 -0.669764
-2.911973 -2.404818 -0.656166
-3.433628 -1.149444 -0.744625
-3.303023 -1.581538 -0.704887
-3.323121 -2.049741 -0.695536
-3.203635 -2.481150 -0.691648
-3.728289 -1.221455 -0.778049
-3.596759 -1.655030 -0.738577
-3.607701 -2.123845 -0.699343
-3.481796 -2.555390 -0.676477
-4.005619 -1.293225 -0.751457
-3.882536 -1.728224 -0.740755
-3.899116 -2.199066 -0.719374
-3.775473 -2.632525 -0.706200
-4.292673 -1.365596 -0.750660
-4.162741 -1.801190 -0.721140
-4.182115 -2.273432 -0.708027
-4.073423 -2.710664 -0.742437
-4.577150 -1.438120 -0.737579
-4.462591 -1.876153 -0.755596
-4.478497 -2.349830 -0.731737
-4.353565 -2.785829 -0.718859
-4.892072 -1.512546 -0.806564
-4.757132 -1.950963 -0.768116
-4.775989 -2.426663 -0.752436
-4.653603 -2.864799 -0.749153
-5.188434 -1.586398 -0.815842
-5.059359 -2.026840 -0.796486
-5.074564 -2.503925 -0.770105
-4.961572 -2.945484 -0.795168
-5.461289 -1.659048 -0.756548
-5.345546 -2.101380 -0.774868
-5.374192 -2.581609 -0.784725
-5.247114 -3.022226 -0.772339
-5.766016 -1.733999 -0.778725
-5.656864 -2.178846 -0.815863
-5.674844 -2.659709 -0.796280
-5.561055 -3.104521 -0.821438
-6.093779 -1.811026 -0.853613
-5.958829 -2.255640 -0.825644
-6.005413 -2.742625 -0.879211
-5.865882 -3.185342 -0.839266
-6.412446 -1.887888 -0.897131
-6.280220 -2.334974 -0.878748
-6.279107 -2.817128 -0.810122
-6.164517 -3.265193 -0.835371
-6.717482 -1.964068 -0.900295
-6.584505 -2.412680 -0.882156
-6.582655 -2.896433 -0.812370
-6.452724 -3.343207 -0.800673
-7.023432 -2.040639 -0.900324
-6.905086 -2.492660 -0.919308
-6.902505 -2.978592 -0.848318
-6.771719 -3.427446 -0.836824
-7.330270 -2.117594 -0.897194
-7.191875 -2.568768 -0.870363
-7.212071 -3.059392 -0.853317
-7.076649 -3.509148 -0.832829
-7.674265 -2.198335 -0.973181
-7.514744 -2.649661 -0.900955
-7.534643 -3.142589 -0.882492
-7.382424 -3.591223 -0.825663
-7.967035 -2.274630 -0.926947
-7.826826 -2.729491 -0.900730
-7.858642 -3.226325 -0.908194
-7.709231 -3.677746 -0.860861
-8.310226 -2.356178 -0.986649
-8.152315 -2.811399 -0.924473
-8.163256 -3.307078 -0.885056
-8.029345 -3.763169 -0.874346
-8.617029 -2.434434 -0.961229
-8.462261 -2.891519 -0.908529
-8.489624 -3.391762 -0.903923
-8.354862 -3.849933 -0.893427
-8.928749 -2.513461 -0.941633
-8.785854 -2.973788 -0.916367
-8.800085 -3.473980 -0.883270
-8.664618 -3.933691 -0.872972
-9.254410 -2.594286 -0.945663
-9.132504 -3.059633 -0.965563
-9.141914 -3.561904 -0.922050
-8.992447 -4.021393 -0.885101
-9.608126 -2.678618 -0.999716
-9.458744 -3.142940 -0.966227
-9.494364 -3.652034 -0.974842
-9.361334 -4.117906 -0.973942
-9.922741 -2.758898 -0.969830
-9.795128 -3.228027 -0.981142
-9.826113 -3.738821 -0.979244
-9.669823 -4.202070 -0.934120
-10.293625 -2.846098 -1.042740
-10.142073 -3.315016 -1.010054
-10.177469 -3.829414 -1.015356
-10.038181 -4.299061 -1.006006
-10.629147 -2.929544 -1.040939
-10.499977 -3.404023 -1.052692
-10.511837 -3.917243 -1.012304
-10.353117 -4.385022 -0.967983
-10.980148 -3.015238 -1.061745
-10.835978 -3.490075 -1.047405
-10.847307 -4.005538 -1.005569
-10.706327 -4.479345 -0.996681
-11.318090 -3.099679 -1.052448
-11.173059 -3.576587 -1.038422
-11.222473 -4.101446 -1.064823
-11.061190 -4.574295 -1.021345
-11.642277 -3.182668 -1.013409
-11.491587 -3.660473 -0.990990
-11.560625 -4.190816 -1.050320
-11.417665 -4.669861 -1.041945
-12.037127 -3.275154 -1.091730
-11.890106 -3.757289 -1.078405
-11.914688 -4.283435 -1.057945
-11.770779 -4.764965 -1.049826
-12.404062 -3.364476 -1.113800
-12.225748 -3.844490 -1.049265
-12.280228 -4.378524 -1.078699
-12.115255 -4.858440 -1.036507
-12.803553 -3.458615 -1.182898
-12.608229 -3.939567 -1.093393
-12.642279 -4.473265 -1.086679
-12.496365 -4.960168 -1.079090
-13.174170 -3.549319 -1.196211
-13.018690 -4.039659 -1.175529
-13.005772 -4.568583 -1.090479
-12.858873 -5.058106 -1.083164
-13.535755 -3.639159 -1.188324
-13.342434 -4.125841 -1.108826
-13.412750 -4.672625 -1.157627
-13.243681 -5.161230 -1.116827
-13.925390 -3.733315 -1.218330
-13.751713 -4.226567 -1.173254
-13.779566 -4.769235 -1.152624
-13.609232 -5.260377 -1.112289
-14.295176 -3.825068 -1.210278
-14.120235 -4.320855 -1.165756
-14.169291 -4.870633 -1.176762
-13.997553 -5.364853 -1.136911
-14.688263 -3.920565 -1.231186
-14.511930 -4.419426 -1.187262
-14.560843 -4.972733 -1.196230
-14.409441 -5.474893 -1.190096
-15.083139 -4.016754 -1.247402
-14.905420 -4.518692 -1.204077
-14.954165 -5.075521 -1.210995
-14.774118 -5.574661 -1.163879
-15.502335 -4.116991 -1.291746
-15.317486 -4.621570 -1.240839
-15.343597 -5.177866 -1.212830
-15.195562 -5.687466 -1.215502
-15.923775 -4.218060 -1.330936
-15.725981 -4.724245 -1.264381
-15.745926 -5.283120 -1.226301
-15.591160 -5.794759 -1.221087
-16.353176 -4.320830 -1.373055
-16.165131 -4.832744 -1.323538
-16.167248 -5.392554 -1.259193
-16.011215 -5.907892 -1.254301
-16.778997 -4.423547 -1.401775
-16.566114 -4.934914 -1.320684
-16.613937 -5.507518 -1.319044
-16.433384 -6.021828 -1.282288
-17.183222 -4.523372 -1.393198
-16.992168 -5.041947 -1.345058
-17.016167 -5.613817 -1.309225
-16.810848 -6.125862 -1.240982
-17.588926 -4.623819 -1.379738
-17.396442 -5.145456 -1.332275
-17.443651 -5.725621 -1.326302
-17.230625 -6.239849 -1.250870
-17.977909 -4.721993 -1.337650
-17.802149 -5.249575 -1.314590
-17.897129 -5.843154 -1.369612
-17.711990 -6.368323 -1.334503
-18.435143 -4.831436 -1.377308
-18.282219 -5.367688 -1.386271
-18.328693 -5.956550 -1.375755
-18.142033 -6.485340 -1.341211
-18.845295 -4.933774 -1.348763
-18.759041 -5.485722 -1.443897
-18.762079 -6.070683 -1.376488
-18.573895 -6.603093 -1.342510
-19.281700 -5.040765 -1.346188
-19.151583 -5.588584 -1.386818
-19.246904 -6.195938 -1.433611
-19.007521 -6.721570 -1.338371
-19.707209 -5.146392 -1.322779
-19.670496 -5.715384 -1.478947
-19.684265 -6.311657 -1.422979
-19.492762 -6.852391 -1.390190
-20.006622 -5.231466 -1.141478
-20.103962 -5.826671 -1.457176
-20.173975 -6.438781 -1.467775
-19.949156 -6.976848 -1.397490
-20.613922 -5.368130 -1.320713
-20.551712 -5.941032 -1.445152
-20.640667 -6.561460 -1.475866
-20.420240 -7.105085 -1.414047
-21.174047 -5.497687 -1.431295
-20.994661 -6.054871 -1.419916
-21.135233 -6.690466 -1.507944
-20.932051 -7.243252 -1.469501
-21.534401 -5.593983 -1.302961
-21.465218 -6.174375 -1.418957
-21.586555 -6.810652 -1.481352
-21.427214 -7.377895 -1.495731
-21.815018 -5.676805 -1.081688
-21.964067 -6.299755 -1.441549
-22.105282 -6.945662 -1.522871
-21.931307 -7.515026 -1.522776
-22.528708 -5.834333 -1.335001
-22.431982 -6.419618 -1.420784
-22.586775 -7.073103 -1.513453
-22.457672 -7.657821 -1.565084
-22.904333 -5.934160 -1.206432
-22.935135 -6.546747 -1.430431
-23.009718 -7.188262 -1.432304
-22.933350 -7.788971 -1.542068
-22.714527 -5.935275 -0.473854
-23.620409 -6.093753 -1.434669
-23.413376 -6.669464 -1.404478
-23.534956 -7.325928 -1.454023
-23.518476 -7.946553 -1.628252
-23.978170 -6.191241 -1.272776
-23.872742 -6.788876 -1.350769
-24.096806 -7.472023 -1.504389
-24.018766 -8.084330 -1.613241
-24.889832 -6.387060 -1.675043
-24.574730 -6.956625 -1.540043
-24.578903 -7.601169 -1.461956
-24.479801 -8.213062 -1.549017
-23.957924 -6.255432 -0.197409
-25.174223 -6.472386 -1.422623
-24.996782 -7.069575 -1.430054
-25.229284 -7.767632 -1.581804
-24.990332 -8.353998 -1.528049
-24.716486 -6.424497 -0.434593
-25.342028 -7.167470 -1.237976
-25.687586 -7.892392 -1.497349
-25.558496 -8.509181 -1.555969
-25.857798 -6.663698 -1.027100
-25.424578 -7.212820 -0.785812
-26.118462 -8.011408 -1.379395
-26.157478 -8.672238 -1.603617
-26.280384 -6.774185 -0.902449
-26.321915 -7.421958 -1.123556
-26.464149 -8.111806 -1.173992
-26.532696 -8.781617 -1.423864
-26.645397 -6.874429 -0.718206
-27.313374 -7.651258 -1.529116
-27.074444 -8.271244 -1.215290
-27.257355 -8.975956 -1.571827
-29.134838 -7.365031 -2.493790
-27.835743 -7.786498 -1.474794
-27.970020 -8.494908 -1.509573
-27.684353 -9.098533 -1.427074
-29.734631 -7.511072 -2.482033
-27.994572 -7.847978 -1.079969
-28.260216 -8.583908 -1.232014
-28.329052 -9.274418 -1.476442
-30.418018 -7.673210 -2.534531
-28.752441 -8.032011 -1.226166
-28.923012 -8.756690 -1.287064
-29.020863 -9.462312 -1.556021
-31.104820 -7.836712 -2.577225
-29.026062 -8.117224 -0.929531
-30.248039 -9.079300 -1.912127
-29.701725 -9.648076 -1.612429
-31.824928 -8.007180 -2.635933
-29.677952 -8.280575 -0.960388
-31.484474 -8.653733 -2.526802
-30.452473 -9.150081 -1.535912
-30.193104 -9.787893 -1.491159
-32.548653 -8.179098 -2.684181
-32.144855 -8.820919 -2.525742
-30.533100 -9.192740 -1.056295
-31.051262 -10.018206 -1.676220
-33.298687 -8.356758 -2.740921
-32.876049 -9.003442 -2.572311
-30.789913 -9.275251 -0.729033
-31.576374 -10.167181 -1.563862
-34.067722 -8.538825 -2.799213
-30.987957 -8.639367 -0.450796
-31.127689 -9.376252 -0.468115
-32.420601 -10.395303 -1.706861
-34.825108 -8.719474 -2.833797
-31.224525 -8.717520 -0.108517
-34.494637 -9.403332 -2.751175
-31.463779 -9.477003 -0.203381
-34.530636 -10.178304 -2.673721
-32.560238 -10.449790 -1.262115
-35.624722 -8.909009 -2.887917
-35.275547 -9.598500 -2.794853
-35.363964 -10.395164 -2.756321
-33.056313 -10.592607 -1.104477
-36.326588 -9.080510 -2.851421
-36.013397 -9.785313 -2.790565
-36.131638 -10.597665 -2.772018
-33.498425 -10.722343 -0.897900
-36.879379 -9.999950 -2.871422
-34.056534 -10.145391 -0.603930
-34.118904 -10.896758 -0.823036
-34.277527 -10.221062 -0.221270
-34.968098 -11.128674 -0.910463
-38.485077 -11.220723 -2.773903
-39.384457 -11.456417 -2.829796
-37.221867 -11.754749 -0.866596
-36.707638 -11.687418 1.162069
5.762312 -0.965836 29.812206
5.755066 -0.971265 29.806667
5.710401 -0.978339 29.784412
5.744525 -0.974140 29.805250
5.718487 -0.980864 29.791723
5.732855 -0.973289 29.804331
5.717212 -0.981304 29.793966
5.749457 -0.973191 29.816334
5.730528 -0.974098 29.808550
5.748385 -0.973565 29.818298
5.763366 -0.966372 29.830162
5.781159 -0.965271 29.839781
5.762408 -0.966710 29.831993
5.746292 -0.974300 29.822256
5.778611 -0.962926 29.843269
5.770880 -0.968081 29.838421
5.734703 -0.973593 29.821758
5.795716 -0.961775 29.854134
5.743279 -0.975375 29.828262