# This PCD file was generated using the MATLAB® pcwrite function
# from Computer Vision System Toolbox®.
# .PCD v.7 - Point Cloud Data file format
VERSION .7
FIELDS x y z
SIZE 4 4 4
TYPE F F F
COUNT 1 1 1
WIDTH 758
HEIGHT 1
VIEWPOINT 0 0 0 1 0 0 0
POINTS 758
DATA ascii
-24.514572 -10.479629 -0.645960
-23.902372 -10.688213 -0.745182
-24.116322 -10.248448 -0.653542
-23.473803 -10.438908 -0.712883
-23.767134 -10.039840 -0.701632
-23.080595 -10.207006 -0.707548
-23.364407 -9.808777 -0.690613
-22.668816 -9.967709 -0.675671
-22.929527 -9.564913 -0.639383
-22.351391 -9.772368 -0.733599
-22.630367 -9.380832 -0.718496
-21.949102 -9.539476 -0.696680
-22.225237 -9.152002 -0.682585
-21.626804 -9.343643 -0.737505
-21.874590 -8.947573 -0.696289
-21.253454 -9.125793 -0.717112
-21.551159 -8.755602 -0.732937
-20.907297 -8.921060 -0.719521
-21.202511 -8.553822 -0.736450
-20.536863 -8.706515 -0.688038
-20.803562 -8.331934 -0.677475
-20.218590 -8.515941 -0.708870
-20.483273 -8.143982 -0.699095
-19.876146 -8.315609 -0.695871
-20.138529 -7.946748 -0.686949
-19.566105 -8.130287 -0.714596
-19.820251 -7.761348 -0.699095
-19.244619 -7.940804 -0.714027
-19.534092 -7.589882 -0.743660
-18.905947 -7.744795 -0.686371
-19.161976 -7.384273 -0.679840
-18.665604 -7.591691 -0.774227
-18.926561 -7.234810 -0.775789
-18.359110 -7.410983 -0.775486
-18.587715 -7.044444 -0.739996
-18.041786 -7.226513 -0.757099
-18.274517 -6.865252 -0.729786
-17.737555 -7.048398 -0.749556
-17.986357 -6.696783 -0.745861
-17.446133 -6.876422 -0.753208
-17.699007 -6.529366 -0.757952
-17.161453 -6.707982 -0.760609
-17.412504 -6.363020 -0.766088
-16.883383 -6.542978 -0.771935
-17.150057 -6.206663 -0.801661
-16.623127 -6.385916 -0.803202
-16.842215 -6.033619 -0.770575
-16.340958 -6.220606 -0.799141
-16.581207 -5.879178 -0.798767
-16.081995 -6.065337 -0.823284
-16.298273 -5.717146 -0.791510
-15.774192 -5.891264 -0.771393
-16.016384 -5.556280 -0.780415
-16.109344 -5.137586 -0.769920
-16.340477 -4.796343 -0.761604
-15.457192 -5.714499 -0.698952
-15.713569 -5.388509 -0.733095
-15.855081 -4.990069 -0.794310
-16.068052 -4.645132 -0.762287
-15.260371 -5.585732 -0.801708
-15.477671 -5.246040 -0.779402
-15.573949 -4.834150 -0.774618
-15.813178 -4.500124 -0.783798
-14.988531 -5.428114 -0.787155
-15.198909 -5.088614 -0.757128
-15.337380 -4.693850 -0.816826
-15.558883 -4.355930 -0.802040
-14.733536 -5.277708 -0.793756
-14.942646 -4.940021 -0.764112
-15.063522 -4.541829 -0.798290
-15.278043 -4.204381 -0.775850
-14.500073 -5.136133 -0.830280
-14.729253 -4.807209 -0.834141
-14.806699 -4.396136 -0.801046
-15.025301 -4.062070 -0.787365
-14.220703 -4.977743 -0.788635
-14.453228 -4.652881 -0.801485
-14.550673 -4.251387 -0.800497
-14.789165 -3.925283 -0.820654
-13.993495 -4.839665 -0.827297
-14.178505 -4.499840 -0.765165
-14.295479 -4.107599 -0.796661
-14.532371 -3.783072 -0.817520
-13.741465 -4.692877 -0.820890
-13.966105 -4.368890 -0.826441
-14.041146 -3.964787 -0.789562
-14.255687 -3.635953 -0.777430
-13.510117 -4.554314 -0.845226
-13.713437 -4.224730 -0.817339
-13.828172 -3.835359 -0.847105
-14.041895 -3.507302 -0.835331
-13.240077 -4.402267 -0.798351
-13.481512 -4.088163 -0.839111
-13.575162 -3.694206 -0.833895
-13.787524 -3.367890 -0.822628
-13.029393 -4.272285 -0.850954
-13.230448 -3.945846 -0.823746
-13.323105 -3.554072 -0.817476
-13.514103 -3.224120 -0.772495
-12.766283 -4.124131 -0.806137
-12.980355 -3.804558 -0.805185
-13.091514 -3.420662 -0.832342
-13.301421 -3.097345 -0.822008
-12.518657 -3.982198 -0.783915
-12.774193 -3.678004 -0.861366
-12.841205 -3.282440 -0.809748
-13.049747 -2.960862 -0.799917
-12.327704 -3.860511 -0.863125
-12.520860 -3.536950 -0.828173
-12.591941 -3.145280 -0.784012
-12.837600 -2.835177 -0.844133
-12.095130 -3.724862 -0.861406
-12.315137 -3.411416 -0.879164
-12.381185 -3.019555 -0.825098
-12.587528 -2.700489 -0.816103
-11.867770 -3.591554 -0.865625
-12.068147 -3.273651 -0.848763
-12.170502 -2.894235 -0.863735
-12.376017 -2.575942 -0.855080
-11.641014 -3.459000 -0.867083
-11.858383 -3.147790 -0.885836
-11.941718 -2.764495 -0.864643
-12.150746 -2.448544 -0.865200
-11.414889 -3.327212 -0.865793
-11.613140 -3.011887 -0.849596
-11.700121 -2.632027 -0.836218
-11.916880 -2.319740 -0.854967
-11.193732 -3.197587 -0.870691
-11.404138 -2.887226 -0.881498
-11.468418 -2.502847 -0.822634
-11.670345 -2.188796 -0.815285
-10.985868 -3.072692 -0.899809
-11.182338 -2.759344 -0.884186
-11.276717 -2.384270 -0.886705
-11.460394 -2.066669 -0.843931
-10.761455 -2.943058 -0.890566
-10.973864 -2.635714 -0.911163
-11.050378 -2.257514 -0.876881
-11.237565 -1.942255 -0.843311
-10.537770 -2.814238 -0.878641
-10.740478 -2.505739 -0.881687
-10.824778 -2.131577 -0.864372
-11.023916 -1.820318 -0.858068
-10.331036 -2.691092 -0.900303
-10.520466 -2.380038 -0.876532
-10.587480 -2.003620 -0.822063
-10.802189 -1.697292 -0.852320
-10.112598 -2.564928 -0.892303
-10.317303 -2.259281 -0.905128
-10.396327 -1.886739 -0.876795
-10.589422 -1.576593 -0.862114
-9.883084 -2.436150 -0.854343
-10.090364 -2.132906 -0.876732
-10.188832 -1.766562 -0.892982
-10.368888 -1.454999 -0.851294
-9.681599 -2.315977 -0.877798
-9.872218 -2.009399 -0.863955
-9.977680 -1.646080 -0.897680
-10.177188 -1.339075 -0.901833
-9.465167 -2.192085 -0.862190
-9.650938 -1.885758 -0.839455
-9.743677 -1.521557 -0.844883
-9.937842 -1.215462 -0.840345
-9.271742 -2.074952 -0.899462
-9.472116 -1.772613 -0.913752
-9.552935 -1.406234 -0.890675
-9.762053 -1.102871 -0.923138
-9.067326 -1.955247 -0.906824
-9.251852 -1.650263 -0.884453
-9.347014 -1.288353 -0.897421
-9.543562 -0.983878 -0.902630
-8.848983 -1.832465 -0.874704
-9.050722 -1.532746 -0.899004
-9.126760 -1.168451 -0.864763
-9.333351 -0.866751 -0.898148
-8.663127 -1.718362 -0.923985
-8.860567 -1.417931 -0.939247
-8.936324 -1.054269 -0.904028
-9.142056 -0.752678 -0.937750
-8.456373 -1.599476 -0.915155
-8.656245 -1.300540 -0.940096
-8.731594 -0.938086 -0.903910
-8.921762 -0.635339 -0.900770
-8.263654 -1.484359 -0.941536
-8.448914 -1.183075 -0.929304
-8.541180 -0.824537 -0.938982
-8.730762 -0.522073 -0.936052
-8.041295 -1.362989 -0.881123
-8.221975 -1.062623 -0.859812
-8.350661 -0.711230 -0.972025
-8.539658 -0.409049 -0.969299
-7.862189 -1.251676 -0.940853
-8.059104 -0.954153 -0.966747
-8.120106 -0.593082 -0.890001
-8.321286 -0.293844 -0.925312
-7.663650 -1.136499 -0.941929
-7.843426 -0.836874 -0.920881
-7.943313 -0.482336 -0.956457
-8.130586 -0.181683 -0.954288
-7.462390 -1.021252 -0.931341
-7.654057 -0.724393 -0.948399
-7.737210 -0.368483 -0.935856
-7.926809 -0.068929 -0.943436
-7.285775 -0.911067 -0.994696
-7.452310 -0.610448 -0.935894
-7.550485 -0.257100 -0.969978
-7.736304 0.042508 -0.968275
-7.085017 -0.796731 -0.979897
-7.275209 -0.500260 -0.997402
-7.333141 -0.143440 -0.906929
-7.520867 0.154676 -0.915092
-6.893439 -0.684437 -0.991611
-7.059289 -0.385515 -0.932943
-7.134928 -0.032092 -0.898726
-7.318741 0.265509 -0.897629
-6.685207 -0.570002 -0.943745
-6.873366 -0.274880 -0.961813
-6.945870 0.078210 -0.917099
-7.140972 0.375374 -0.954378
-6.475276 -0.456118 -0.883961
-6.659341 -0.161895 -0.892771
-6.756846 0.188198 -0.933487
-6.939467 0.485237 -0.932753
-6.309054 -0.348590 -0.976007
-6.484822 -0.053004 -0.956017
-6.556836 0.298147 -0.909451
-6.727278 0.594223 -0.870600
-6.110717 -0.237212 -0.950558
-6.283099 0.057689 -0.921104
-6.368217 0.407306 -0.921803
-6.549368 0.703301 -0.921494
-5.923085 -0.127502 -0.961679
-6.105411 0.166488 -0.970959
-6.169224 0.516054 -0.893579
-6.349503 0.811288 -0.893518
-5.735545 -0.018134 -0.970842
-5.919706 0.275538 -0.989975
-5.991243 0.624601 -0.940615
-6.171193 0.920036 -0.940639
-5.545744 0.091040 -0.968336
-5.729089 0.384397 -0.987671
-5.802920 0.732721 -0.947079
-5.972120 1.026966 -0.908588
-5.349331 0.200100 -0.934647
-5.522195 0.492747 -0.915359
-5.624310 0.841082 -0.990429
-5.793472 1.135350 -0.951946
-5.171411 0.307900 -0.976873
-5.334933 0.600445 -0.918692
-5.410424 0.946493 -0.886099
-5.595259 1.241191 -0.915854
-4.975877 0.415863 -0.939169
-5.156695 0.708157 -0.959093
-5.232049 1.054147 -0.925583
-5.416332 1.349179 -0.955462
-4.791474 0.523195 -0.948317
-4.960892 0.814706 -0.919558
-5.053264 1.161768 -0.963263
-5.228019 1.455516 -0.954309
-4.605111 0.630159 -0.945772
-4.776213 0.921440 -0.926886
-4.855169 1.266392 -0.911194
-5.033389 1.560111 -0.921974
-4.424730 0.737053 -0.970749
-4.603565 1.029243 -0.991095
-4.684381 1.375015 -0.984270
-4.860370 1.668966 -0.985283
-4.231152 0.842726 -0.925116
-4.401268 1.133142 -0.906439
-4.489189 1.478931 -0.938065
-4.674407 1.774806 -0.988190
-4.052632 0.949216 -0.956182
-4.231804 1.241336 -0.986649
-4.302348 1.583918 -0.929094
-4.478794 1.877408 -0.940250
-3.873766 1.055638 -0.985447
-4.041742 1.345910 -0.956999
-4.115762 1.688478 -0.918221
-4.289650 1.981107 -0.919720
-3.681526 1.159688 -0.934013
-3.850540 1.449469 -0.915556
-3.936369 1.794801 -0.944784
-4.109920 2.087629 -0.946335
-3.502607 1.265593 -0.959589
-3.671437 1.555483 -0.941154
-3.750040 1.898660 -0.930170
-3.922980 2.191207 -0.931845
-3.318941 1.370281 -0.953714
-3.492031 1.661404 -0.964952
-3.570337 2.004619 -0.953085
-3.742939 2.297366 -0.954803
-3.132621 1.473764 -0.926199
-3.306432 1.765066 -0.947443
-3.391858 2.111153 -0.984058
-3.556314 2.400211 -0.936583
-2.958758 1.580864 -0.985901
-3.130960 1.872348 -0.997252
-3.204369 2.213309 -0.954016
-3.376019 2.505974 -0.955889
-2.775239 1.684651 -0.974508
-2.946824 1.976014 -0.985949
-3.024158 2.318751 -0.971478
-3.195467 2.611614 -0.973383
-2.584832 1.784746 -0.901785
-2.755386 2.075265 -0.913404
-2.838579 2.420810 -0.947594
-2.230424 2.174838 4.742161
-3.009274 2.713392 -0.949610
-2.408820 1.891051 -0.946196
-2.586222 2.186461 -1.017233
-2.659405 2.526666 -0.971310
-2.110960 2.268446 4.593456
-2.829828 2.819567 -0.973330
-2.229043 1.995565 -0.959064
-2.401183 2.288441 -0.990520
-2.477604 2.630662 -0.973434
-2.642820 2.919558 -0.935997
-2.053840 2.103338 -1.019787
-2.220637 2.393132 -1.001623
-2.296810 2.735362 -0.983641
-2.461986 3.024282 -0.946207
-1.866246 2.201959 -0.949594
-2.033256 2.491743 -0.941490
-2.112889 2.836937 -0.962334
-2.282013 3.129951 -0.964491
-1.686119 2.305871 -0.957050
-1.854614 2.597585 -0.968800
-1.934676 2.944271 -0.998632
-2.104636 3.238995 -1.010630
-1.505827 2.409610 -0.962706
-1.677898 2.706227 -1.024088
-1.750878 3.045238 -0.973690
-1.919316 3.338646 -0.975868
-1.325384 2.513169 -0.966562
-1.494496 2.807312 -0.998182
-1.569648 3.149114 -0.976656
-1.353287 2.863079 3.649183
-1.736922 3.441481 -0.968952
-1.144803 2.616540 -0.968615
-1.312704 2.909986 -0.990316
-1.390996 3.257445 -1.017452
-1.555293 3.545317 -0.970112
-0.961590 2.715001 -0.919155
-1.129228 3.009188 -0.950863
-1.209214 3.361100 -1.016802
-1.373547 3.648953 -0.969461
-0.783286 2.822685 -0.967321
-0.952186 3.121116 -1.028725
-1.027329 3.464547 -1.014341
-1.191697 3.752379 -0.966999
-0.600624 2.920300 -0.914268
-0.768387 3.218578 -0.975737
-0.844905 3.566485 -1.000158
-1.009758 3.855589 -0.962729
-0.422206 3.031199 -0.988638
-0.588695 3.327315 -1.020187
-0.663304 3.670782 -1.003983
-0.827743 3.958574 -0.956646
-0.240322 3.130295 -0.951874
-0.407107 3.431311 -1.023129
-0.480894 3.772177 -0.986189
-0.645666 4.061326 -0.948753
-0.059207 3.232372 -0.943125
-0.224164 3.527487 -0.964758
-0.299697 3.880345 -1.016073
-0.464703 4.169997 -0.978556
0.121577 3.343808 -1.011997
-0.043438 3.640164 -1.033472
-0.116690 3.976906 -0.964979
-0.282454 4.274013 -0.976900
0.303398 3.446974 -1.009531
0.138845 3.742362 -1.021053
0.065170 4.084911 -0.991213
-0.100310 4.381108 -0.993155
0.485701 3.553822 -1.035000
0.321288 3.849925 -1.046427
0.247619 4.186802 -0.976065
0.082484 4.483191 -0.977980
0.667885 3.655431 -1.018972
0.503888 3.951766 -1.030363
0.430718 4.301138 -1.038090
0.265378 4.598680 -1.039814
0.850827 3.760875 -1.030848
0.686473 4.053330 -1.012489
0.613747 4.402815 -1.019264
0.448751 4.700548 -1.020954
1.033530 3.863463 -1.021082
0.870089 4.160742 -1.032322
0.796741 4.504204 -0.998631
0.632089 4.802126 -1.000282
1.217161 3.968754 -1.029266
1.052908 4.261899 -1.010799
0.979685 4.605297 -0.976185
0.815377 4.903409 -0.977795
1.401677 4.075492 -1.045464
1.235671 4.362757 -0.987469
1.162567 4.706085 -0.951933
0.998602 5.004387 -0.953497
1.584486 4.176106 -1.020311
1.420333 4.469941 -1.001732
1.349065 4.820959 -1.004484
1.183322 5.112731 -0.966614
1.762116 4.263769 -0.914524
1.601540 4.565243 -0.945232
1.532922 4.923290 -0.986340
1.366682 5.213244 -0.938652
1.949837 4.376381 -0.964594
1.788636 4.677388 -0.985266
1.718666 5.031025 -0.995775
1.554839 5.331450 -0.996923
2.138659 4.489326 -1.012671
1.975241 4.786216 -1.003691
1.901451 5.129135 -0.954350
1.738656 5.431672 -0.965229
2.319062 4.583852 -0.950758
2.154520 4.876875 -0.922178
2.087776 5.236644 -0.960022
1.924427 5.537803 -0.960991
2.512028 4.702211 -1.024353
2.347715 4.998487 -1.005362
2.277920 5.352154 -1.002815
2.114363 5.654458 -1.003561
2.695333 4.801475 -0.988165
2.534996 5.105477 -1.008223
2.461783 5.451584 -0.965599
2.298569 5.754072 -0.966276
2.887198 4.914987 -1.028345
2.722711 5.212429 -1.009153
2.653403 5.567346 -1.004410
2.489979 5.870977 -1.004856
3.070755 5.013842 -0.988428
2.911945 5.321323 -1.017887
2.841772 5.674869 -1.002295
2.674421 5.970171 -0.963816
3.255358 5.114225 -0.956442
3.094697 5.418073 -0.966316
3.030538 5.782331 -0.998238
2.862951 6.078134 -0.959669
3.454388 5.235728 -1.029541
3.289572 5.535040 -1.010014
3.219687 5.889721 -0.992224
3.056458 6.195339 -0.992195
3.642467 5.339908 -1.013084
3.482927 5.648116 -1.032204
3.409204 5.997033 -0.984251
3.246040 6.303311 -0.984060
3.838092 5.454064 -1.043121
3.674295 5.757051 -1.032990
3.599073 6.104254 -0.974318
3.441168 6.420827 -1.012430
4.017699 5.545701 -0.964756
3.858790 5.855029 -0.983540
3.789280 6.211377 -0.962414
3.626243 6.518974 -0.961882
4.220844 5.668289 -1.029324
4.055404 5.970411 -1.009283
3.985878 6.327863 -0.986923
3.822627 6.636597 -0.986135
4.411964 5.774222 -1.014626
4.246437 6.076925 -0.994467
4.183382 6.444546 -1.009275
4.019916 6.754416 -1.008232
4.603384 5.880033 -0.997946
4.442863 6.190237 -1.006413
4.381772 6.561415 -1.029461
4.211699 6.862155 -0.990032
4.800610 5.992388 -1.008005
4.634701 6.296613 -0.987556
4.581031 6.678457 -1.047464
4.417135 6.990598 -1.045904
4.987057 6.091249 -0.958630
4.826806 6.402846 -0.966711
4.766618 6.775464 -0.987246
4.603058 7.087780 -0.985571
5.203155 6.224270 -1.050291
5.042219 6.538012 -1.057985
4.966973 6.892509 -1.001051
4.812299 7.219373 -1.046408
5.396502 6.329957 -1.025347
5.229714 6.637007 -1.004385
5.168145 7.009693 -1.012640
5.004148 7.324274 -1.010427
5.587931 6.433092 -0.988918
5.431468 6.753103 -1.015137
5.370119 7.127006 -1.022005
5.207872 7.445476 -1.028921
5.801528 6.560148 -1.045010
5.640446 6.876937 -1.051954
5.566541 7.236399 -1.000931
5.408440 7.561274 -1.026361
5.986933 6.655767 -0.976122
5.835122 6.983073 -1.020538
5.776398 7.361964 -1.034012
5.611741 7.679933 -1.030958
6.204938 6.785795 -1.036932
6.048289 7.109921 -1.062103
5.980667 7.479587 -1.036625
5.815787 7.798683 -1.033289
6.395381 6.885984 -0.982773
6.236782 7.207982 -0.998350
6.176338 7.586123 -0.999708
6.011512 7.905868 -0.996161
6.620738 7.021764 -1.057377
6.451775 7.335178 -1.035231
6.381753 7.703743 -0.997883
6.216702 8.024612 -0.994045
6.814451 7.124324 -1.008266
6.658014 7.451827 -1.032436
6.587860 7.821418 -0.993769
6.432219 8.155354 -1.026573
7.034627 7.252995 -1.049896
6.864937 7.568526 -1.027342
6.794641 7.939136 -0.987347
6.639064 8.274342 -1.019732
7.242578 7.368672 -1.042700
7.080490 7.693664 -1.047613
7.012567 8.068641 -1.015379
6.846562 8.393360 -1.010569
7.451173 7.484375 -1.033188
7.291667 7.813371 -1.046989
7.220927 8.186553 -1.004185
7.065197 8.524774 -1.035629
7.660397 7.600091 -1.021345
7.500814 7.930289 -1.034803
7.429903 8.304472 -0.990654
7.263440 8.631432 -0.985235
7.893745 7.738115 -1.080303
7.733541 8.070481 -1.093287
7.662185 8.446762 -1.047506
7.494938 8.775800 -1.041622
8.104736 7.854106 -1.063501
7.944455 8.187673 -1.076132
7.872907 8.564939 -1.028990
7.705428 8.895094 -1.022791
8.325544 7.978650 -1.071550
8.167994 8.316759 -1.092834
8.096112 8.695556 -1.044186
7.925210 9.024068 -1.028589
8.537864 8.094682 -1.049904
8.367961 8.421959 -1.034704
8.305158 8.810637 -1.011782
8.151922 9.159752 -1.049719
8.766836 8.225312 -1.070873
8.593142 8.551232 -1.046352
8.530196 8.941534 -1.021797
8.364582 9.279181 -1.023438
8.990432 8.350296 -1.071152
8.819395 8.680720 -1.055309
8.756294 9.072636 -1.029112
8.590237 9.411909 -1.030310
9.194736 8.457409 -1.015242
9.030204 8.794801 -1.017002
8.999756 9.220219 -1.078068
8.829710 9.558337 -1.069868
9.423141 8.585464 -1.019354
9.275026 8.940272 -1.065067
9.228257 9.351854 -1.079727
9.057695 9.691563 -1.071123
9.680609 8.738235 -1.091515
9.518114 9.083065 -1.101168
9.430507 9.457033 -1.008276
9.273323 9.811157 -1.034515
9.907983 8.863781 -1.081013
9.734671 9.200491 -1.063854
9.677780 9.605497 -1.048500
9.516603 9.958463 -1.065331
10.143467 8.995666 -1.085352
9.962360 9.327552 -1.050337
9.919603 9.747638 -1.068104
9.744005 10.088593 -1.049562
10.376306 9.124567 -1.078094
10.212729 9.474407 -1.086370
10.151920 9.879805 -1.058641
9.965097 10.211669 -1.013763
10.636545 9.275990 -1.128824
10.460978 9.618375 -1.110516
10.385130 10.012064 -1.046360
10.226410 10.374019 -1.070108
10.856244 9.392369 -1.081074
10.695518 9.749264 -1.096991
10.634213 10.158372 -1.065590
10.460237 10.508066 -1.054396
11.080174 9.511823 -1.039429
10.930914 9.880220 -1.080620
10.884686 10.305001 -1.081623
10.709905 10.656754 -1.069923
11.344426 9.664144 -1.080744
11.182829 10.024915 -1.095552
11.101537 10.419908 -1.017946
10.930389 10.776320 -1.014395
11.582036 9.793622 -1.058998
11.416146 10.152634 -1.064781
11.369915 10.581190 -1.061737
11.197749 10.940167 -1.057554
11.857552 9.953403 -1.110561
11.686622 10.311677 -1.107262
11.611984 10.717638 -1.043049
11.431377 11.070860 -1.021587
12.109881 10.093377 -1.107885
11.925934 10.443089 -1.078878
11.879463 10.876060 -1.071535
11.689729 11.224115 -1.032858
12.350562 10.223240 -1.076897
12.165972 10.574484 -1.047579
12.119499 11.009102 -1.038229
11.957635 11.385265 -1.057323
12.570316 10.335776 -1.001347
12.406712 10.705845 -1.013346
12.394002 11.171823 -1.068127
12.214696 11.535298 -1.053438
12.851573 10.496808 -1.039230
12.682719 10.866039 -1.042267
12.635912 11.305003 -1.028542
12.477161 11.689379 -1.054411
13.148042 10.668883 -1.097984
12.960432 11.026653 -1.067457
12.935061 11.487198 -1.092215
12.753770 11.855369 -1.076380
13.392424 10.798997 -1.054422
13.221992 11.172980 -1.056234
13.209998 11.647240 -1.102890
13.010274 12.002110 -1.054054
13.674109 10.957646 -1.072924
13.520837 11.349051 -1.106544
13.437084 11.765382 -1.021063
13.289819 12.168691 -1.068691
13.938781 11.102207 -1.055294
13.766767 11.480940 -1.055868
13.736995 11.945004 -1.064978
13.570944 12.335607 -1.079502
14.218660 11.257781 -1.058340
14.069040 11.657807 -1.098341
14.002055 12.094014 -1.040871
13.817255 12.470717 -1.022848
14.528645 11.435612 -1.105511
14.335638 11.804896 -1.072844
14.305544 12.274475 -1.076660
14.137791 12.670346 -1.089546
14.777760 11.565951 -1.045231
14.622336 11.967306 -1.075523
14.573082 12.423811 -1.045202
14.386061 12.805547 -1.025946
15.086240 11.740796 -1.076389
14.929866 12.145356 -1.105736
14.855969 12.585105 -1.033688
14.691586 12.989738 -1.052805
15.371788 11.897333 -1.064093
15.214796 12.304490 -1.092566
15.169347 12.770615 -1.064903
14.999018 13.174370 -1.075296
15.708961 12.091838 -1.125633
15.510924 12.471581 -1.091053
15.460064 12.936411 -1.053080
15.308312 13.359414 -1.093382
15.982329 12.237505 -1.081951
15.803495 12.634977 -1.077759
15.792054 13.134889 -1.098486
15.599738 13.528109 -1.076506
16.251352 12.379275 -1.027056
16.077005 12.782700 -1.029894
16.065666 13.284848 -1.047832
15.892448 13.696942 -1.055609
16.588923 12.571131 -1.067535
16.413153 12.978150 -1.069494
16.380968 13.467654 -1.053913
16.201550 13.878603 -1.053240
16.907581 12.747964 -1.072895
16.725437 13.154081 -1.066504
16.697975 13.650765 -1.055489
16.517334 14.064776 -1.053932
17.227926 12.925091 -1.073738
17.049841 13.338326 -1.074053
17.053310 13.863345 -1.104517
16.834776 14.251222 -1.050087
17.571533 13.118253 -1.099770
17.365328 13.514758 -1.062109
17.336924 14.017782 -1.044998
17.153831 14.437913 -1.041676
17.851639 13.264239 -1.032270
17.666100 13.679106 -1.023632
17.674856 14.214300 -1.054815
17.495609 14.642183 -1.057838
18.220737 13.473920 -1.078175
18.055256 13.909286 -1.097824
18.020088 14.415402 -1.066921
17.866129 14.868677 -1.105083
18.547625 13.652033 -1.060453
18.364605 14.078155 -1.057360
18.367275 14.616865 -1.073904
18.190525 15.056250 -1.082045
18.898548 13.846467 -1.066879
18.730812 14.288661 -1.084414
18.694227 14.801465 -1.047209
18.532749 15.257195 -1.075668
19.251356 14.041214 -1.068151
19.037283 14.453548 -1.027615
19.067316 15.020730 -1.072407
18.860132 15.445058 -1.043070
19.629040 14.252609 -1.092548
19.435724 14.685734 -1.079571
19.425718 15.227413 -1.070869
19.233511 15.668701 -1.061695
19.979883 14.443864 -1.076160
19.790878 14.884654 -1.069334
19.774572 15.425629 -1.050068
19.575260 15.865828 -1.032995
20.344095 14.643562 -1.068563
20.165180 15.096563 -1.074657
20.176907 15.663518 -1.086130
19.964050 16.099142 -1.054235
20.721960 14.851810 -1.069349
20.529774 15.300222 -1.060585
20.535213 15.866612 -1.061281
20.366667 16.341953 -1.083042
21.107779 15.064524 -1.071293
20.913864 15.516988 -1.061516
20.942141 16.105330 -1.085217
20.725304 16.548790 -1.051554
21.495619 15.277528 -1.067396
21.317898 15.747025 -1.076860
21.304026 16.308809 -1.049179
21.085478 16.755713 -1.014706
21.879324 15.486553 -1.050932
21.730255 15.981795 -1.092632
21.739265 16.566126 -1.087395
21.518158 17.017895 -1.051884
22.120611 16.199463 -1.075497
22.104723 16.769930 -1.039791
21.923714 17.257500 -1.049339
22.544729 17.028015 -1.064833
22.337427 17.502022 -1.046932
22.962734 17.268360 -1.057070
22.777634 17.765478 -1.063696
23.382851 17.508942 -1.042759
23.171295 17.991846 -1.022526
23.823782 17.763472 -1.040794
23.609888 18.251181 -1.019335
24.081964 18.534414 -1.040241
24.712446 18.273296 -1.015772
24.556776 18.818060 -1.053413
0.399248 0.595818 22.588221
0.410234 0.598371 22.585419
0.382370 0.582311 22.609455
0.409678 0.602075 22.587812
0.446195 0.623006 22.560394
0.430772 0.617114 22.572483
0.385738 0.583517 22.614298
0.422238 0.605009 22.587402
0.406903 0.598571 22.599131
0.396340 0.586322 22.611593
0.381190 0.579374 22.623102
0.424872 0.605918 22.591417
0.436477 0.619103 22.581032
0.384775 0.577446 22.625860
0.390064 0.585009 22.620892
0.420502 0.601952 22.600809
0.404864 0.595268 22.611940
0.412912 0.600610 22.608530