# This PCD file was generated using the MATLAB® pcwrite function
# from Computer Vision System Toolbox®.
# .PCD v.7 - Point Cloud Data file format
VERSION .7
FIELDS x y z
SIZE 4 4 4
TYPE F F F
COUNT 1 1 1
WIDTH 931
HEIGHT 1
VIEWPOINT 0 0 0 1 0 0 0
POINTS 931
DATA ascii
30.754677 6.747117 -0.041376
30.242607 6.682147 0.044451
29.775620 6.633373 0.083063
29.405010 6.623558 0.003965
28.971260 6.585125 0.014166
28.596748 6.570844 -0.048677
28.557446 6.013238 -0.073547
28.189114 6.540442 -0.060352
28.122253 5.973862 -0.044302
27.771969 6.503955 -0.051622
27.689415 5.933409 -0.009985
27.318314 6.448626 0.017557
27.264507 5.894300 0.021378
26.981632 6.445770 -0.075945
26.901714 5.880736 -0.030777
26.596817 6.419069 -0.093622
26.518250 5.856596 -0.046759
26.171165 6.370925 -0.042326
26.115025 5.821811 -0.026028
25.789772 6.342322 -0.051260
25.755562 5.805542 -0.066185
25.430382 6.323113 -0.088799
25.417553 5.798178 -0.135464
25.092148 6.313375 -0.155506
24.998837 5.750850 -0.069059
24.714443 6.282130 -0.152599
24.602863 5.712351 -0.031103
24.299114 6.229258 -0.079060
24.228779 5.682761 -0.022160
23.848030 6.154639 0.066120
23.895077 5.672005 -0.076355
23.420101 6.089408 0.183050
23.604729 5.682680 -0.203173
23.047199 6.051895 0.212044
23.229183 5.648150 -0.174757
22.722240 6.039655 0.160206
22.809486 5.587987 -0.057074
22.370602 6.010962 0.162724
22.370665 5.514479 0.108238
22.047039 5.997199 0.117508
22.003019 5.477304 0.149704
21.719629 5.980069 0.084068
21.659334 5.451759 0.151915
21.354340 5.938534 0.131657
21.334179 5.435421 0.122946
21.029081 5.919889 0.105017
20.992893 5.408357 0.132048
20.985561 4.511684 -0.296148
20.708729 5.903151 0.072866
20.686136 5.400548 0.074619
20.483028 4.882188 0.108801
20.561909 4.443262 -0.104935
20.384972 5.883055 0.052584
20.347075 5.372006 0.090391
20.182093 4.876727 0.047852
20.199432 4.405256 -0.033009
20.062054 5.862239 0.035479
20.025414 5.352754 0.074320
19.845673 4.849218 0.069565
19.831495 4.362001 0.060587
19.736115 5.838063 0.030359
19.720230 5.342834 0.025963
19.510786 4.820980 0.094696
19.481890 4.326937 0.122379
19.418859 5.818473 0.010736
19.384752 5.312123 0.051609
19.207788 4.811061 0.051668
19.183880 4.320306 0.071159
19.113567 5.806141 -0.032497
19.065813 5.290758 0.044941
18.893974 4.793323 0.038404
18.867437 4.301778 0.067734
18.797644 5.785170 -0.046104
18.747847 5.268702 0.041372
18.577366 4.772516 0.037172
18.551991 4.282564 0.067387
18.489689 5.768825 -0.074587
18.445192 5.256042 0.004930
18.275961 4.760578 0.002848
18.251787 4.271679 0.033810
18.189245 5.757125 -0.118149
18.142918 5.242718 -0.028692
17.961092 4.738425 0.007614
17.938091 4.251124 0.039440
17.895851 5.750084 -0.176983
17.844467 5.231261 -0.068560
17.647305 4.715604 0.015423
17.639046 4.238923 0.011564
17.579132 5.723763 -0.169838
17.519623 5.198937 -0.033014
17.347832 4.701686 -0.010273
17.340458 4.226074 -0.013535
17.276489 5.707425 -0.195957
17.228901 5.191222 -0.085394
17.061714 4.696697 -0.069836
17.029446 4.203552 0.000900
16.974331 5.690437 -0.219282
16.976194 5.213222 -0.244860
16.766037 4.683893 -0.099293
16.744762 4.198450 -0.055443
16.660381 5.662140 -0.203278
16.650553 5.176409 -0.191500
16.455460 4.658475 -0.079969
16.423206 4.165606 0.001705
16.347630 5.633192 -0.184277
16.362812 5.169318 -0.245289
16.157990 4.642002 -0.094654
16.139296 4.159244 -0.049271
16.059387 5.624936 -0.235800
16.054537 5.143872 -0.231966
15.881317 4.641680 -0.171486
15.855312 4.152265 -0.097736
15.751287 5.597378 -0.220278
15.755865 5.125390 -0.243488
15.595678 4.633546 -0.218065
15.562839 4.137879 -0.115713
15.449790 5.574524 -0.220337
15.455060 5.103746 -0.242998
15.288246 4.605613 -0.187571
15.268110 4.120617 -0.121685
15.151764 5.553715 -0.226875
15.147062 5.073881 -0.211838
15.013783 4.605834 -0.266291
14.984631 4.111789 -0.162457
14.856983 5.534953 -0.239979
14.863676 5.066195 -0.261667
14.718247 4.586259 -0.267756
14.719100 4.118185 -0.266520
14.557750 5.510240 -0.231798
14.565142 5.042698 -0.252954
14.413552 4.556485 -0.228970
14.425187 4.099090 -0.264776
14.271442 5.498253 -0.267532
14.272333 5.023657 -0.260242
14.129341 4.545285 -0.262619
14.132014 4.079393 -0.260363
13.975916 5.474988 -0.263334
13.977774 5.001477 -0.255497
13.826826 4.514312 -0.218309
13.839609 4.059099 -0.253288
13.681163 5.451122 -0.256462
13.681742 4.976169 -0.238676
13.543493 4.501912 -0.246805
13.547994 4.038210 -0.243567
13.369987 5.405337 -0.171755
13.380194 4.942676 -0.190863
13.251780 4.479337 -0.234924
13.265749 4.025768 -0.269222
13.094074 5.401601 -0.234715
13.107157 4.941478 -0.263088
12.969080 4.465748 -0.258381
12.977504 4.005959 -0.263836
12.795845 5.367969 -0.191574
12.807539 4.906812 -0.209938
12.680687 4.444390 -0.250832
12.686018 3.981056 -0.236792
12.517967 5.360372 -0.240206
12.539984 4.911995 -0.305798
12.389263 4.417674 -0.221653
12.406886 3.969107 -0.264463
12.234355 5.344195 -0.258059
12.249424 4.886268 -0.285421
12.122164 4.421434 -0.313925
12.124220 3.952065 -0.270563
11.950980 5.327429 -0.273438
11.966726 4.870057 -0.300522
11.826713 4.386401 -0.251026
11.838554 3.929944 -0.254999
11.671143 5.315388 -0.305346
11.677691 4.843181 -0.275015
11.552299 4.379429 -0.300343
11.558553 3.914002 -0.265722
11.378812 5.281529 -0.258724
11.389625 4.815739 -0.246927
11.266785 4.355187 -0.280197
11.277309 3.895237 -0.264385
11.098092 5.265673 -0.276178
11.108462 4.797801 -0.254534
10.979216 4.325628 -0.238310
10.998011 3.878149 -0.270226
10.821671 5.257176 -0.319839
10.834587 4.791853 -0.307592
10.706427 4.319287 -0.290043
10.724520 3.869453 -0.312237
10.544911 5.248083 -0.361156
10.552366 4.770244 -0.300793
10.425507 4.298108 -0.281691
10.446860 3.853453 -0.322943
10.262993 5.227824 -0.361851
10.271911 4.750577 -0.301136
10.146332 4.278739 -0.280533
10.168221 3.834647 -0.321583
9.969116 5.177967 -0.254723
9.987319 4.720326 -0.260590
9.871957 4.268274 -0.315571
9.884447 3.804125 -0.269388
9.696211 5.175057 -0.317558
9.716387 4.719547 -0.333046
9.597317 4.257223 -0.348284
9.611160 3.793126 -0.301941
9.419682 5.163638 -0.349306
9.440670 4.708162 -0.364702
9.322433 4.245584 -0.378666
9.337629 3.781544 -0.332172
9.142919 5.151628 -0.378710
9.164720 4.696188 -0.394018
9.043974 4.223933 -0.367987
9.064728 3.771598 -0.369797
8.859733 5.118036 -0.328819
8.883057 4.666201 -0.353420
8.766760 4.204082 -0.364595
8.787645 3.749982 -0.356504
8.586705 5.117981 -0.401590
8.610106 4.663021 -0.416643
8.491880 4.190716 -0.387924
8.510404 3.725604 -0.331100
8.306613 5.091140 -0.375757
8.331392 4.639376 -0.400234
8.211639 4.155677 -0.321575
8.234460 3.702899 -0.313042
8.029819 5.076814 -0.395702
8.052700 4.612704 -0.371758
7.939210 4.150544 -0.379023
7.965579 3.708291 -0.419250
7.752895 5.061904 -0.413300
7.777379 4.600328 -0.398958
7.662734 4.126122 -0.356455
7.687574 3.673452 -0.347790
7.475864 5.046410 -0.428543
7.501426 4.584895 -0.414145
7.388127 4.110478 -0.370398
7.414305 3.660060 -0.371433
7.197729 5.019948 -0.402822
7.225386 4.568882 -0.426987
7.113676 4.096582 -0.391735
7.140306 3.641706 -0.373251
6.920895 5.003313 -0.413349
6.948573 4.542465 -0.398718
6.838709 4.077463 -0.391287
6.866734 3.627156 -0.392252
6.643694 4.975756 -0.382885
6.672322 4.513062 -0.358387
6.563996 4.062408 -0.407963
6.592628 3.601137 -0.360134
6.367116 4.968308 -0.427343
6.396962 4.517379 -0.451447
6.289158 4.042155 -0.402842
6.319053 3.589794 -0.394007
6.090214 4.949942 -0.430815
6.120789 4.499061 -0.454906
6.013913 4.032849 -0.444042
6.044746 3.582180 -0.445089
5.813330 4.931001 -0.431931
5.844635 4.480169 -0.456020
5.739641 4.004563 -0.405060
5.771558 3.552341 -0.396217
5.535417 4.921737 -0.469345
5.568521 4.460707 -0.454788
5.463779 3.994071 -0.441586
5.496461 3.543532 -0.442640
5.258287 4.901625 -0.465752
5.292813 4.438251 -0.441513
5.188810 3.973831 -0.436853
5.224264 3.512624 -0.389122
4.979033 4.893692 -0.508102
5.014770 4.429731 -0.484058
4.913932 3.953025 -0.429783
4.948917 3.500483 -0.421116
4.704296 4.859692 -0.451500
4.738554 4.408536 -0.475779
4.639168 3.931655 -0.420374
4.672988 3.487725 -0.450760
4.422555 4.858163 -0.518070
4.460646 4.393978 -0.494215
4.361338 3.921035 -0.457228
4.398390 3.467973 -0.448797
4.147995 4.825605 -0.466431
4.183747 4.374026 -0.490911
4.084248 3.905272 -0.472273
4.122337 3.451885 -0.463985
3.864041 4.825325 -0.537848
3.905282 4.358271 -0.504610
3.806000 3.891153 -0.494658
3.844331 3.439421 -0.496298
3.590974 4.789145 -0.471867
3.631683 4.327630 -0.457880
3.534459 3.858491 -0.437025
3.573673 3.407381 -0.438604
3.305509 4.787575 -0.538445
3.348328 4.322568 -0.515182
3.250997 3.854362 -0.503172
3.296106 3.391625 -0.456459
3.025010 4.770310 -0.544788
3.072135 4.297909 -0.492743
2.981249 3.818384 -0.431190
3.022341 3.366895 -0.433043
2.743109 4.754930 -0.558346
2.788308 4.289188 -0.535524
2.696382 3.812972 -0.492495
2.739630 3.358265 -0.485001
2.460789 4.738927 -0.569473
2.507182 4.272754 -0.546909
2.417722 3.793607 -0.493265
2.462003 3.338588 -0.485971
2.178075 4.722300 -0.578167
2.230856 4.246336 -0.517326
2.136180 3.778042 -0.510969
2.181513 3.322440 -0.503942
1.893591 4.707516 -0.594011
1.943760 4.238020 -0.562389
1.855521 3.759649 -0.516575
1.901894 3.303604 -0.509792
1.605623 4.697007 -0.626541
1.654151 4.231338 -0.614553
1.568496 3.749372 -0.558321
1.621930 3.284151 -0.513224
1.319943 4.680924 -0.637419
1.371140 4.212375 -0.616140
1.280462 3.738405 -0.597536
1.328990 3.280392 -0.591518
1.037093 4.659319 -0.626692
1.087821 4.192789 -0.615276
0.998153 3.718085 -0.595737
1.054389 3.251515 -0.551395
0.743699 4.651695 -0.670782
0.797300 4.181767 -0.650261
0.708516 3.705772 -0.629902
0.766169 3.238261 -0.586021
0.451013 4.640932 -0.702734
0.513093 4.160903 -0.644417
0.434580 3.673441 -0.575186
0.484367 3.216268 -0.579599
0.174593 4.607759 -0.646456
0.236249 4.130304 -0.597900
0.141928 3.661961 -0.613907
0.194636 3.201665 -0.609150
-0.127123 4.605293 -0.711329
-0.061975 4.124110 -0.653908
-0.139668 3.636999 -0.592644
-0.085938 3.176409 -0.588158
-0.432475 4.604441 -0.782944
-0.355372 4.110384 -0.678658
-0.431800 3.622027 -0.616655
-0.370718 3.154520 -0.583883
-0.720035 4.581337 -0.766550
-0.649621 4.095957 -0.700785
-0.735722 3.616896 -0.685686
-0.653649 3.130021 -0.567545
-1.005487 4.555235 -0.738190
-0.955902 4.092016 -0.767702
-1.020837 3.592084 -0.666330
-0.945779 3.112755 -0.586891
-1.304901 4.542706 -0.763947
-1.231263 4.056081 -0.699249
-1.324940 3.583351 -0.720400
-1.248101 3.102597 -0.641699
-1.590736 4.515333 -0.730511
-1.529984 4.041800 -0.722954
-1.598715 3.546832 -0.648529
-1.542132 3.083891 -0.655699
-0.511689 3.211189 4.425110
-1.878980 4.489700 -0.703976
-0.442243 2.799862 4.498520
-1.827129 4.024587 -0.734512
-0.607697 2.476788 4.151663
-1.896994 3.530462 -0.668865
-1.826833 3.056761 -0.629112
-2.169859 4.465775 -0.684284
-2.145636 4.024232 -0.818659
-0.848285 2.452900 4.180166
-2.203990 3.519530 -0.714777
-2.132397 3.044371 -0.675720
-2.474293 4.452806 -0.708784
-0.849426 2.696706 4.798639
-2.444877 4.005514 -0.824677
-1.010640 2.369218 4.483679
-2.509652 3.505760 -0.748417
-2.428580 3.023555 -0.681715
-0.759444 2.746748 6.109358
-2.799026 4.455241 -0.795794
-1.129353 2.707841 4.679373
-2.753031 3.992606 -0.856071
-2.810921 3.487149 -0.760447
-2.728199 3.003932 -0.694437
-0.811487 2.584290 6.707132
-1.416361 3.073660 4.724319
-3.097514 4.433788 -0.786594
-0.922136 2.343979 6.179390
-3.008543 3.937830 -0.707077
-3.118719 3.471850 -0.788446
-3.034330 2.987351 -0.723200
-1.318083 2.786231 5.827618
-1.721479 3.101712 4.546156
-3.381834 4.400212 -0.728264
-1.219054 2.374716 5.977869
-3.323207 3.927880 -0.751816
-1.471110 2.121057 5.389668
-3.418787 3.449740 -0.785545
-3.321019 2.956872 -0.683495
-1.669554 2.855785 5.482647
-3.707836 4.397904 -0.797138
-1.382174 2.305973 6.207178
-3.624310 3.906404 -0.747089
-1.753216 2.129925 5.267565
-3.731556 3.434913 -0.817179
-1.847182 1.839798 4.809473
-3.643867 2.948130 -0.753439
-1.836191 2.783597 5.714437
-4.001747 4.369802 -0.761240
-1.858999 2.456412 5.482370
-3.935223 3.890599 -0.767429
-1.941532 2.076316 5.436436
-4.020645 3.403384 -0.771507
-3.943780 2.923684 -0.745657
-4.283012 4.332050 -0.685867
-2.001328 2.371664 5.780903
-4.250335 3.876124 -0.794102
-2.248804 2.097586 5.254469
-4.309602 3.371239 -0.723278
-4.256967 2.905882 -0.772316
-1.989416 2.522838 6.658659
-4.560379 4.291512 -0.598886
-2.236261 2.350219 5.803383
-4.524427 3.833486 -0.697905
-4.614789 3.348288 -0.718687
-4.584387 2.894579 -0.833096
-4.853600 4.261586 -0.555338
-4.827477 3.809176 -0.682154
-4.930696 3.330449 -0.738901
-4.900202 2.875107 -0.853676
-5.126275 4.217731 -0.454357
-4.991183 3.698896 -0.287722
-5.261471 3.319547 -0.792850
-5.189670 2.840404 -0.797499
-3.269773 2.834721 5.184748
-5.331410 4.131552 -0.178085
-5.267336 3.659199 -0.203541
-5.555221 3.286550 -0.742800
-5.492957 2.812245 -0.775501
-2.803170 2.377284 7.015547
-5.636264 4.108851 -0.163824
-5.549911 3.623077 -0.135193
-5.870500 3.264387 -0.744875
-5.796638 2.783369 -0.750689
-5.802480 4.002714 0.197079
-5.861299 3.602704 -0.137003
-2.969426 1.583104 7.200388
-6.175575 3.235729 -0.716646
-3.083415 1.305627 6.773806
-6.115388 2.760832 -0.759583
-3.042993 2.209450 7.591761
-6.064152 3.955235 0.315102
-3.084667 1.904071 7.350006
-6.102571 3.543003 0.036144
-6.360475 3.145987 -0.395350
-3.314006 1.282524 6.797522
-6.431366 2.735724 -0.756302
-3.100683 2.094703 8.010660
-6.615202 4.070724 -0.247641
-6.486597 3.559592 -0.131683
-3.540305 1.595168 6.976877
-6.682851 3.125681 -0.407619
-6.771156 2.720246 -0.804411
-3.194492 2.004098 8.330404
-6.884329 4.023489 -0.131845
-3.523949 1.853173 7.435760
-6.831617 3.552868 -0.196438
-3.680475 1.529116 7.212002
-7.202651 3.197530 -0.867083
-7.093088 2.695189 -0.803909
-7.291748 4.050102 -0.326075
-4.033676 1.972168 6.827734
-7.512659 3.712178 -1.010094
-4.125656 1.605324 6.756765
-7.559216 3.187780 -0.934229
-4.090974 1.245892 6.692459
-7.431895 2.676147 -0.836300
-4.187940 2.250188 7.173979
-7.475958 3.957139 -0.017918
-4.003336 1.820100 7.440264
-7.884642 3.710196 -1.100691
-4.314010 1.560386 6.888433
-7.934254 3.184311 -1.033455
-4.474819 1.283133 6.393518
-7.719211 2.634104 -0.748636
-4.179056 2.105527 7.721613
-6.938758 3.501629 1.823261
-7.784073 3.929264 0.016558
-4.347383 1.851671 7.223738
-8.284010 3.718844 -1.240719
-4.425776 1.482463 7.181877
-7.991282 3.039607 -0.442823
-7.748307 2.487105 -0.104219
-4.655195 2.205573 7.235256
-8.062977 3.886071 0.115717
-4.417863 1.753397 7.595842
-8.560431 3.667756 -1.110662
-4.647675 1.453542 7.235943
-8.166156 2.950031 -0.119661
-4.642278 1.109157 7.109806
-7.898247 2.393007 0.262434
-4.899869 2.187604 7.247246
-8.457242 3.898180 -0.019938
-9.248726 4.278768 -1.636824
-4.641312 1.727186 7.641048
-8.650959 3.533050 -0.598925
-4.899622 1.436677 7.230177
-8.997695 3.134649 -1.147957
-4.821153 1.062594 7.254623
-8.702518 2.552494 -0.727552
-8.780478 3.874060 -0.002443
-9.608294 4.262319 -1.656551
-5.022079 1.769565 7.372015
-8.908283 3.475857 -0.439396
-9.513970 3.180043 -1.495691
-4.936755 0.992855 7.524431
-9.020289 2.519210 -0.690495
-5.462196 2.182427 7.138979
-9.880151 4.204072 -1.498310
-5.190367 1.717064 7.536444
-9.092626 3.387803 -0.137794
-5.845038 1.573634 6.367256
-9.831431 3.142310 -1.433891
-9.758517 2.638076 -1.477257
-5.360456 2.006377 7.827061
-6.140619 2.354778 6.334293
-10.250091 4.189964 -1.528780
-5.297674 1.639849 7.815306
-6.166922 2.002854 6.142273
-9.399435 3.352775 -0.079315
-6.020531 1.520089 6.538618
-9.957520 3.030423 -1.002508
-6.047099 1.170048 6.347950
-10.129788 2.617998 -1.518148
-10.589423 4.160720 -1.494915
-6.169828 1.876192 6.645395
-9.706288 3.317031 -0.017925
-10.470679 3.628461 -1.458172
-6.434803 1.556540 6.259289
-10.114169 2.932897 -0.640821
-6.424816 1.187580 6.137449
-10.502891 2.596835 -1.555128
-10.891799 4.114646 -1.388878
-6.539219 1.899413 6.455803
-10.242564 3.371779 -0.376875
-10.223153 2.820179 -0.200895
-7.686107 1.499702 4.307755
-10.675664 2.506513 -1.214790
-11.274516 4.101639 -1.425703
-11.119439 3.553620 -1.331045
-10.531362 2.781281 -0.131720
-6.940720 1.135208 6.188375
-10.991694 2.464992 -1.141813
-7.348490 2.337262 6.128725
-11.634891 4.077669 -1.415823
-7.155309 1.890416 6.329657
-11.376216 3.489406 -1.142967
-10.917317 2.768688 -0.196756
-11.186288 2.383914 -0.850725
-12.050450 4.074186 -1.495577
-11.783116 3.481161 -1.216999
-11.374753 2.778324 -0.377008
-11.416389 2.315167 -0.627148
-7.708478 2.224151 6.476425
-12.518647 4.088747 -1.655148
-7.978930 1.949560 5.878046
-12.262389 3.496853 -1.405218
-11.540708 2.688487 -0.050840
-12.393229 2.970397 -1.494352
-11.578708 2.226421 -0.291168
-8.463291 2.386336 5.694265
-12.925080 4.076706 -1.699993
-8.155214 1.891008 6.064928
-12.756402 3.514399 -1.604609
-12.837182 2.965184 -1.608347
-11.873494 2.178574 -0.183681
-8.708239 2.350486 5.775696
-13.277051 4.042466 -1.648422
-13.193622 3.508908 -1.697308
-13.222484 2.938960 -1.616333
-12.177943 2.133089 -0.090345
-13.702544 4.033784 -1.709751
-13.534822 3.468649 -1.626328
-13.609269 2.911619 -1.620180
-12.523845 2.098727 -0.061272
-13.501559 2.374737 -1.631237
-14.093465 4.010641 -1.708374
-13.944846 3.450161 -1.659981
-14.061246 2.902312 -1.719719
-13.920373 2.352544 -1.682264
-8.903867 2.053915 6.856857
-14.437480 3.969651 -1.628735
-9.040856 1.721055 6.509953
-14.335433 3.423532 -1.656040
-9.286402 1.357462 6.222054
-14.408658 2.859902 -1.648481
-14.266208 2.308822 -1.612284
-8.965660 1.958584 7.204985
-14.901219 3.968347 -1.725750
-14.727384 3.395777 -1.647888
-14.799912 2.829134 -1.639597
-14.699401 2.287085 -1.671021
-9.082987 1.883853 7.462910
-11.475764 2.676337 3.929899
-15.318543 3.949061 -1.744091
-11.256145 2.179800 4.103561
-15.142669 3.373658 -1.668201
-15.280978 2.822000 -1.757439
-15.107459 2.256903 -1.683710
-15.765634 3.937559 -1.798256
-9.274043 1.462823 7.477974
-15.632310 3.372050 -1.789566
-11.629788 1.683135 4.137314
-15.715171 2.799433 -1.796288
-15.550765 2.233870 -1.740894
-9.652272 1.844311 7.488657
-12.051145 2.604703 4.076210
-16.198254 3.919246 -1.823139
-16.069126 3.352169 -1.824242
-12.519000 1.806008 3.349054
-16.128864 2.769442 -1.797817
-15.939921 2.195617 -1.711723
-10.090053 1.870399 7.294151
-12.393222 2.584705 4.077698
-16.592789 3.887158 -1.787125
-9.700107 1.377074 7.708685
-16.445175 3.312856 -1.765537
-16.532639 2.735217 -1.778652
-16.404671 2.173977 -1.783325
-10.236609 1.805011 7.510921
-12.765588 2.572486 4.043234
-17.069492 3.878602 -1.858192
-10.073920 1.379101 7.603251
-13.051085 2.214487 3.497374
-16.908657 3.296915 -1.822693
-10.124583 0.964867 7.609581
-17.030743 2.723525 -1.882996
-16.941921 2.166952 -1.945797
-13.175128 2.569536 3.965656
-17.431671 3.833596 -1.765526
-10.456599 1.381398 7.494488
-13.599088 2.243570 3.238783
-17.357174 3.274637 -1.850601
-10.306933 0.912806 7.771465
-13.504466 1.708194 3.455444
-17.508743 2.704259 -1.949516
-10.465158 0.570914 7.426600
-17.295513 2.115445 -1.846210
-10.806861 1.757103 7.569693
-13.236871 2.463314 4.356525
-17.918644 3.823938 -1.834118
-10.705903 1.345708 7.571972
-13.785186 2.171788 3.476641
-17.801895 3.249352 -1.865433
-12.602918 1.374516 5.130541
-14.354768 1.800195 2.808165
-17.918053 2.666034 -1.915577
-17.672775 2.068315 -1.774742
-14.068496 2.578243 3.739477
-18.384483 3.805816 -1.865673
-13.284156 1.920399 4.609566
-13.752383 2.043226 3.997950
-13.992499 2.106214 3.684299
-18.304329 2.620900 -1.845703
-13.103900 0.955464 4.778904
-18.134682 2.038308 -1.809593
-18.816132 3.776045 -1.845234
-13.377814 1.830143 4.945288
-14.962670 2.236682 2.911806
-18.697105 3.194617 -1.879730
-13.587590 1.391436 4.756039
-18.788639 2.597338 -1.896465
-13.455544 0.926792 4.777809
-18.562355 1.999142 -1.792023
-13.358129 2.139913 5.562206
-14.065299 2.332589 4.676044
-15.178329 2.635842 3.281305
-13.196713 1.672493 5.621304
-13.896804 1.848101 4.738897
-19.159756 3.168241 -1.894611
-13.091067 1.171522 5.829727
-19.226246 2.561004 -1.879448
-12.731366 0.676377 6.142187
-19.052982 1.971297 -1.847382
-14.131148 2.231912 5.045742
-19.820374 3.749099 -1.958069
-14.402215 1.859462 4.562428
-19.674122 3.152582 -1.965580
-14.353793 1.348349 4.699823
-19.708965 2.532995 -1.911293
-19.508980 1.934354 -1.850452
-13.010188 1.823320 6.843969
-14.631886 2.246623 4.882517
-13.085425 1.430736 6.614971
-14.397422 1.745424 5.018810
-20.028339 3.096026 -1.831707
-14.736600 1.324245 4.682413
-15.393044 1.004645 3.732059
-19.891308 1.881263 -1.756073
-13.879071 1.938040 6.220739
-15.003573 2.225343 4.884384
-20.746792 3.692697 -1.940857
-13.751544 1.483500 6.231724
-14.703286 1.706724 5.094030
-20.527962 3.072851 -1.868675
-13.605315 0.979019 6.476303
-20.172058 1.807823 -1.535629
-14.086287 1.880175 6.397518
-21.219002 3.663935 -1.931625
-13.342189 1.284872 7.130753
-20.965992 3.033316 -1.824284
-20.971493 2.398373 -1.738373
-13.318780 0.412181 7.089470
-20.624256 1.766084 -1.517147
-13.221530 1.560018 7.804173
-21.485420 3.582878 -1.678640
-13.132176 1.137290 7.774424
-15.308932 1.625421 5.261843
-21.230228 2.953253 -1.572975
-13.905730 0.844055 6.947832
-21.285629 2.329251 -1.546505
-15.190232 0.659054 5.323341
-21.006580 1.710039 -1.410696
-21.959003 3.551712 -1.659985
-13.442298 1.107897 7.811590
-15.111131 1.473800 5.918547
-21.701385 2.918764 -1.557114
-21.723106 2.284026 -1.492838
-14.248132 0.395106 6.825108
-21.441380 1.662220 -1.359791
-22.368057 3.503538 -1.562365
-13.515187 1.026567 8.117609
-22.108120 2.868619 -1.461971
-15.654496 0.989046 5.800186
-22.174854 2.240043 -1.448874
-14.559405 0.356641 6.879879
-21.936802 1.623335 -1.370520
-15.339192 1.746951 6.641323
-22.864292 3.474174 -1.554838
-22.501816 2.814548 -1.347681
-15.025723 0.770799 6.907213
-22.755062 2.218517 -1.538673
-14.617045 0.274754 7.217518
-22.487850 1.591773 -1.434008
-15.299161 1.631840 7.090303
-23.193760 3.405314 -1.360739
-14.700349 1.080441 7.596209
-23.077480 2.796705 -1.425045
-15.765298 0.810250 6.513094
-23.196854 2.168956 -1.468508
-15.115838 0.266001 7.073013
-14.980271 1.457854 7.823574
-23.835205 3.404646 -1.493086
-15.335965 1.110504 7.312004
-23.765408 2.798622 -1.610262
-23.960274 2.175330 -1.731895
-15.639064 0.258571 6.913525
-23.680893 1.535862 -1.626823
-24.515480 3.408998 -1.652531
-15.469932 1.038443 7.565489
-24.232079 2.753548 -1.550474
-16.284439 0.707959 6.779409
-24.420383 2.124680 -1.663063
-16.262871 0.263997 6.660637
-23.932175 1.450407 -1.345404
-16.077446 1.489923 7.470648
-25.179924 3.406394 -1.781723
-15.344569 0.917392 8.081766
-24.727558 2.712349 -1.513510
-16.713161 0.684857 6.742821
-24.881420 2.072639 -1.588816
-16.906506 0.268944 6.402313
-24.520744 1.415907 -1.411058
-16.321499 1.438517 7.616774
-25.673859 3.365267 -1.727242
-25.119667 2.649965 -1.365101
-25.259155 2.005255 -1.424730
-24.965508 1.357750 -1.320734
-26.253822 3.339673 -1.750034
-25.842911 2.647120 -1.539991
-17.966396 0.697049 6.302664
-25.905079 1.980390 -1.521582
-17.646740 0.190197 6.473555
-25.721695 1.342640 -1.533442
-19.299854 1.825801 5.509649
-26.936214 3.331746 -1.861683
-26.400696 2.611021 -1.539173
-26.476414 1.940782 -1.533812
-26.113232 1.273110 -1.374508
-27.658833 3.328219 -1.998299
-21.470901 1.616095 3.709738
-27.226269 2.619318 -1.784771
-26.992657 1.890362 -1.483896
-26.705448 1.229741 -1.404074
-20.170979 1.771720 5.536591
-28.335537 3.312392 -2.077824
-27.877571 2.593524 -1.849045
-27.699020 1.866544 -1.604223
-27.793194 1.249008 -1.890076
-20.280254 1.681824 5.859640
-29.008766 3.292744 -2.141636
-28.634533 2.582359 -1.998913
-28.673222 1.878523 -1.957333
-28.394909 1.200186 -1.900055
-21.475494 1.788868 5.200848
-29.538345 3.244077 -2.063812
-21.989685 1.366064 4.577108
-29.264156 2.546808 -2.018345
-29.309349 1.837156 -1.982811
-29.028637 1.152927 -1.929031
-30.210091 3.218612 -2.104324
-21.948822 1.249770 5.053232
-29.896603 2.509042 -2.029530
-30.007847 1.801775 -2.052784
-29.694977 1.106993 -1.976200
-30.802845 3.176539 -2.064285
-22.768360 1.268567 4.767622
-30.546707 2.471366 -2.045506
-30.680107 1.759786 -2.087139
-30.431923 1.066525 -2.073662
-31.457798 3.142638 -2.068222
-31.192135 2.430254 -2.046410
-31.355518 1.715378 -2.112503
-31.097691 1.014738 -2.095871
-32.199013 3.120201 -2.133728
-31.961571 2.404739 -2.141483
-31.973129 1.660772 -2.077469
-31.804371 0.964748 -2.141434
-32.913483 3.090091 -2.163845
-32.651260 2.364261 -2.156052
-32.654057 1.611668 -2.085209
-32.453239 0.905644 -2.126305
-33.662064 3.062240 -2.209328
-33.328526 2.319155 -2.148773
-33.337811 1.560130 -2.083813
-33.196960 0.853828 -2.178440
-34.352165 3.022091 -2.195045
-34.054943 2.277997 -2.169804
-34.148609 1.520757 -2.172848
-33.820114 0.786826 -2.120224
-35.076130 2.984192 -2.196022
-34.761105 2.231085 -2.162460
-34.838535 1.464025 -2.151978
-34.538769 0.726789 -2.128139
-35.826630 2.947144 -2.205360
-35.548618 2.191831 -2.206535
-35.586079 1.410957 -2.164478
-35.228874 0.661201 -2.101742
-36.532711 2.900566 -2.168453
-36.157753 2.126685 -2.101017
-36.281193 1.349190 -2.124508
-35.968880 0.597471 -2.102386
-37.320908 2.862628 -2.181309
-37.015015 2.089858 -2.172413
-37.138245 1.301632 -2.194389
-36.767590 0.535936 -2.134819
-38.088310 2.818510 -2.165672
-37.844444 2.045940 -2.208138
-37.903046 1.241059 -2.181416
-37.569786 0.471426 -2.156090
-38.995903 2.789860 -2.237965
-38.604912 1.990475 -2.179771
-38.670654 1.177705 -2.157871
-38.326862 0.399993 -2.130981
-39.761589 2.738778 -2.194260
-39.351753 1.930428 -2.129417
-39.506054 1.117748 -2.169785
-39.135307 0.329642 -2.130161
-40.668808 2.702507 -2.236195
-40.247997 1.883878 -2.171268
-40.344799 1.054681 -2.169933
-39.971348 0.258154 -2.135162
-41.580044 2.662796 -2.265209
-41.123524 1.831295 -2.183479
-41.252636 0.994355 -2.203232
-40.868195 0.187731 -2.167938
-42.462021 2.615666 -2.259148
-42.068718 1.782288 -2.227699
-42.197453 0.933429 -2.245735
-41.810173 0.116787 -2.215797
-43.380619 2.569136 -2.262398
-42.984745 1.726320 -2.236382
-43.079632 0.863360 -2.230770
-42.689629 0.037786 -2.205940
-44.403244 2.530568 -2.317074
-43.971264 1.673428 -2.275272
-44.065517 0.798050 -2.268188
-43.597340 -0.042897 -2.199879
-45.362984 2.480599 -2.314400
-44.928272 1.613566 -2.278492
-44.988041 0.723751 -2.248554
-44.584072 -0.122361 -2.229145
-46.453323 2.440659 -2.376488
-46.015793 1.561707 -2.347000
-46.151035 0.663620 -2.363235
-45.617046 -0.203141 -2.270565
-47.480297 2.389348 -2.381210
-47.014519 1.497298 -2.342285
-47.115063 0.584252 -2.335842
-46.603165 -0.290763 -2.265446
-48.562466 2.339327 -2.401558
-48.136566 1.439363 -2.394878
-48.142212 0.505368 -2.330379
-47.626957 -0.380327 -2.266609
-49.112694 0.418584 -2.274517
-48.671593 -0.472950 -2.262943
-50.129242 0.330895 -2.229492
-49.676624 -0.571640 -2.218853
-51.244495 0.245146 -2.223606
-50.658592 -0.675302 -2.145252
-52.363541 0.155085 -2.201187
6.182002 -3.233825 30.202007
6.152956 -3.230612 30.193298
6.171255 -3.234576 30.201145
6.188209 -3.232508 30.212219
6.143246 -3.234482 30.190172
6.169235 -3.232345 30.205585
6.160425 -3.235415 30.200621
6.186632 -3.233443 30.215593
6.177765 -3.236263 30.210768
6.130912 -3.232277 30.193264
6.186113 -3.236890 30.216579
6.129958 -3.232874 30.195433
6.185363 -3.237359 30.218283
6.129023 -3.233472 30.197609
6.147768 -3.237451 30.204466
6.183664 -3.235321 30.222422
6.146918 -3.238006 30.206495
6.136505 -3.234856 30.205681
6.155367 -3.238614 30.212257
6.173208 -3.239210 30.221514