# This PCD file was generated using the MATLAB® pcwrite function
# from Computer Vision System Toolbox®.
# .PCD v.7 - Point Cloud Data file format
VERSION .7
FIELDS x y z
SIZE 4 4 4
TYPE F F F
COUNT 1 1 1
WIDTH 1017
HEIGHT 1
VIEWPOINT 0 0 0 1 0 0 0
POINTS 1017
DATA ascii
-7.448566 32.680183 0.124451
-7.998921 32.261261 -0.136185
-7.377108 32.352436 -0.100149
-7.901670 31.839491 -0.269667
-7.295049 31.980406 -0.280556
-7.813607 31.453291 -0.432043
-7.165209 31.408953 -0.265305
-7.692605 30.940582 -0.465736
-7.062921 30.952923 -0.352482
-7.571960 30.429743 -0.492567
-6.974195 30.553698 -0.489479
-7.458887 29.948421 -0.540644
-6.852185 30.016043 -0.481237
-7.326457 29.393490 -0.504541
-6.664671 29.206352 -0.182392
-7.183979 28.800877 -0.417974
-6.585114 28.846298 -0.335779
-7.102108 28.440182 -0.568005
-6.523305 28.560032 -0.564283
-6.990432 27.966127 -0.590429
-6.422441 28.111763 -0.615620
-6.886045 27.520247 -0.635984
-6.296264 27.558945 -0.544071
-6.768160 27.023575 -0.616837
-6.208797 27.166843 -0.642197
-6.664419 26.581049 -0.650648
-6.102545 26.697294 -0.646328
-6.567741 26.165630 -0.708857
-6.004477 26.261913 -0.681908
-6.444391 25.649965 -0.641081
-5.897428 25.789806 -0.666691
-6.335015 25.187635 -0.627306
-5.810716 25.401876 -0.744370
-6.252504 24.826771 -0.730284
-5.705930 24.939808 -0.725399
-6.143806 24.367916 -0.705547
-5.603104 24.486195 -0.708237
-6.035582 23.911411 -0.674934
-5.497748 24.022600 -0.669748
-5.940714 23.505356 -0.701157
-5.401746 23.597769 -0.672329
-5.839741 23.076962 -0.690897
-5.303184 23.162813 -0.653875
-5.739168 22.650572 -0.675304
-5.213715 22.765404 -0.677649
-5.632746 22.203033 -0.622442
-5.110220 22.311049 -0.616686
-5.539271 21.804026 -0.628263
-5.014372 21.888317 -0.590187
-5.458402 21.451950 -0.694052
-4.942754 21.564579 -0.696161
-4.374323 21.434076 -0.634249
-5.373063 21.083660 -0.731432
-4.858620 21.190086 -0.725323
-4.298138 21.082741 -0.693411
-3.785893 21.185997 -0.683466
-5.292433 20.732971 -0.789146
-4.769230 20.794538 -0.717325
-4.212255 20.687626 -0.682817
-3.701135 20.779144 -0.656345
-5.199991 20.339296 -0.776947
-4.680193 20.400763 -0.704599
-4.126733 20.294313 -0.667515
-3.618947 20.385395 -0.640871
-5.119716 19.990511 -0.826416
-4.607593 20.073793 -0.786768
-4.057119 19.973181 -0.755756
-3.542423 20.020691 -0.662342
-5.022052 19.578705 -0.771847
-4.520439 19.688208 -0.773607
-3.976870 19.604048 -0.765244
-3.465085 19.651812 -0.671276
-4.948009 19.253250 -0.846537
-4.446725 19.357126 -0.839853
-3.906204 19.278421 -0.837845
-3.404462 19.369047 -0.810686
-4.862560 18.886679 -0.850225
-4.364017 18.990026 -0.843428
-3.826379 18.911501 -0.839241
-3.331473 19.022705 -0.845783
-4.766086 18.480761 -0.781811
-4.271373 18.583326 -0.774876
-3.742308 18.525543 -0.802385
-3.250675 18.636026 -0.808954
-4.696712 18.172956 -0.870586
-4.203244 18.275333 -0.863567
-3.667600 18.182068 -0.829462
-3.179128 18.297142 -0.844612
-3.173567 12.655565 8.066999
-4.617620 17.830404 -0.896160
-4.122612 17.917427 -0.863298
-3.589769 17.824621 -0.826942
-3.102905 17.934038 -0.833557
-3.160433 12.566283 7.781300
-4.540079 17.493706 -0.926575
-2.798824 12.597146 7.860350
-4.044721 17.570759 -0.876228
-3.514394 17.478418 -0.837687
-3.026050 17.567585 -0.809740
-3.097835 12.300120 7.807478
-4.454599 17.129042 -0.901323
-3.969483 17.234921 -0.902653
-3.444598 17.157545 -0.888054
-2.954219 17.227200 -0.825191
-4.376152 16.789822 -0.915440
-3.893217 16.895227 -0.916712
-3.370667 16.818130 -0.900105
-2.878928 16.868753 -0.801989
-3.030180 11.972316 7.492735
-4.297915 16.451694 -0.925840
-3.817163 16.556627 -0.927055
-3.239899 16.222416 -0.425768
-2.786868 16.422537 -0.608015
-2.989902 11.785186 7.376789
-4.219897 16.114693 -0.932541
-2.603808 11.717270 7.650982
-3.715687 16.117672 -0.740191
-3.183638 15.963069 -0.569223
-2.716124 16.087513 -0.611244
-4.093267 15.607616 -0.599873
-3.601366 15.628745 -0.441793
-3.102978 15.593799 -0.497761
-2.645615 15.753686 -0.610832
-4.016336 15.275850 -0.597704
-3.549569 15.387104 -0.616385
-3.042590 15.316056 -0.600006
-2.571943 15.403157 -0.571211
-3.959690 15.015014 -0.734554
-3.480617 15.077894 -0.655214
-2.982057 15.037762 -0.699612
-2.512017 15.125025 -0.670673
-2.817702 10.996319 6.992113
-3.870638 14.641778 -0.636280
-2.421990 10.890442 7.369894
-3.401857 14.730420 -0.610239
-2.917566 14.741733 -0.760668
-2.448678 14.829040 -0.731590
-3.801689 14.338624 -0.677532
-2.419104 10.850166 6.949297
-3.340822 14.452613 -0.705305
-2.845567 14.412012 -0.746651
-2.382132 14.516149 -0.753502
-3.744835 14.077158 -0.805992
-3.279658 14.174315 -0.797731
-2.781215 14.116845 -0.801510
-2.312585 14.187303 -0.735964
-2.645486 10.256292 7.037596
-3.664008 13.733647 -0.750776
-3.204725 13.842526 -0.769617
-2.706018 13.772998 -0.744366
-2.243320 13.859859 -0.714907
-3.591784 13.419971 -0.755478
-3.132177 13.520316 -0.756130
-2.641901 13.479124 -0.792934
-2.180357 13.566034 -0.763350
-3.522055 13.115069 -0.775183
-3.062935 13.211176 -0.766649
-2.498552 12.829212 -0.004993
-2.118155 13.276381 -0.818047
-3.394578 12.616321 -0.323908
-2.881996 12.472179 0.253811
-2.394202 12.354938 0.405964
-2.506920 12.861387 -0.807791
-2.054516 12.979091 -0.851522
-3.336049 12.350489 -0.418522
-2.809115 12.150975 0.308754
-2.345967 12.132949 0.223186
-1.983246 12.640575 -0.780527
-3.312582 12.201070 -0.806425
-2.785819 12.019794 -0.104305
-2.309530 11.963976 -0.096802
-1.920630 12.348764 -0.816990
-3.229350 11.852730 -0.693151
-2.755482 11.860836 -0.461605
-2.309793 11.959678 -0.852875
-1.855402 12.042772 -0.813414
-3.174446 11.598264 -0.817966
-2.708184 11.636683 -0.660086
-2.245398 11.665233 -0.874306
-1.798153 11.780383 -0.918636
-3.111914 11.318650 -0.875196
-2.159262 9.515520 4.271454
-2.646634 11.358294 -0.716757
-2.166515 11.305954 -0.715023
-1.731221 11.465050 -0.881153
-2.163364 8.169679 7.118231
-3.037998 11.002217 -0.826714
-2.590419 11.100064 -0.827015
-2.107154 11.034322 -0.786394
-1.660919 11.130907 -0.784077
-2.071161 7.815229 7.505680
-2.304364 8.565084 5.343891
-2.969503 10.703799 -0.821909
-2.518161 10.781588 -0.765757
-2.046229 10.755774 -0.836411
-1.598899 10.842331 -0.805824
-2.904182 10.415860 -0.842398
-2.053167 8.997690 3.608988
-2.454901 10.497123 -0.795465
-1.975269 10.432407 -0.751534
-1.536960 10.554228 -0.824766
-2.035355 7.583765 6.904142
-2.834051 10.112908 -0.812792
-1.632470 7.392636 7.701025
-2.383263 10.181683 -0.727829
-1.298656 7.399967 7.570677
-1.908969 10.130033 -0.720087
-1.438641 10.061896 -0.225071
-2.118302 7.782722 5.593752
-2.765147 9.814294 -0.789600
-1.598427 7.230420 7.550129
-2.323584 9.910901 -0.789732
-1.835461 9.795566 -0.581049
-1.317720 9.439440 0.818083
-2.691765 9.502177 -0.715847
-1.692284 7.538182 5.887541
-2.233956 9.530016 -0.497068
-1.221053 7.044552 7.356750
-1.672581 9.061950 0.857624
-1.250774 9.119383 0.964685
-1.718147 6.412745 8.642151
-2.575299 9.057833 -0.190536
-1.525031 6.885540 7.299688
-1.666350 7.402352 5.591757
-2.080830 8.918143 0.582457
-1.181491 6.863509 7.256777
-1.604771 8.753509 0.978746
-0.856462 6.925046 7.287197
-1.202794 8.907172 0.770786
-1.662053 6.181180 8.756952
-1.780070 6.541933 7.513597
-1.976160 7.141338 5.447718
-1.454995 6.591478 7.583141
-1.992839 8.547095 0.914770
-1.120987 6.589058 7.474493
-1.574504 8.612743 0.537880
-1.170880 8.788386 0.252758
-1.706158 6.253732 7.800282
-2.338907 8.168716 0.982323
-1.385365 6.300064 7.879713
-1.958233 8.370373 0.589607
-1.079651 6.400249 7.407202
-1.512290 8.329453 0.577625
-1.095615 8.420044 0.579920
-1.598533 5.866477 8.474964
-2.334510 8.070586 0.361156
-1.929157 8.212540 0.178850
-1.466294 8.118547 0.360193
-1.036685 8.145768 0.593601
-1.802683 6.406886 5.666300
-2.231405 7.676662 0.828503
-1.302851 5.923437 7.769918
-1.841239 7.843532 0.539886
-1.406437 7.845937 0.366318
-0.974001 7.849151 0.696808
-1.549150 5.590565 8.014246
-2.199554 7.494465 0.498894
-1.773687 7.548225 0.644348
-1.353927 7.606121 0.249279
-0.919343 7.599850 0.628923
-1.504889 5.394184 8.002968
-2.154314 7.271771 0.315540
-1.741407 7.377473 0.257917
-1.313426 7.419745 -0.088749
-0.880539 7.446544 0.175423
-1.460668 5.198049 7.993528
-2.108496 7.046535 0.133921
-1.694517 7.154455 0.066437
-1.255186 7.154535 -0.114716
-0.834035 7.248773 -0.122046
-1.436812 5.059356 7.733109
-2.059758 6.812173 -0.016760
-1.653470 6.951040 -0.220585
-1.194453 6.878355 -0.089544
-0.773069 6.963300 -0.057938
-1.396786 4.874300 7.668365
-1.583819 5.392789 5.281172
-2.018192 6.596954 -0.262962
-1.587616 6.661699 -0.135868
-1.138250 6.622373 -0.149544
-0.719349 6.722774 -0.186165
-1.355100 4.684470 7.624758
-1.504128 5.091096 5.672211
-1.943760 6.290645 -0.087809
-1.526440 6.388789 -0.116636
-1.081455 6.363840 -0.197481
-0.660339 6.449354 -0.165739
-1.893338 6.050239 -0.222466
-1.474880 6.148411 -0.251366
-1.023682 6.101059 -0.223499
-0.602732 6.184784 -0.181902
-1.836831 5.793099 -0.276726
-1.413748 5.875879 -0.227257
-0.963764 5.828895 -0.198061
-0.546603 5.930001 -0.244684
-1.368206 4.471203 5.531212
-1.774686 5.521249 -0.250160
-1.353346 5.606049 -0.210396
-0.903617 5.555829 -0.160231
-0.486786 5.650805 -0.177454
-1.310371 4.232600 5.668148
-1.712050 5.248610 -0.211205
-1.294159 5.340423 -0.210680
-0.847589 5.301033 -0.218256
-0.429329 5.387182 -0.186285
-1.150551 3.743109 7.353487
-1.296880 4.104899 5.147743
-1.652903 4.985149 -0.218904
-0.968773 4.227718 4.864292
-1.237632 5.083456 -0.257761
-0.786217 5.022798 -0.135998
-0.370737 5.115516 -0.143415
-1.270702 3.942626 4.795403
-1.588721 4.709724 -0.145294
-0.806092 3.651756 7.115725
-1.172525 4.799555 -0.134846
-0.728401 4.760319 -0.139927
-0.314325 4.859203 -0.186844
-1.072555 3.373845 7.179592
-1.532894 4.454762 -0.197441
-1.117068 4.546218 -0.196850
-0.672307 4.505486 -0.190887
-0.256230 4.590569 -0.148891
-1.149992 3.453848 5.161783
-1.473348 4.191108 -0.187981
-1.058672 4.283839 -0.197266
-0.612924 4.236336 -0.140593
-0.199237 4.330004 -0.157936
-1.142868 3.329666 4.457573
-1.417951 3.936919 -0.245415
-1.002106 4.027044 -0.234903
-0.556462 3.980060 -0.176989
-0.142749 4.073609 -0.194345
-1.358468 3.673728 -0.231209
-0.943331 3.763819 -0.220667
-0.500194 3.724700 -0.221012
-0.086176 3.816918 -0.228462
-1.300174 3.413314 -0.234444
-0.885066 3.502293 -0.213947
-0.441209 3.457617 -0.163435
-0.028411 3.549530 -0.170900
-1.243483 3.156214 -0.265114
-0.827258 3.242232 -0.214790
-0.384656 3.201188 -0.192867
0.028570 3.288774 -0.160570
-1.182681 2.891346 -0.213947
-0.770226 2.984372 -0.233168
-0.328032 2.944521 -0.220007
0.085127 3.032413 -0.187677
-1.125997 2.634449 -0.239954
-0.712463 2.724684 -0.229322
-0.271544 2.688511 -0.254816
0.141751 2.775834 -0.212494
-1.066911 2.373492 -0.213867
-0.654416 2.464495 -0.213171
-0.213290 2.425036 -0.197634
0.198584 2.516601 -0.205120
-1.008402 2.113882 -0.195377
-0.597707 2.207662 -0.234545
-0.156609 2.168371 -0.217840
0.255183 2.262102 -0.255245
-0.955570 1.862590 -0.304186
-0.542116 1.953184 -0.293524
-0.099874 1.911548 -0.235750
0.311982 2.004988 -0.273176
-0.898652 1.604980 -0.320995
-0.485224 1.695693 -0.310326
-0.043089 1.654585 -0.251364
0.368801 1.745482 -0.248871
-0.841686 1.347240 -0.335501
-0.427261 1.436230 -0.284880
0.013741 1.397504 -0.264681
0.425646 1.488929 -0.272175
-0.781317 1.086282 -0.257822
-0.370354 1.178841 -0.297062
0.070612 1.140322 -0.275702
0.482525 1.231712 -0.283197
-0.724793 0.829368 -0.277678
-0.312535 0.920199 -0.266970
0.127520 0.883061 -0.284424
0.539440 0.974416 -0.291918
-0.667525 0.571864 -0.275259
-0.256426 0.663812 -0.314522
0.184460 0.625739 -0.290844
0.596057 0.716166 -0.258352
-0.613432 0.315379 -0.370481
-0.200137 0.406692 -0.359787
0.241428 0.368376 -0.294966
0.653364 0.459661 -0.302462
-0.556293 0.057287 -0.373459
-0.142378 0.148580 -0.322769
0.298293 0.111172 -0.376785
0.710725 0.202400 -0.334280
-0.499132 -0.200817 -0.374132
-0.085890 -0.109264 -0.363440
0.355443 -0.146645 -0.336306
0.767800 -0.055276 -0.333799
-0.441954 -0.458913 -0.372498
-0.028739 -0.367240 -0.361805
0.412632 -0.404945 -0.373518
0.824891 -0.312935 -0.331018
-0.384764 -0.716981 -0.368555
0.028110 -0.625850 -0.387857
0.469779 -0.662724 -0.358427
0.882700 -0.571367 -0.365917
-0.327565 -0.975002 -0.362309
0.085253 -0.884312 -0.391602
0.527253 -0.922184 -0.401005
0.940863 -0.830711 -0.408489
-0.271989 -1.236324 -0.433666
0.142304 -1.143659 -0.413015
0.584839 -1.182016 -0.431252
0.999002 -1.090456 -0.438732
-0.215373 -1.496896 -0.462721
0.199371 -1.404382 -0.452080
0.642573 -1.442432 -0.459162
1.056354 -1.348953 -0.426689
-0.157120 -1.752722 -0.399597
0.256652 -1.665288 -0.478806
0.699986 -1.701118 -0.444790
1.112689 -1.605161 -0.372408
-0.101120 -2.017038 -0.473881
0.314117 -1.924164 -0.463264
0.755900 -1.952424 -0.318357
1.168862 -1.860553 -0.315861
-0.044154 -2.278932 -0.495899
0.371535 -2.179968 -0.405518
0.814158 -2.215087 -0.369232
1.227191 -2.120814 -0.336824
0.014364 -2.530338 -0.386024
0.428893 -2.438191 -0.385378
0.871449 -2.472966 -0.347958
1.284415 -2.378388 -0.315577
0.071708 -2.788411 -0.363573
0.486229 -2.696229 -0.362928
0.928716 -2.730649 -0.324383
1.341614 -2.635766 -0.292027
0.128668 -3.051357 -0.388557
0.543474 -2.953077 -0.328224
0.985955 -2.988118 -0.298500
1.398784 -2.892931 -0.266176
0.186049 -3.309423 -0.361450
0.601153 -3.215953 -0.350887
1.043160 -3.245352 -0.270319
1.457385 -3.154070 -0.277779
0.243394 -3.567245 -0.332039
0.658472 -3.473655 -0.321489
1.101322 -3.507002 -0.279554
1.516099 -3.415632 -0.287008
0.300581 -3.834960 -0.379677
0.716237 -3.736053 -0.329477
1.159592 -3.769054 -0.286409
1.574922 -3.677598 -0.293852
0.357993 -4.092909 -0.345572
0.774109 -3.998842 -0.335075
1.222828 -4.054205 -0.459274
1.657917 -4.014377 -0.862913
0.415516 -4.360623 -0.378431
0.833355 -4.273272 -0.417471
1.293506 -4.373839 -0.846998
1.717573 -4.280500 -0.854380
0.473746 -4.647467 -0.527412
0.899755 -4.606131 -0.872938
1.351832 -4.635672 -0.806410
1.774067 -4.536469 -0.774265
0.533956 -4.972517 -0.890717
0.959128 -4.876093 -0.880480
1.411467 -4.903501 -0.802948
1.836093 -4.810106 -0.810318
0.592403 -5.234760 -0.846458
1.017549 -5.138219 -0.836241
1.472630 -5.178313 -0.836447
1.896365 -5.078138 -0.804399
0.651564 -5.510811 -0.878584
1.077775 -5.413914 -0.868412
1.534023 -5.454067 -0.867367
1.958780 -5.353345 -0.835365
0.710021 -5.772923 -0.829521
1.136206 -5.675909 -0.819370
1.594047 -5.723378 -0.856403
2.021420 -5.629471 -0.863737
0.769617 -6.052082 -0.866390
1.197817 -5.960421 -0.885727
1.654142 -5.992914 -0.842966
2.079854 -5.891344 -0.811077
0.827931 -6.312034 -0.802702
1.255445 -6.216547 -0.802414
1.716045 -6.270686 -0.866199
2.142780 -6.168570 -0.834366
0.889050 -6.607202 -0.902857
1.318430 -6.509126 -0.892851
1.776341 -6.540943 -0.847727
2.205916 -6.446645 -0.855028
0.949337 -6.889192 -0.931797
1.381228 -6.799382 -0.960875
1.838584 -6.820057 -0.865757
2.269256 -6.725546 -0.873045
1.008608 -7.158509 -0.899630
1.439920 -7.062090 -0.899450
1.901027 -7.099974 -0.881136
2.332795 -7.005248 -0.888412
1.069257 -7.441935 -0.923292
1.502518 -7.349874 -0.942583
1.963154 -7.378328 -0.884138
2.395883 -7.283420 -0.891399
1.128657 -7.711647 -0.886065
1.561591 -7.614808 -0.885937
2.026490 -7.662116 -0.903879
2.457794 -7.557398 -0.872377
1.190706 -8.006506 -0.943094
1.625005 -7.906757 -0.933340
2.089499 -7.944293 -0.911217
2.524558 -7.848927 -0.918449
1.251705 -8.289880 -0.948952
1.688329 -8.197506 -0.968210
2.154948 -8.237522 -0.954420
2.588843 -8.131596 -0.923067
1.312276 -8.568568 -0.932838
1.748872 -8.470835 -0.932816
2.218383 -8.521414 -0.956242
2.653301 -8.414944 -0.924969
1.375183 -8.866984 -0.981319
1.813089 -8.766094 -0.971739
2.281383 -8.803210 -0.945736
2.720878 -8.709826 -0.962515
1.435732 -9.144048 -0.950184
1.876193 -9.054185 -0.978981
2.345749 -9.091136 -0.951677
2.785738 -8.994786 -0.958847
1.498469 -9.438836 -0.973774
1.938508 -9.337249 -0.964310
2.412223 -9.388571 -0.983448
2.850756 -9.280351 -0.952423
1.560721 -9.728677 -0.975389
2.001962 -9.626710 -0.965988
2.477024 -9.678249 -0.983683
2.919095 -9.578351 -0.981302
1.623942 -10.025434 -0.993179
2.066659 -9.923031 -0.983847
2.543356 -9.974795 -1.000071
2.987724 -9.877552 -1.007187
1.686182 -10.313688 -0.979597
2.133797 -10.232964 -1.036663
2.607858 -10.262883 -0.985106
3.050006 -10.152920 -0.954355
1.752419 -10.631764 -1.048225
2.195670 -10.512268 -0.991802
2.676049 -10.567656 -1.014511
2.773488 -9.145723 2.874723
3.121595 -10.463410 -1.002724
1.814642 -10.918406 -1.019361
2.262234 -10.818035 -1.019655
2.743089 -10.867071 -1.022001
2.819028 -9.352555 3.024454
3.188375 -10.755783 -0.991444
1.879744 -11.225847 -1.044050
2.327900 -11.118290 -1.025618
2.814094 -11.184399 -1.073360
2.880949 -9.621498 2.997690
3.265024 -11.085791 -1.080400
1.738919 -10.041459 2.929537
1.944662 -11.531025 -1.056246
2.396890 -11.436792 -1.075359
2.571990 -10.077960 2.710030
2.879385 -11.475608 -1.046629
2.936846 -9.867491 3.039116
3.330510 -11.373336 -1.044308
1.626194 -9.097890 6.077785
2.011338 -11.847973 -1.093321
2.187789 -10.207076 2.954660
2.466280 -11.756975 -1.121756
2.629432 -10.334074 2.736300
2.944003 -11.763654 -1.007729
3.012061 -10.187545 2.887329
3.396988 -11.664639 -1.014738
1.672262 -9.304183 6.149694
1.820598 -10.349645 3.491760
2.075778 -12.148131 -1.080629
2.249783 -10.494255 2.897743
2.528201 -12.035294 -1.053228
3.016693 -12.088259 -1.058844
3.059015 -10.399196 3.026953
3.472000 -11.988748 -1.065832
1.712324 -9.468854 6.325346
1.859840 -10.495831 3.778570
2.141999 -12.460159 -1.092712
2.082736 -9.519764 6.002916
2.598156 -12.357789 -1.093248
3.085711 -12.396052 -1.060253
3.136164 -10.727116 2.872368
3.538841 -12.281465 -1.030230
1.771282 -9.764692 6.179165
1.954146 -11.023045 3.133986
2.210156 -12.784738 -1.129265
2.121546 -9.685151 6.180883
2.667799 -12.678083 -1.120630
3.154963 -12.704785 -1.058508
3.613550 -12.604587 -1.065453
1.810392 -9.923623 6.367447
2.274109 -13.079731 -1.088827
2.153480 -9.813471 6.442757
2.732111 -12.968875 -1.071064
3.223589 -13.010554 -1.044409
3.065234 -10.509941 4.686216
3.684669 -12.913881 -1.060518
1.850141 -10.088022 6.538456
2.341092 -13.394838 -1.091278
2.211449 -10.083858 6.366116
2.805908 -13.311000 -1.137770
3.294142 -13.324944 -1.045485
3.145721 -10.849651 4.489573
3.755001 -13.220138 -1.043247
1.891240 -10.262396 6.683241
2.247593 -10.235740 6.566332
2.872025 -13.611031 -1.100317
2.586678 -10.112834 6.937231
2.835439 -11.240345 4.386381
3.370275 -13.664497 -1.097946
3.209742 -11.125576 4.451982
3.835758 -13.567042 -1.113937
1.946333 -10.529941 6.620342
2.478928 -14.048697 -1.131794
2.284682 -10.393168 6.749289
2.440655 -11.232799 4.885637
2.944334 -13.944192 -1.132587
2.635196 -10.328559 6.983490
3.444141 -13.993636 -1.119457
3.329340 -11.618850 3.936531
3.908700 -13.883569 -1.108170
1.990305 -10.723678 6.723379
2.549301 -14.383952 -1.160402
2.328265 -10.585814 6.851797
3.017798 -14.283095 -1.170313
2.993016 -11.945005 4.004522
3.332471 -11.656893 4.440098
3.975520 -14.176129 -1.044868
2.053192 -11.040548 6.566696
2.621360 -14.729301 -1.203415
2.463143 -11.266241 5.919037
2.674773 -12.396724 3.520535
3.113195 -12.484453 3.437704
3.589121 -14.639043 -1.115847
3.368346 -11.822532 4.654362
3.520161 -12.418549 3.385576
4.062818 -14.548986 -1.149660
2.129053 -11.439289 6.252340
2.689116 -15.045961 -1.179796
2.483113 -11.331638 6.307621
2.603419 -11.971967 4.978746
3.165119 -14.961604 -1.225658
2.885211 -11.447999 6.158232
3.660081 -14.954628 -1.090988
3.219838 -11.262435 6.374933
3.651946 -12.962313 2.835697
4.132186 -14.851543 -1.097788
2.203549 -11.826465 5.979065
2.325625 -12.606523 4.406103
2.761909 -15.394344 -1.215445
2.567380 -11.739103 5.989275
3.232284 -15.265758 -1.171780
2.912227 -11.565966 6.431339
3.741945 -15.319417 -1.160978
3.280514 -11.523653 6.352676
3.690517 -13.139719 3.060818
4.212742 -15.198125 -1.132063
2.152791 -11.416702 7.294716
2.350381 -12.669947 4.821108
2.830140 -15.712897 -1.184954
2.603939 -11.893060 6.192665
2.773386 -12.788812 4.412519
3.306299 -15.605949 -1.186037
2.984047 -11.886536 6.296169
3.822372 -15.677550 -1.209023
3.426104 -12.120258 5.667219
4.297094 -15.559781 -1.189125
2.196914 -11.613432 7.387760
2.452381 -13.222298 4.278679
2.898539 -16.032084 -1.151138
2.677101 -12.240282 6.015978
2.821442 -13.000859 4.536253
3.380652 -15.947532 -1.196573
3.002108 -11.963936 6.642399
3.900243 -16.023972 -1.226492
3.292807 -11.614815 7.165596
4.369352 -15.873727 -1.144800
2.520201 -13.556521 4.176224
2.976036 -16.407774 -1.219793
2.739706 -12.531213 5.958361
3.455334 -16.290462 -1.203365
3.001619 -11.957528 7.137810
3.327921 -13.432070 4.339300
3.973343 -16.348694 -1.196117
3.331808 -11.789540 7.306543
4.454517 -16.238768 -1.194017
2.394411 -12.686355 6.315552
2.530004 -13.528972 4.753498
3.054091 -16.785824 -1.284103
2.781200 -12.711134 6.114809
2.965341 -13.675563 4.315233
3.044300 -12.146212 7.254686
3.315480 -13.371241 4.977457
3.381098 -12.004881 7.370056
2.424161 -12.790612 6.603436
3.126467 -17.127728 -1.274166
2.761014 -12.569143 6.857988
2.927564 -13.438934 5.267979
3.023649 -13.940737 4.350664
3.155643 -12.644907 6.806658
4.137040 -17.076759 -1.264475
3.471027 -12.381708 7.139378
2.491217 -13.125284 6.474243
3.199113 -17.470715 -1.260490
2.827670 -12.881398 6.762228
3.686871 -17.356102 -1.253206
3.175273 -12.729306 7.120415
4.215239 -17.424088 -1.257719
3.622701 -13.004808 6.480150
3.894341 -14.086479 4.537519
2.556569 -13.448239 6.375191
3.276083 -17.839527 -1.286303
2.856983 -12.999141 7.016304
3.766685 -17.724205 -1.279133
3.298884 -13.282966 6.605503
4.294823 -17.777523 -1.255743
3.633309 -13.066451 6.839993
4.785201 -17.660093 -1.245089
2.502379 -13.044544 7.527582
2.667294 -14.045464 5.815548
2.791602 -14.799924 4.525068
2.998488 -13.698598 6.263824
3.847886 -18.099054 -1.309452
3.273775 -13.165390 7.266338
4.374723 -18.132242 -1.249804
3.692613 -13.322004 6.855749
3.971701 -14.436569 4.932873
2.639260 -13.801029 6.694017
2.877625 -15.240015 4.280537
3.427894 -18.561928 -1.291018
2.996845 -13.655845 6.797745
3.924622 -18.450380 -1.292631
3.299309 -13.276350 7.521891
4.470701 -18.559319 -1.359442
3.791238 -13.734789 6.609623
4.958991 -18.404741 -1.289139
2.646020 -13.770449 7.191751
2.926945 -15.457644 4.416494
2.981421 -13.543302 7.431286
3.316106 -13.347900 7.837158
3.840636 -15.712789 3.938404
4.541153 -18.871124 -1.268425
3.930703 -14.311518 6.105875
5.043314 -18.766846 -1.283453
2.700293 -14.026320 7.213039
3.582804 -19.300282 -1.296309
3.008455 -13.650643 7.688383
3.468085 -16.014647 3.851570
4.089042 -19.208397 -1.331940
3.840788 -15.708593 4.443470
4.626668 -19.250704 -1.284029
4.306797 -15.837798 4.081827
5.133140 -19.151024 -1.307430
2.744898 -14.224342 7.329790
3.668838 -19.719490 -1.368401
3.074956 -13.960967 7.617188
3.533726 -16.315212 3.868914
4.173941 -19.600576 -1.361822
3.979157 -16.327242 3.946785
4.712595 -19.631973 -1.295200
4.330297 -15.951691 4.393587
4.589968 -16.994127 2.730366
5.214228 -19.500181 -1.268084
2.761081 -14.254308 7.707922
3.748219 -20.098234 -1.368404
3.581794 -16.525534 4.032040
4.256169 -19.978619 -1.361942
3.705068 -15.087677 6.366104
4.031556 -16.558325 4.077394
4.802497 -20.030989 -1.326973
4.059483 -14.882220 6.551287
2.832602 -14.612109 7.577055
3.016104 -15.693613 5.928701
3.830744 -20.494841 -1.388996
3.196771 -14.523079 7.586348
3.389229 -15.506454 6.079020
3.650802 -16.842976 4.030390
3.557216 -14.417366 7.830994
4.083755 -16.788424 4.210159
4.500896 -16.675476 4.236612
4.721270 -17.562216 2.874729
5.401202 -20.298136 -1.327179
2.850205 -14.652293 7.930920
3.036886 -15.747788 6.292187
3.222537 -14.624486 7.849142
4.424940 -20.755589 -1.373840
3.619362 -14.692862 7.829002
4.138196 -17.028536 4.328569
4.984974 -20.840534 -1.384403
3.938500 -14.428470 8.102730
4.535429 -16.833050 4.478676
4.804658 -17.917576 2.844135
3.039295 -15.696113 6.802921
3.997127 -21.293549 -1.416042
3.282609 -14.900891 7.848694
3.467718 -15.842885 6.457838
3.865320 -17.866224 3.470379
3.661949 -14.880220 7.961563
5.080039 -21.262266 -1.426308
4.019073 -14.768810 8.003870
4.596852 -17.098734 4.557476
5.592832 -21.115070 -1.383453
3.107275 -16.028370 6.746721
3.496166 -18.291842 3.483965
3.322951 -15.076815 7.998753
4.601939 -21.572784 -1.416483
4.236597 -17.461330 4.637653
5.166862 -21.646742 -1.405945
4.694464 -17.510397 4.427063
5.689380 -21.526573 -1.404146
3.146046 -16.190489 6.938498
3.558073 -18.579262 3.557728
4.169179 -22.122225 -1.456539
3.674036 -16.828142 5.906521
4.689449 -21.975702 -1.418207
4.075637 -16.732342 6.132446
5.261630 -22.066778 -1.429703
5.779366 -21.911596 -1.379301
3.372520 -17.437244 5.621248
3.783232 -17.349817 5.613138
4.295272 -17.715191 5.196051
4.626064 -17.268017 5.688679
5.876772 -22.326607 -1.390198
3.471554 -17.943197 5.367586
4.339011 -22.935070 -1.444817
4.056032 -18.696825 4.203524
4.873780 -22.827389 -1.463343
4.354737 -17.977512 5.283722
5.447423 -22.889488 -1.429745
4.714564 -17.642315 5.613123
3.514841 -18.127630 5.559544
3.695322 -19.162546 4.172466
4.419320 -23.314093 -1.391783
3.902644 -17.890951 5.750727
4.959057 -23.217815 -1.426216
4.343029 -17.919872 5.803461
5.539618 -23.297428 -1.414324
4.889457 -18.366776 5.073483
6.071470 -23.156218 -1.388790
3.417711 -17.510099 6.806129
3.633506 -18.743258 5.182781
4.509318 -23.748066 -1.405634
4.013569 -18.419144 5.483393
4.489628 -18.573549 5.372772
5.644176 -23.760740 -1.465040
4.780261 -17.939821 6.084660
5.204875 -19.661818 3.802879
3.481628 -17.815575 6.820778
3.671728 -18.898270 5.420767
3.802021 -19.640343 4.461210
4.077678 -18.711071 5.538387
5.152117 -24.110836 -1.479771
4.562712 -18.896708 5.391136
5.743970 -24.202440 -1.478464
4.991123 -18.810656 5.376724
5.308810 -20.100090 3.698624
6.293049 -24.094931 -1.500359
3.712622 -19.069096 5.636215
4.699413 -24.671076 -1.479691
4.151672 -19.052410 5.534231
5.250668 -24.566771 -1.505949
4.618342 -19.141348 5.514660
5.046090 -19.049110 5.508116
3.580595 -18.261843 7.070610
4.800825 -25.167273 -1.546709
3.997576 -18.250717 6.969744
4.229733 -19.413782 5.511053
5.346059 -25.006399 -1.503080
4.309863 -17.751352 7.682089
4.949588 -20.623178 4.094198
5.940886 -25.073271 -1.465488
4.841876 -18.233765 6.964109
5.365984 -20.364391 4.288790
6.494484 -24.952013 -1.471655
3.544675 -18.003284 7.788012
4.067004 -18.570284 6.979292
5.453143 -25.504089 -1.564070
4.352917 -17.939798 7.842018
6.051828 -25.564432 -1.516121
4.713453 -17.725021 7.996626
4.915378 -18.546513 6.983326
5.325348 -20.214388 4.926018
3.431846 -17.315052 9.003666
4.994488 -26.105057 -1.584839
3.820526 -17.311657 8.904749
4.636338 -21.386518 3.971952
4.419626 -18.234312 7.874077
5.071792 -21.160421 4.345697
5.401557 -20.539341 4.971783
3.496385 -17.626961 8.998812
3.745577 -19.024645 7.344488
4.327405 -22.288042 3.481869
3.884279 -17.604624 8.923321
5.646355 -26.393248 -1.529818
4.354174 -17.935875 8.613174
5.049137 -19.117956 7.101461
5.510713 -20.998459 4.862652
3.542737 -17.836637 9.118435
4.328882 -22.233652 4.004501
3.970285 -18.008171 8.817450
4.408423 -18.174416 8.707163
4.800598 -18.117659 8.670599
3.646397 -18.366039 8.873997
4.047864 -18.369261 8.769541
4.510577 -18.627617 8.558002
6.491886 -27.510242 -1.601868
4.883112 -18.466129 8.640882
3.693175 -18.577375 9.000788
3.900887 -19.732885 7.703039
4.083611 -18.522144 8.963873
5.291964 -24.524202 2.190983
4.513889 -18.637594 8.917885
4.990125 -18.914633 8.504965
3.867139 -19.494505 8.349920
4.511050 -23.067348 4.406601
4.213933 -19.144329 8.636808
4.971187 -22.900789 4.471334
4.640585 -19.200464 8.660505
5.010670 -19.010088 8.771355
3.842182 -19.307186 8.925207
4.217410 -19.137022 9.012791
4.610092 -19.058895 9.182394
5.113748 -19.442558 8.666990
3.868230 -19.403543 9.184315
4.292199 -19.483114 9.003294
4.674551 -19.342676 9.238590
4.888937 -20.302822 8.214600
5.452080 -22.824896 5.524824
5.141881 -19.568649 8.900492
3.957064 -19.846365 9.077517
4.300377 -21.737310 7.096592
4.316300 -19.578373 9.264051
4.736098 -19.613293 9.312599
5.325490 -20.330622 8.462513
4.130947 -20.755552 8.500250
4.328593 -19.615610 9.581875
4.849999 -20.118139 9.148853
5.240026 -19.991520 9.185062
6.075215 -23.410513 5.647684
4.018766 -20.093279 9.539028
4.369586 -19.794744 9.750591
4.579423 -20.829327 8.699064
4.812856 -19.946800 9.681280
5.538572 -21.224497 8.290621
6.029643 -23.235804 6.245728
4.399108 -22.129347 7.865236
4.643346 -23.465443 6.536629
4.505562 -20.441711 9.452291
4.916445 -20.405207 9.575216
5.301692 -20.264261 9.624664
4.175775 -20.862349 9.483286
4.618662 -20.975151 9.281885
4.981350 -20.690369 9.648397
5.613885 -21.553783 8.710396
4.281252 -21.392845 9.326054
4.505709 -22.615496 8.151808
4.634259 -21.028767 9.586582
5.087748 -21.160948 9.547329
5.582645 -21.435507 9.192358
6.040631 -23.313976 7.380146
4.265737 -21.264416 9.802628
4.691473 -21.286995 9.693304
5.254333 -21.900383 9.202494
5.630042 -21.639439 9.358919
4.342507 -21.638111 9.803629
5.042364 -22.985144 8.461536
5.385427 -22.480833 9.023718
5.701756 -21.943024 9.433617
4.461593 -22.240383 9.602863
4.892180 -22.225777 9.528721
5.125964 -23.370934 8.480455
5.457247 -22.796143 9.099653
5.805408 -22.377665 9.392588
4.766209 -23.843868 8.519062
5.191893 -23.669920 8.583986
5.647624 -23.640940 8.705898
6.047340 -25.426594 7.106968
6.251566 -24.219471 8.094496
6.300834 -26.552429 6.514828
6.000060 -23.194944 9.381453
6.505906 -25.273958 7.544546
6.077676 -25.549429 7.791594
6.612911 -25.723093 7.547056
8.736649 -37.412739 -1.894148
6.562114 -25.523157 8.111038
6.516610 -27.495707 6.939520
6.679935 -26.016462 8.082579
6.420474 -27.053316 8.102633
6.895057 -26.918499 8.121454
7.010715 -27.402746 8.126139
9.549754 -40.991909 -1.946905
0.396823 -0.166312 29.750057
0.400862 -0.201424 29.730242
0.397461 -0.169051 29.753838
0.396204 -0.180561 29.751909
0.401939 -0.187618 29.746151
0.385707 -0.133761 29.788023
0.398391 -0.173038 29.759598
0.387768 -0.142892 29.783995
0.396744 -0.166291 29.767155
0.397147 -0.184593 29.757957
0.389189 -0.135161 29.791201
0.390111 -0.153227 29.781868
0.389430 -0.136190 29.792803
0.397757 -0.187194 29.762049
0.391651 -0.145388 29.789021
0.396199 -0.180208 29.769432
0.395883 -0.162892 29.780071
0.390136 -0.139193 29.797665