# This PCD file was generated using the MATLAB® pcwrite function
# from Computer Vision System Toolbox®.
# .PCD v.7 - Point Cloud Data file format
VERSION .7
FIELDS x y z
SIZE 4 4 4
TYPE F F F
COUNT 1 1 1
WIDTH 769
HEIGHT 1
VIEWPOINT 0 0 0 1 0 0 0
POINTS 769
DATA ascii
-5.366114 -3.181591 -0.500064
-5.425573 -3.065908 -0.490166
-5.223585 -3.097633 -0.459541
-5.308006 -2.997977 -0.476536
-5.158594 -3.058026 -0.498109
-5.236197 -2.955114 -0.508530
-5.061830 -3.000333 -0.501544
-5.125967 -2.891341 -0.498429
-4.952888 -2.935761 -0.489655
-5.009964 -2.824512 -0.479671
-4.838314 -2.868053 -0.469054
-4.932410 -2.778690 -0.500920
-4.742961 -2.811359 -0.467739
-4.811259 -2.709229 -0.471795
-4.678613 -2.772351 -0.500486
-4.777580 -2.687334 -0.540132
-4.595973 -2.722986 -0.510896
-4.651240 -2.615213 -0.500801
-4.507552 -2.670387 -0.512876
-4.580615 -2.573360 -0.524423
-4.383736 -2.597769 -0.469820
-4.443706 -2.495717 -0.466975
-4.319965 -2.559266 -0.498199
-4.385688 -2.460795 -0.502717
-4.267833 -2.527385 -0.540562
-4.333422 -2.428994 -0.545151
-4.180668 -2.475706 -0.537552
-4.233970 -2.371804 -0.527314
-4.082430 -2.417822 -0.518213
-4.146758 -2.321278 -0.522991
-3.996191 -2.366781 -0.512521
-4.088720 -2.286480 -0.555263
-3.921630 -2.322384 -0.520830
-3.984979 -2.227204 -0.525779
-3.858416 -2.284427 -0.543482
-3.927126 -2.192586 -0.556194
-3.756621 -2.224771 -0.511101
-3.818920 -2.131075 -0.516222
-3.650183 -2.162576 -0.469342
-3.711638 -2.070163 -0.474563
-3.604025 -2.134346 -0.512322
-3.665413 -2.041892 -0.517605
-3.541528 -2.096954 -0.531100
-3.618854 -2.013449 -0.560173
-3.447399 -2.041845 -0.501313
-3.523844 -1.959273 -0.530634
-3.406187 -2.016465 -0.550247
-3.477169 -1.930819 -0.571772
-3.312969 -1.961971 -0.518146
-3.372672 -1.871759 -0.523737
-3.210332 -1.902275 -0.468409
-3.295025 -1.826999 -0.514666
-3.174191 -1.879818 -0.523267
-3.212693 -1.779830 -0.496344
-3.237210 -1.671248 -0.503592
-3.294446 -1.581479 -0.506937
-3.077811 -1.823735 -0.479234
-3.186417 -1.762251 -0.567211
-3.232392 -1.546017 -0.520013
-3.041325 -1.801126 -0.532948
-3.079612 -1.702313 -0.505766
-3.088582 -1.587334 -0.487431
-3.170415 -1.510629 -0.532318
-2.941235 -1.743089 -0.478270
-3.028143 -1.671527 -0.534116
-3.022299 -1.549440 -0.490332
-3.088407 -1.466039 -0.510550
-2.885333 -1.709718 -0.497337
-2.966795 -1.635584 -0.545171
-2.941541 -1.504493 -0.467236
-2.997058 -1.417268 -0.470887
-2.834130 -1.678984 -0.524151
-2.895949 -1.594713 -0.538646
-2.909739 -1.483600 -0.527278
-2.945792 -1.386999 -0.497266
-2.740809 -1.624891 -0.474269
-2.778118 -1.529402 -0.446617
-2.848656 -1.448373 -0.536283
-2.908905 -1.363290 -0.548482
-2.680687 -1.589280 -0.482521
-2.769343 -1.520991 -0.548266
-2.778271 -1.408663 -0.527496
-2.809398 -1.311106 -0.488731
-2.634295 -1.561303 -0.515677
-2.685577 -1.473569 -0.513414
-2.703619 -1.366954 -0.509212
-2.758163 -1.280935 -0.513093
-2.587645 -1.533197 -0.548359
-2.652547 -1.452517 -0.571879
-2.647801 -1.334432 -0.524355
-2.697505 -1.246530 -0.519683
-2.505479 -1.485487 -0.511450
-2.560658 -1.401021 -0.517860
-2.591991 -1.301939 -0.538846
-2.623229 -1.206077 -0.499592
-2.441471 -1.447859 -0.508096
-2.522776 -1.377481 -0.566649
-2.518391 -1.260940 -0.517899
-2.567563 -1.174021 -0.513267
-2.390575 -1.417491 -0.530102
-2.427860 -1.324594 -0.501735
-2.458487 -1.226578 -0.522182
-2.516371 -1.143976 -0.535028
-2.297444 -1.363911 -0.463864
-2.376972 -1.294420 -0.523063
-2.407380 -1.196447 -0.543298
-2.438742 -1.102285 -0.503580
-2.263581 -1.342972 -0.519573
-2.317547 -1.259894 -0.526219
-2.330649 -1.154180 -0.510919
-2.370448 -1.064822 -0.488708
-2.196447 -1.303777 -0.504250
-2.258289 -1.225492 -0.528653
-2.283929 -1.126195 -0.539536
-2.332382 -1.040632 -0.534952
-2.137781 -1.269265 -0.505829
-2.207372 -1.195373 -0.548144
-2.220504 -1.090352 -0.532064
-2.256122 -0.999834 -0.500811
-2.079296 -1.234886 -0.506697
-2.144315 -1.159112 -0.540297
-2.157393 -1.054722 -0.523801
-2.221806 -0.977244 -0.555002
-2.024877 -1.202760 -0.515826
-2.085527 -1.125064 -0.540626
-2.110554 -1.026736 -0.550675
-2.150373 -0.938690 -0.528179
-1.955263 -1.162380 -0.488296
-2.030815 -1.093112 -0.549252
-2.047827 -0.991382 -0.540998
-2.079539 -0.900517 -0.500421
-1.919965 -1.140724 -0.541247
-1.972350 -1.059303 -0.548208
-1.989287 -0.958028 -0.539599
-2.036755 -0.874313 -0.535087
-1.839925 -1.094760 -0.484960
-1.914088 -1.025639 -0.546465
-1.919605 -0.919614 -0.510227
-1.955112 -0.831791 -0.478490
-1.786180 -1.063128 -0.491374
-1.848677 -0.988450 -0.525796
-1.861691 -0.886679 -0.507332
-1.912341 -0.805640 -0.511990
-1.746680 -1.039232 -0.533786
-1.790978 -0.955167 -0.522596
-1.814937 -0.858859 -0.531240
-1.846952 -0.770122 -0.490145
-1.703244 -1.013207 -0.566676
-1.754757 -0.932566 -0.573823
-1.767995 -0.830950 -0.554673
-1.800295 -0.742383 -0.513436
-1.625454 -0.968672 -0.506932
-1.683203 -0.892497 -0.532584
-1.706837 -0.796668 -0.540704
-1.753455 -0.714557 -0.536253
-1.565397 -0.933756 -0.492387
-1.632860 -0.862951 -0.545915
-1.649493 -0.764161 -0.535255
-1.695914 -0.682419 -0.530820
-1.518778 -0.906094 -0.514262
-1.575811 -0.830143 -0.540132
-1.599130 -0.734798 -0.547729
-1.631740 -0.647712 -0.506135
-1.459209 -0.871511 -0.498380
-1.512478 -0.794324 -0.515045
-1.538839 -0.701096 -0.531677
-1.588301 -0.621298 -0.536588
-1.393784 -0.833845 -0.463069
-1.481621 -0.774321 -0.582655
-1.491857 -0.673274 -0.552337
-1.524770 -0.587015 -0.510511
-1.368740 -0.817754 -0.548888
-1.418656 -0.738763 -0.556303
-1.428921 -0.638554 -0.525573
-1.481144 -0.560534 -0.539953
-1.294816 -0.775643 -0.484060
-1.374556 -0.712336 -0.585626
-1.385059 -0.612116 -0.554549
-1.434062 -0.532695 -0.559565
-1.259872 -0.754277 -0.540967
-1.300330 -0.671527 -0.520147
-1.325817 -0.579121 -0.535867
-1.359054 -0.494351 -0.493730
-1.201478 -0.720496 -0.521870
-1.265081 -0.649353 -0.576743
-1.290558 -0.556304 -0.592289
-1.324365 -0.471222 -0.550010
-1.143504 -0.686985 -0.502075
-1.183668 -0.605358 -0.481175
-1.220091 -0.518725 -0.534416
-1.265413 -0.439088 -0.530063
-1.085959 -0.653747 -0.481590
-1.150895 -0.584350 -0.546341
-1.173046 -0.490993 -0.551874
-1.218378 -0.411361 -0.547517
-1.039356 -0.626285 -0.498622
-1.071416 -0.541536 -0.448992
-1.114940 -0.458751 -0.530632
-1.157205 -0.378619 -0.516749
-0.992618 -0.598765 -0.515181
-1.046030 -0.523917 -0.542010
-1.067910 -0.431069 -0.547034
-1.112984 -0.351934 -0.542697
-0.935815 -0.566026 -0.492866
-0.978509 -0.486851 -0.481393
-1.020750 -0.403331 -0.562959
-1.055211 -0.320577 -0.520226
-0.877053 -0.532325 -0.460258
-0.929383 -0.458299 -0.487265
-0.973463 -0.375539 -0.578406
-1.010806 -0.293824 -0.545197
-0.842274 -0.511049 -0.523423
-0.892319 -0.435201 -0.540843
-0.916286 -0.343927 -0.554768
-0.961112 -0.265292 -0.550449
-0.783993 -0.477671 -0.489638
-0.835869 -0.403378 -0.516789
-0.859573 -0.312606 -0.530473
-0.906568 -0.235239 -0.535844
-0.741674 -0.452511 -0.523006
-0.788937 -0.375845 -0.530840
-0.803327 -0.281581 -0.505528
-0.859442 -0.207603 -0.549699
-0.679873 -0.417441 -0.468566
-0.735322 -0.345397 -0.515285
-0.756446 -0.254108 -0.518804
-0.803038 -0.177151 -0.524239
-0.641499 -0.394302 -0.520435
-0.694737 -0.320642 -0.557517
-0.707309 -0.225821 -0.521871
-0.751549 -0.148298 -0.517600
-0.578757 -0.358886 -0.454952
-0.649520 -0.293847 -0.579890
-0.662367 -0.199035 -0.543932
-0.708831 -0.122003 -0.549402
-0.532287 -0.331703 -0.466869
-0.592237 -0.261963 -0.543209
-0.613174 -0.170756 -0.546010
-0.657433 -0.093244 -0.541735
-0.485720 -0.304483 -0.478315
-0.535592 -0.230472 -0.505866
-0.560176 -0.141243 -0.527991
-0.614224 -0.066702 -0.572657
-0.439060 -0.277227 -0.489291
-0.497812 -0.206787 -0.565919
-0.513093 -0.113750 -0.538818
-0.557162 -0.036612 -0.534558
-0.387277 -0.247484 -0.470323
-0.436478 -0.173567 -0.497987
-0.473043 -0.088446 -0.588467
-0.519248 -0.011263 -0.593997
-0.345476 -0.222621 -0.509826
-0.379591 -0.142315 -0.448998
-0.418664 -0.058671 -0.559043
-0.462752 0.018457 -0.554780
-0.301619 -0.196738 -0.539095
-0.350706 -0.121947 -0.566842
-0.371327 -0.031088 -0.568440
-0.415424 0.046034 -0.564175
-0.250108 -0.167212 -0.518599
-0.286552 -0.088104 -0.467467
-0.323912 -0.003480 -0.577359
-0.366391 0.073941 -0.563230
-0.200350 -0.138566 -0.507429
-0.247172 -0.063583 -0.525398
-0.276423 0.024152 -0.585799
-0.322090 0.101002 -0.591406
-0.152125 -0.110674 -0.505629
-0.193215 -0.033795 -0.484055
-0.228864 0.051805 -0.593759
-0.271511 0.129128 -0.579601
-0.100287 -0.081172 -0.473606
-0.152951 -0.008798 -0.541168
-0.175904 0.080658 -0.561614
-0.219761 0.157274 -0.557370
-0.057082 -0.055606 -0.510455
-0.098383 0.020988 -0.488841
-0.127256 0.108425 -0.558652
-0.171053 0.184915 -0.554413
-0.006875 -0.026934 -0.487317
-0.060776 0.045357 -0.574890
-0.076331 0.136537 -0.535337
-0.124941 0.212310 -0.570800
0.047972 0.003633 -0.413945
-0.000380 0.076583 -0.461883
-0.032454 0.163413 -0.571109
-0.071557 0.240066 -0.527146
0.084898 0.026590 -0.519039
0.036234 0.100972 -0.566995
0.018127 0.191287 -0.546782
-0.022180 0.267398 -0.512743
0.131086 0.053498 -0.534217
0.092001 0.130427 -0.482667
0.062555 0.218444 -0.581652
0.022832 0.294739 -0.537621
0.180596 0.081692 -0.509076
0.132842 0.156278 -0.557119
0.112777 0.246072 -0.556322
0.072952 0.321825 -0.512281
0.231109 0.110138 -0.463475
0.187192 0.184875 -0.471692
0.157742 0.273502 -0.590279
0.116521 0.349568 -0.556151
0.276492 0.136677 -0.487185
0.229017 0.211257 -0.545278
0.207590 0.300876 -0.563953
0.166341 0.376443 -0.529828
0.318322 0.162224 -0.580328
0.279433 0.238804 -0.498703
0.257675 0.327892 -0.527140
0.212111 0.404145 -0.552854
0.367782 0.190159 -0.543240
0.325279 0.265896 -0.521501
0.302536 0.355680 -0.569672
0.258213 0.432021 -0.575420
0.419092 0.218221 -0.445695
0.373826 0.292955 -0.493897
0.348532 0.383630 -0.601771
0.304643 0.460066 -0.597524
0.465298 0.245009 -0.457553
0.419153 0.320340 -0.535743
0.397586 0.410470 -0.573479
0.353896 0.486538 -0.569251
0.510661 0.271905 -0.508934
0.467366 0.347169 -0.507176
0.445142 0.437854 -0.574665
0.401866 0.513525 -0.560453
0.557864 0.298923 -0.499871
0.513164 0.375102 -0.558089
0.492713 0.465227 -0.575371
0.450050 0.539979 -0.541189
0.605032 0.325749 -0.480335
0.561620 0.401092 -0.498579
0.540296 0.492589 -0.575599
0.496850 0.568162 -0.561386
0.651721 0.353352 -0.530318
0.607930 0.429910 -0.568541
0.587886 0.519936 -0.575348
0.543962 0.596505 -0.581104
0.698828 0.380107 -0.509836
0.655569 0.455392 -0.508079
0.635325 0.548602 -0.604589
0.591380 0.625006 -0.600340
0.746635 0.408467 -0.568859
0.703244 0.486212 -0.617054
0.683078 0.574579 -0.573411
0.639515 0.648179 -0.529258
0.793142 0.434381 -0.517442
0.750487 0.511743 -0.565639
0.730969 0.603467 -0.601681
0.686915 0.677902 -0.567497
0.838336 0.459217 -0.445596
0.796969 0.536819 -0.513774
0.778258 0.629141 -0.569560
0.734914 0.707950 -0.605233
0.886333 0.487324 -0.483191
0.845508 0.566195 -0.561316
0.826586 0.658241 -0.596849
0.782060 0.732406 -0.562690
0.933641 0.514559 -0.490335
0.894793 0.595978 -0.608339
0.873397 0.683604 -0.563795
0.829614 0.759619 -0.559569
0.982091 0.542735 -0.516950
0.940916 0.621106 -0.565058
0.924157 0.716432 -0.639932
0.878479 0.790106 -0.595812
1.027504 0.568235 -0.483229
0.985906 0.645253 -0.511377
0.970377 0.740944 -0.595961
0.926297 0.817431 -0.591710
1.076366 0.596609 -0.508863
1.035380 0.674774 -0.546943
1.018180 0.768242 -0.591379
0.973607 0.843812 -0.577182
1.126384 0.625779 -0.543938
1.086092 0.705298 -0.591929
1.068467 0.798841 -0.626097
1.024090 0.875802 -0.621821
1.170536 0.650349 -0.498883
1.136057 0.734746 -0.616464
1.116511 0.826239 -0.620520
1.071490 0.902196 -0.606315
1.224616 0.682416 -0.572701
1.179953 0.758193 -0.560972
1.164519 0.853597 -0.614460
1.117285 0.926382 -0.570505
1.271263 0.708833 -0.556522
1.231922 0.789376 -0.604365
1.212487 0.880913 -0.607920
1.167297 0.956773 -0.593737
1.311533 0.730669 -0.480373
1.278832 0.815764 -0.587677
1.260413 0.908185 -0.600897
1.212558 0.980618 -0.557029
1.370616 0.765994 -0.582243
1.327621 0.843834 -0.590342
1.308291 0.935412 -0.593394
1.260127 1.007668 -0.549575
1.417129 0.792278 -0.564630
1.380959 0.875739 -0.632074
1.360439 0.966956 -0.624937
1.311686 1.039519 -0.581143
1.459671 0.815817 -0.516918
1.418378 0.894139 -0.534883
1.407358 0.993121 -0.606553
1.362706 1.070406 -0.602266
1.509546 0.844443 -0.528050
1.479630 0.932405 -0.634775
1.456529 1.021501 -0.607424
1.412958 1.100199 -0.612980
1.556848 0.871275 -0.518944
1.523755 0.956480 -0.595953
1.509702 1.053569 -0.637302
1.464682 1.131447 -0.632987
1.607050 0.900048 -0.529042
1.571603 0.983602 -0.586250
1.557890 1.080873 -0.627282
1.508932 1.154601 -0.593515
1.660595 0.931014 -0.558249
1.613438 1.006021 -0.536784
1.606008 1.108119 -0.616777
1.562353 1.187411 -0.622266
1.706516 0.956846 -0.537817
1.681139 1.048502 -0.653639
1.654053 1.135304 -0.605792
1.609005 1.213167 -0.601482
1.752214 0.982534 -0.516943
1.714727 1.064613 -0.554265
1.702021 1.162426 -0.594326
1.663096 1.246316 -0.629081
1.808358 1.015072 -0.554257
1.782798 1.106944 -0.659869
1.749909 1.189482 -0.582379
1.704843 1.267334 -0.578073
1.865163 1.047963 -0.590910
1.824029 1.128942 -0.608552
1.804718 1.222357 -0.608892
1.764406 1.305463 -0.633747
1.901426 1.067455 -0.519832
1.872011 1.156023 -0.595829
1.852730 1.249444 -0.595908
1.809120 1.329402 -0.601288
1.960723 1.101876 -0.565067
1.919904 1.183032 -0.582624
1.908246 1.282678 -0.621220
1.862592 1.361480 -0.616868
2.006291 1.127391 -0.541737
1.985751 1.223060 -0.656136
1.962283 1.314574 -0.636208
1.912604 1.390299 -0.612507
2.068799 1.163747 -0.595330
2.032037 1.248799 -0.632111
2.020754 1.349918 -0.669883
1.966617 1.422641 -0.626908
2.130014 1.199188 -0.638484
2.082378 1.277452 -0.626936
2.052300 1.363769 -0.577688
2.014817 1.449753 -0.611828
2.164465 1.217558 -0.565400
2.137211 1.309266 -0.640474
2.108881 1.397521 -0.600633
2.062909 1.476785 -0.596267
2.226344 1.253333 -0.607314
2.194672 1.342863 -0.662982
2.165934 1.431520 -0.622906
2.119673 1.511260 -0.618515
2.269459 1.277201 -0.571858
2.243116 1.370061 -0.646524
2.221117 1.463958 -0.634943
2.167830 1.538287 -0.601893
2.322221 1.307141 -0.574221
2.284108 1.392067 -0.600943
2.281439 1.500238 -0.665401
2.225234 1.573079 -0.622878
2.382911 1.342017 -0.604571
2.339646 1.424194 -0.612156
2.310072 1.512351 -0.571588
2.275852 1.602095 -0.614683
2.412297 1.357273 -0.520224
2.411031 1.467169 -0.679686
2.378319 1.554505 -0.629319
2.331460 1.635189 -0.624889
2.489698 1.402501 -0.606214
2.435673 1.477962 -0.575864
2.426562 1.581497 -0.610553
2.382253 1.664261 -0.615567
2.532116 1.425875 -0.568387
2.513561 1.525201 -0.660804
2.496272 1.624427 -0.666646
2.440944 1.699691 -0.633938
2.594231 1.461466 -0.596074
2.576059 1.561805 -0.688181
2.536499 1.645410 -0.618519
2.497367 1.733177 -0.642212
2.648083 1.491890 -0.594842
2.627622 1.590934 -0.677264
2.604586 1.686895 -0.663668
2.545755 1.760185 -0.621769
2.683971 1.511200 -0.536910
2.643796 1.596240 -0.553633
2.664778 1.722460 -0.679923
2.605373 1.796069 -0.638124
2.774737 1.564317 -0.646491
2.742808 1.657209 -0.691053
2.701501 1.740925 -0.621077
2.653746 1.823025 -0.616591
2.810463 1.583494 -0.587536
2.748267 1.655479 -0.539105
2.761952 1.776591 -0.636109
2.725852 1.868462 -0.668628
2.871308 1.618090 -0.602396
2.830622 1.705081 -0.618873
2.822807 1.812459 -0.650397
2.762244 1.886061 -0.608974
2.935856 1.654907 -0.625732
2.891744 1.740448 -0.632905
2.871271 1.839400 -0.627149
2.826052 1.924850 -0.631813
2.987456 1.683766 -0.611501
2.940053 1.767292 -0.609448
2.932634 1.875506 -0.640064
2.871209 1.949268 -0.598897
3.045907 1.716780 -0.615025
3.001678 1.802894 -0.622108
2.994383 1.911804 -0.652218
2.945458 1.995806 -0.647650
3.097580 1.745634 -0.599623
3.067128 1.840944 -0.643117
3.042883 1.938699 -0.627240
2.997285 2.025214 -0.631762
3.152792 1.776618 -0.592750
3.126071 1.874665 -0.645130
3.105106 1.975214 -0.637997
3.052474 2.057130 -0.624364
3.215397 1.812057 -0.603339
3.185244 1.908490 -0.646439
3.167695 2.011908 -0.647975
3.118179 2.096859 -0.643370
3.282084 1.849925 -0.622155
3.251941 1.947161 -0.665049
3.205343 2.031191 -0.594314
3.166660 2.123673 -0.616652
3.334117 1.878888 -0.604240
3.304258 1.976440 -0.646934
3.279211 2.075618 -0.629808
3.229396 2.161040 -0.625187
3.405366 1.919427 -0.630412
3.364087 2.010558 -0.646109
3.338832 2.110088 -0.628670
3.277755 2.187740 -0.597350
3.437999 1.936640 -0.566737
3.439538 2.054709 -0.680110
3.421569 2.160398 -0.679978
3.340904 2.225288 -0.604452
3.521765 1.984638 -0.617941
3.476511 2.074013 -0.624606
3.470337 2.187276 -0.650689
3.404385 2.262995 -0.610750
3.594362 2.025849 -0.641509
3.568720 2.128798 -0.692133
3.550520 2.235610 -0.691151
3.483727 2.312139 -0.651330
3.663424 2.064886 -0.655331
3.637851 2.168669 -0.705685
3.599390 2.262495 -0.660559
3.548120 2.350300 -0.655836
3.720357 2.096607 -0.642077
3.703304 2.206127 -0.709608
3.664384 2.300325 -0.664261
3.596756 2.377032 -0.624765
3.781589 2.130874 -0.636851
3.752301 2.233044 -0.677989
3.725528 2.335486 -0.658482
3.677831 2.427054 -0.662372
3.851638 2.170379 -0.648158
3.830860 2.278758 -0.706324
3.795274 2.376404 -0.669172
3.747281 2.468605 -0.672993
3.926503 2.212713 -0.667134
3.888494 2.311106 -0.690605
3.844010 2.403116 -0.636118
3.808720 2.504355 -0.665570
3.966260 2.234061 -0.616703
3.963700 2.354557 -0.708400
3.927312 2.453011 -0.670723
3.861746 2.534084 -0.640370
4.050731 2.282038 -0.651000
4.017175 2.384201 -0.682666
3.989327 2.488548 -0.661754
3.923345 2.569869 -0.631526
4.117644 2.319506 -0.650252
4.070528 2.413751 -0.656353
4.060439 2.530110 -0.668872
4.007133 2.621250 -0.664015
4.194122 2.362619 -0.665466
4.132918 2.448977 -0.646277
4.122845 2.565807 -0.658279
4.096169 2.676171 -0.703640
4.271109 2.405983 -0.679631
4.241905 2.513450 -0.719023
4.194591 2.607662 -0.663578
4.140703 2.699755 -0.658683
4.315140 2.429756 -0.634536
4.267489 2.525459 -0.640441
4.262033 2.646596 -0.659626
4.212455 2.742380 -0.662990
4.397517 2.476233 -0.655178
4.378107 2.590767 -0.710577
4.348653 2.698143 -0.687732
4.293900 2.791670 -0.682775
4.470690 2.517207 -0.658217
4.422362 2.614448 -0.663970
4.416803 2.737408 -0.681827
4.361759 2.831412 -0.676851
4.524333 2.546594 -0.627611
4.495612 2.656230 -0.665954
4.485168 2.776762 -0.675034
4.410665 2.857974 -0.637537
4.587877 2.581806 -0.612653
4.539419 2.679611 -0.618278
4.553741 2.816199 -0.667350
4.498113 2.911155 -0.662340
4.702439 2.647080 -0.677546
4.653162 2.746505 -0.683071
4.642457 2.868771 -0.690890
4.571508 2.954531 -0.661767
4.782222 2.691768 -0.684529
4.737690 2.795120 -0.697983
4.706616 2.905196 -0.673224
4.635261 2.991213 -0.644245
4.841568 2.724375 -0.658561
4.812476 2.837620 -0.695764
4.781052 2.948284 -0.670606
4.724267 3.045150 -0.665519
4.927235 2.772435 -0.671429
4.877141 2.873799 -0.676723
4.845441 2.984775 -0.651228
4.788435 3.081997 -0.646131
5.002759 2.814480 -0.667359
4.962931 2.923006 -0.688273
4.941255 3.041633 -0.677949
4.862966 3.125868 -0.641558
5.089357 2.862983 -0.677861
5.043911 2.969173 -0.690786
5.011373 3.081726 -0.664391
4.958649 3.184050 -0.666986
5.165549 2.905327 -0.671625
5.125278 3.015517 -0.692155
5.081635 3.121867 -0.649908
5.044517 3.235439 -0.675536
5.236482 2.944546 -0.656664
5.201574 3.058677 -0.684690
5.168260 3.172524 -0.657453
5.120198 3.279837 -0.667531
5.329852 2.996862 -0.671301
5.300149 3.115485 -0.706697
5.266299 3.230454 -0.678919
5.185329 3.317046 -0.643301
5.418177 3.046167 -0.676975
5.371599 3.155550 -0.689339
5.337410 3.270954 -0.661186
5.299555 3.387295 -0.686039
5.495578 3.089032 -0.666330
5.482528 3.219785 -0.723642
5.453296 3.340162 -0.702359
5.370712 3.428419 -0.667117
5.607698 3.152129 -0.699387
5.531865 3.246193 -0.674163
5.479944 3.352021 -0.622885
5.419685 3.454616 -0.617579
5.685867 3.195338 -0.686266
5.643965 3.310986 -0.705584
5.596932 3.421751 -0.661229
5.513307 3.510716 -0.626424
5.781823 3.248873 -0.694103
5.722166 3.354969 -0.691187
5.714905 3.491972 -0.697673
5.618828 3.574660 -0.648442
5.830936 3.275059 -0.642236
5.788846 3.391872 -0.661150
5.787359 3.533019 -0.674237
5.702133 3.623658 -0.639829
5.945405 3.339271 -0.669344
5.914555 3.464718 -0.702472
5.883333 3.589005 -0.678575
5.820491 3.695908 -0.673085
6.048639 3.396872 -0.680316
6.005533 3.516307 -0.698781
5.956108 3.630150 -0.652959
5.892974 3.737530 -0.647455
6.146378 3.451213 -0.682603
6.084844 3.560736 -0.679552
6.052824 3.686457 -0.654621
5.989115 3.794793 -0.649079
6.201592 3.480798 -0.634140
6.176437 3.612577 -0.673295
6.174121 3.758263 -0.682816
6.085714 3.852262 -0.649232
6.368019 3.574896 -0.710675
6.286757 3.675713 -0.686611
6.247619 3.799679 -0.653522
6.188774 3.913901 -0.654837
6.448579 3.619083 -0.687534
6.403907 3.742899 -0.705100
6.370222 3.872099 -0.678246
6.280236 3.967785 -0.645089
6.516634 3.655981 -0.649572
6.459460 3.772706 -0.653230
6.468900 3.929289 -0.673717
6.402606 4.041933 -0.668000
6.629054 3.718530 -0.658263
6.596404 3.851709 -0.688950
6.592950 4.002392 -0.694673
6.501108 4.100250 -0.661926
6.767703 3.796183 -0.692085
6.683657 3.900580 -0.668626
6.673732 4.048132 -0.666813
6.612441 4.166893 -0.667693
6.829845 3.829512 -0.643703
6.790251 3.961066 -0.667009
6.792652 4.117802 -0.677530
6.724348 4.233796 -0.671678
6.969851 3.907793 -0.673702
6.916632 4.033399 -0.683505
6.893037 4.175723 -0.666665
6.836811 4.300948 -0.673869
7.104251 3.982744 -0.694853
7.050255 4.109991 -0.704466
7.013101 4.245906 -0.673720
6.924302 4.351684 -0.648335
7.213038 4.042832 -0.687951
7.151995 4.167296 -0.690929
7.120789 4.308229 -0.665989
7.031192 4.415006 -0.640764
7.248521 4.383002 -0.675630
7.170870 4.499569 -0.663240
7.357143 4.445721 -0.664311
7.311424 4.584543 -0.683345
7.472775 4.512728 -0.657505
7.400234 4.635784 -0.651376
7.582157 4.575747 -0.642701
7.535459 4.717042 -0.661102
7.705351 4.647278 -0.638334
7.618035 4.764096 -0.619964
7.883345 4.752773 -0.680044
7.821446 4.889179 -0.685732
8.028392 4.837630 -0.688919
7.945294 4.962671 -0.676595
8.181048 4.927078 -0.701212
0.824835 0.368344 5.574189
8.083214 5.045117 -0.677156
8.214892 5.123414 -0.669603
0.882104 0.404876 5.531677
0.865860 0.389471 5.552704
0.842912 0.379399 5.569604
0.824462 0.363805 5.587806
0.829932 0.370948 5.582429
0.868267 0.390694 5.556777
0.845061 0.380491 5.573240
0.840702 0.373598 5.580294
0.824768 0.367394 5.591153
0.870613 0.391880 5.560897
0.854312 0.386114 5.571631
0.871762 0.392459 5.562974
0.833785 0.372896 5.589195
0.865587 0.388543 5.570205
0.849194 0.382575 5.580636
0.828356 0.369198 5.597696