# This PCD file was generated using the MATLAB® pcwrite function
# from Computer Vision System Toolbox®.
# .PCD v.7 - Point Cloud Data file format
VERSION .7
FIELDS x y z
SIZE 4 4 4
TYPE F F F
COUNT 1 1 1
WIDTH 744
HEIGHT 1
VIEWPOINT 0 0 0 1 0 0 0
POINTS 744
DATA ascii
56.221115 -55.659012 5.239906
57.316597 -54.447891 0.477043
57.310097 -55.194382 0.508900
56.710831 -54.508949 0.500755
56.753746 -55.240665 0.471249
56.126274 -54.566433 0.508385
56.144596 -55.297615 0.510895
55.544395 -54.624199 0.523098
55.568741 -55.349094 0.518501
55.000847 -54.674538 0.497147
55.007385 -55.398563 0.517105
54.447575 -54.727734 0.493553
54.436714 -55.450600 0.538418
53.873505 -54.786327 0.528725
53.915215 -55.493767 0.502037
53.313854 -54.842613 0.554581
53.315224 -55.553173 0.585274
52.819077 -54.885117 0.497383
52.832169 -55.590050 0.512524
52.253113 -54.944462 0.552364
52.266312 -55.644253 0.568329
51.635345 -55.016735 0.696632
51.736748 -55.691879 0.581303
48.439987 -56.314674 4.832043
48.009460 -55.729908 4.757149
48.033012 -56.344505 4.756084
47.560600 -55.772339 4.752243
47.563049 -56.388092 4.785336
47.092682 -55.820023 4.786144
47.116333 -56.427383 4.786171
46.668259 -55.857834 4.757511
46.671448 -56.466888 4.792011
46.245117 -55.895874 4.733490
46.269028 -56.497665 4.734455
45.823303 -55.934135 4.714054
45.847351 -56.533142 4.715481
45.383236 -55.977600 4.733681
45.407368 -56.573265 4.735619
44.964535 -56.016273 4.723526
44.988804 -56.609146 4.725910
44.566334 -56.050182 4.683041
44.571724 -56.645233 4.720722
44.150322 -56.089264 4.681709
44.137386 -56.685909 4.755054
43.735874 -56.128540 4.684837
43.760632 -56.713604 4.688541
43.323040 -56.167999 4.692394
43.352486 -56.749184 4.687702
43.154404 -57.350674 4.731602
43.194427 -57.925529 4.706123
42.911861 -56.207642 4.704365
42.936920 -56.787125 4.708954
42.815563 -57.369644 4.604115
42.873466 -57.940697 4.543053
42.502388 -56.247456 4.720711
42.615273 -56.802456 4.547295
42.406254 -57.404007 4.622959
42.380795 -57.987587 4.732224
42.210571 -56.254513 4.499783
42.141556 -56.855934 4.702065
41.964485 -57.446056 4.718071
41.978642 -58.018471 4.747223
41.743507 -56.311779 4.649593
41.748062 -56.890076 4.700329
41.559387 -57.480713 4.745861
41.590778 -58.047127 4.739326
41.334244 -56.353344 4.687439
41.343491 -56.927616 4.729767
41.156147 -57.515522 4.777931
41.187622 -58.079144 4.771702
40.935127 -56.392635 4.711514
40.961136 -56.959965 4.718102
40.787136 -57.543053 4.741444
40.818779 -58.104992 4.735447
40.561626 -56.424862 4.685165
40.587891 -56.990364 4.692108
40.402950 -57.574486 4.745148
40.418831 -58.137329 4.775990
40.177284 -56.460884 4.689941
40.203766 -57.024147 4.697254
40.035637 -57.602413 4.716068
40.067581 -58.160431 4.710575
39.809566 -56.492290 4.661964
39.809509 -57.061268 4.733837
39.653862 -57.634201 4.727428
39.670685 -58.193085 4.759045
39.431393 -56.527473 4.665199
39.439636 -57.092213 4.719242
39.273506 -57.666145 4.742657
39.305706 -58.219685 4.737679
39.061806 -56.560448 4.653770
39.078049 -57.121246 4.689812
38.894615 -57.698250 4.761734
38.915993 -58.251850 4.784840
38.668186 -56.601879 4.710838
38.699196 -57.155697 4.710281
38.531448 -57.726894 4.747410
38.567524 -58.275745 4.733597
38.308167 -56.632824 4.688320
38.349903 -57.181984 4.660103
38.186558 -57.751232 4.689972
38.205338 -58.302891 4.723003
37.959122 -56.660446 4.641308
37.973465 -57.216763 4.687927
37.811207 -57.783833 4.720032
37.827042 -58.333988 4.762806
37.583706 -56.697624 4.672436
37.598606 -57.251678 4.719528
37.437462 -57.816570 4.753841
37.470459 -58.360714 4.750000
37.222908 -56.730286 4.669773
37.251461 -57.278534 4.679684
37.091213 -57.842373 4.716003
37.124432 -58.385384 4.712337
36.863106 -56.763115 4.670609
36.879227 -57.313759 4.718517
36.720131 -57.875408 4.757015
36.753483 -58.416180 4.753590
36.516674 -56.791496 4.637154
36.533459 -57.340984 4.685413
36.359962 -57.905945 4.773281
36.467335 -58.427254 4.542397
37.618286 -58.152439 0.994526
36.134628 -56.833862 4.720573
36.151936 -57.380531 4.769329
37.295868 -57.559605 0.667892
37.322380 -58.159943 0.699379
36.992260 -56.391445 0.781494
37.073879 -56.973953 0.635525
33.795876 -58.517593 10.887592
33.811012 -58.967281 10.928164
33.597565 -57.633739 10.878792
33.622478 -58.082748 10.888313
33.484180 -58.547848 10.959145
33.511086 -58.992393 10.961777
33.363335 -57.636791 10.683954
33.380470 -58.090424 10.722120
33.196342 -58.571335 10.957165
33.223461 -59.014751 10.959953
33.097076 -57.652603 10.596149
33.122879 -58.103363 10.605730
32.922432 -58.590721 10.909864
32.949821 -59.033703 10.912762
32.806736 -57.678753 10.597002
32.830215 -58.129368 10.616390
32.697140 -58.594288 10.682087
32.714699 -59.042290 10.723484
32.517105 -57.705040 10.600573
32.543446 -58.153538 10.610546
32.416416 -58.615829 10.658581
32.434563 -59.063095 10.700191
32.228203 -57.731464 10.606850
32.252388 -58.179802 10.626673
32.128746 -58.640034 10.666655
32.157082 -59.083370 10.669777
31.940060 -57.758018 10.615828
31.964603 -58.205219 10.635855
31.851097 -58.661060 10.638634
31.879692 -59.103821 10.641861
31.661684 -57.780300 10.588758
31.697929 -58.222103 10.560476
31.555744 -58.688820 10.690832
31.584511 -59.129894 10.694233
31.383440 -57.802750 10.564199
31.410973 -58.247826 10.574829
31.236168 -58.726437 10.862646
31.333920 -59.142532 10.554577
31.065880 -57.846066 10.726849
31.080973 -58.293629 10.796236
31.191858 -58.657211 9.750389
31.323593 -59.077091 9.274979
30.917067 -57.799408 10.084320
31.037977 -58.206100 9.646109
31.134579 -58.587055 8.607246
31.160515 -59.057152 8.638599
30.887203 -57.680401 8.778522
30.990757 -58.112591 8.416195
30.857765 -58.602921 8.500179
30.874828 -59.076962 8.580582
30.680193 -57.654205 8.301582
30.702553 -58.132671 8.358974
30.563393 -58.626186 8.483677
30.574154 -59.102211 8.603558
30.383774 -57.678829 8.285881
30.413874 -58.152973 8.304264
30.269245 -58.649624 8.469810
30.288214 -59.122417 8.550663
30.087587 -57.703621 8.272839
30.104799 -58.184544 8.369896
29.975348 -58.673233 8.458576
29.988699 -59.147957 8.579006
29.791656 -57.728584 8.262440
29.817848 -58.204300 8.310577
29.681723 -58.697006 8.449963
29.696371 -59.171082 8.570652
29.501921 -57.749527 8.215347
29.521376 -58.229733 8.312832
29.382555 -58.724014 8.483429
29.404341 -59.194366 8.564907
29.206230 -57.774849 8.210171
29.221169 -58.258022 8.347317
29.095379 -58.745049 8.440594
29.112631 -59.217815 8.561760
28.905642 -57.804470 8.247070
28.932526 -58.279259 8.305553
28.802710 -58.769314 8.439819
28.821262 -59.241421 8.561207
28.615854 -57.825977 8.207714
28.643543 -58.300709 8.266308
28.510405 -58.793732 8.441650
28.535110 -59.262749 8.523617
28.321215 -57.851780 8.210426
28.341642 -58.332077 8.338432
28.222944 -58.815342 8.406433
28.248655 -59.284286 8.488525
28.026970 -57.877739 8.215744
28.047705 -58.358253 8.353870
27.931091 -58.840099 8.413406
27.957764 -59.308407 8.495647
27.740835 -57.895786 8.144463
27.764090 -58.375866 8.272785
27.643436 -58.862091 8.383251
27.671118 -59.330326 8.465595
27.443264 -57.926109 8.194565
27.474930 -58.398067 8.243744
27.355545 -58.884289 8.355606
27.384235 -59.352444 8.438046
27.150002 -57.952549 8.207661
27.178345 -58.428181 8.306614
27.064367 -58.909542 8.370262
27.097139 -59.374760 8.413006
26.860033 -57.975182 8.183643
26.886681 -58.454124 8.322441
26.779140 -58.929279 8.307861
26.807079 -59.399551 8.430313
26.569880 -57.998016 8.162159
26.603043 -58.470093 8.221512
26.488293 -58.954872 8.327599
26.522390 -59.419987 8.370449
26.281677 -58.017143 8.103451
26.313541 -58.493057 8.202610
26.200022 -58.977829 8.310051
26.234783 -59.442894 8.352932
25.990877 -58.040398 8.087017
26.022091 -58.519531 8.226063
25.911623 -59.000980 8.295010
25.944023 -59.469826 8.407761
25.697483 -58.070568 8.142750
25.732681 -58.542858 8.212234
25.623119 -59.024323 8.282490
25.657827 -59.491444 8.365353
25.408951 -58.087479 8.061768
25.444571 -58.562298 8.151127
25.334534 -59.047855 8.272491
25.370514 -59.514359 8.345409
25.118046 -58.110359 8.042999
25.153793 -58.589268 8.182205
25.045887 -59.071575 8.265011
25.040571 -59.667557 10.794178
25.082275 -59.539581 8.367908
24.826080 -58.141899 8.116367
24.863976 -58.613968 8.185936
24.738867 -59.260727 10.764540
24.794437 -59.565468 8.402920
24.805532 -59.497417 7.094734
24.533899 -58.409336 10.711283
24.569901 -58.834042 10.644434
24.457573 -58.608459 0.424282
24.506516 -59.417843 5.054890
24.243029 -58.168190 7.872498
24.182577 -57.475483 0.414848
24.230242 -58.042763 0.325630
24.137331 -58.872807 4.056652
24.187729 -59.430298 4.775356
23.952578 -58.204811 8.003300
23.872078 -58.072987 0.327297
23.806044 -58.879993 3.740292
23.742373 -58.664246 0.357769
23.857763 -59.425449 4.139126
23.657806 -58.217762 7.877789
23.625965 -58.459091 4.926994
23.513962 -58.103432 0.332100
23.504143 -58.967739 4.693882
23.537506 -59.460468 4.294651
23.365276 -58.242817 7.884262
23.308985 -58.488621 4.963932
23.181944 -58.990871 4.632538
23.212238 -59.484840 4.233334
23.076256 -58.275215 7.972904
23.115984 -58.742233 7.952568
22.945936 -58.433563 3.887810
22.794041 -58.925884 3.138199
22.668446 -58.753963 0.346306
22.891973 -59.516171 4.314590
22.778940 -58.290802 7.875042
22.819416 -58.760086 7.864529
22.440166 -58.196087 0.365261
22.540123 -59.044701 4.628014
22.306686 -58.780296 0.282303
22.565722 -59.541039 4.258957
22.486464 -58.316406 7.889194
22.524191 -58.781967 7.828892
22.078379 -58.222214 0.312885
22.219349 -59.072231 4.634945
22.196287 -59.534470 3.518230
22.191383 -58.338699 7.866150
22.245180 -58.822441 8.044617
21.814209 -59.029625 3.459763
21.835459 -59.543278 3.090061
21.638159 -59.415295 0.269848
21.898884 -58.364677 7.885433
21.938488 -58.833012 7.854946
21.477575 -59.054398 3.403378
21.463116 -59.550751 2.615520
21.297720 -59.456959 0.514107
21.623821 -58.407967 8.105789
21.653868 -58.865623 7.966225
21.086849 -59.044949 2.753323
21.133703 -59.584957 2.731770
20.965698 -59.500671 0.810947
21.305950 -58.409504 7.842392
21.358839 -58.889023 7.950825
20.564463 -58.966347 0.875042
20.795586 -59.614498 2.741440
21.013323 -58.436054 7.869415
21.054142 -58.906330 7.848732
20.162182 -58.972145 0.442524
20.254961 -59.562580 0.826401
20.726566 -58.466934 7.948498
20.770775 -58.938591 7.957607
20.656439 -59.416054 7.869991
19.811481 -59.007584 0.529747
19.867222 -59.582115 0.555893
20.425251 -58.487167 7.901436
20.465141 -58.957153 7.870792
20.359798 -59.440815 7.863731
19.446039 -59.036068 0.491161
19.507326 -59.613277 0.556843
20.137100 -58.516678 7.965790
20.168005 -58.981491 7.865921
20.073299 -59.470085 7.939301
19.091433 -59.069695 0.544945
19.141918 -59.643105 0.521355
19.824945 -58.531731 7.854954
19.888306 -59.014774 7.992168
19.769623 -59.492584 7.888786
18.724808 -59.098747 0.512821
18.779711 -59.674419 0.518837
19.526693 -58.555992 7.855465
19.566853 -59.028187 7.824623
19.495977 -59.526299 8.048416
18.420036 -59.706768 0.539310
19.248312 -58.590786 7.986645
19.286858 -59.061073 7.946041
19.172886 -59.543087 7.884823
18.594017 -59.866840 3.938660
18.049389 -59.736736 0.493870
18.921082 -58.601246 7.815292
18.963074 -59.075882 7.794128
18.876450 -59.569427 7.901619
17.689049 -59.769608 0.520805
18.650845 -58.639408 7.990788
18.670536 -59.103935 7.841949
18.585159 -59.597454 7.950550
18.657146 -60.076027 8.100071
17.314863 -59.799854 0.472195
18.323553 -58.652138 7.844894
18.394629 -59.137802 7.980682
18.272366 -59.619781 7.884190
18.313381 -60.093605 7.856438
16.952070 -59.832901 0.495804
18.023632 -58.677509 7.858803
18.066092 -59.153641 7.837448
17.994385 -59.651550 8.007023
18.012537 -60.120316 7.861576
16.583469 -59.865170 0.493214
17.741343 -58.709862 7.963348
17.781889 -59.184673 7.932247
17.666090 -59.671116 7.877708
17.721279 -60.148911 7.918400
16.212292 -59.897396 0.484173
17.429430 -58.731117 7.923935
17.482445 -59.210941 7.951313
17.364275 -59.697605 7.888367
17.413958 -60.175060 7.899555
15.836246 -59.929283 0.458954
17.131407 -58.757824 7.955593
17.157181 -59.230259 7.856068
17.077349 -59.727493 7.970013
17.140352 -60.206516 8.039677
16.804371 -58.775276 7.863548
16.880917 -59.263508 7.987789
16.748484 -59.749027 7.869205
16.796898 -60.228184 7.870358
16.493767 -58.798882 7.852272
16.534840 -59.278812 7.820702
16.466465 -59.780151 7.975574
16.496521 -60.256340 7.898918
16.211269 -58.831272 7.960030
16.245148 -59.308929 7.899422
16.127560 -59.801075 7.851711
16.205730 -60.285854 7.968990
15.870340 -58.846901 7.838337
15.936428 -59.334667 7.903278
15.826053 -59.829178 7.885967
15.875639 -60.311016 7.886730
15.557573 -58.871311 7.835705
15.599000 -59.354561 7.803837
15.545275 -59.860764 8.000137
15.584801 -60.340927 7.962227
15.265396 -58.901463 7.912918
15.330663 -59.389614 7.967690
15.190921 -59.881153 7.847122
15.262680 -60.367809 7.924641
14.916362 -58.917561 7.791222
14.971724 -59.406399 7.807110
14.888454 -59.909950 7.889832
14.925520 -60.393753 7.842094
14.637973 -58.951473 7.921883
14.657152 -59.432713 7.813137
14.574681 -59.937401 7.896961
14.659863 -60.426498 8.012180
14.300107 -58.971615 7.854397
14.376754 -59.465515 7.936794
14.248629 -59.963612 7.868813
14.288632 -60.450447 7.830536
13.969322 -58.994102 7.818825
14.029260 -59.486637 7.843571
13.945439 -59.993084 7.920055
13.985467 -60.480480 7.881752
13.692504 -59.028454 7.957367
13.713096 -59.513725 7.858429
13.630025 -60.021313 7.936031
13.707084 -60.512455 8.011810
13.325803 -59.044537 7.823639
13.421591 -59.545010 7.952103
13.263322 -60.044216 7.803368
13.328989 -60.537743 7.840694
13.007805 -59.071110 7.844810
13.053468 -59.564804 7.821472
12.997747 -60.078541 7.976917
13.008789 -60.567467 7.853333
12.715930 -59.102844 7.944286
12.718672 -59.590363 7.798386
12.627515 -60.102238 7.851116
12.734566 -60.600155 8.001022
12.356894 -59.122604 7.858627
12.416556 -59.620914 7.872559
12.291888 -60.130016 7.832546
12.363215 -60.627544 7.878387
12.009446 -59.145214 7.814110
12.066245 -59.645237 7.818325
12.018113 -60.163773 7.985802
12.030757 -60.657566 7.872143
11.760177 -59.184628 8.034187
11.749654 -59.674446 7.861027
11.642180 -60.188721 7.870708
11.740156 -60.689888 7.981236
11.338777 -59.196228 7.809990
11.429260 -59.703449 7.897408
11.292651 -60.216568 7.834042
11.348269 -60.717941 7.832253
11.016920 -59.224487 7.849937
11.078833 -59.729259 7.862652
11.016452 -60.250526 7.986290
11.027524 -60.749542 7.873108
10.740493 -59.259697 8.003708
10.726844 -59.755463 7.831467
10.650106 -60.277863 7.919182
10.752280 -60.783047 8.027946
10.345214 -59.277889 7.874664
10.439247 -59.789043 7.960426
10.265986 -60.304592 7.819138
10.338568 -60.811932 7.853497
10.002238 -59.304237 7.878262
10.049988 -59.812252 7.853325
9.942883 -60.335987 7.869946
10.000288 -60.843887 7.867271
9.678529 -59.333576 7.930939
9.694170 -59.839542 7.832741
9.652141 -60.369617 7.996922
9.709839 -60.877483 7.994114
9.321652 -59.358971 7.913979
9.419266 -59.874893 7.997932
9.229906 -60.395653 7.835308
9.321356 -60.908737 7.904961
8.929743 -59.380646 7.828243
9.011885 -59.898277 7.875160
8.871354 -60.426060 7.823528
8.930240 -60.940521 7.820065
8.569510 -59.406883 7.818974
8.635457 -59.925186 7.829227
8.580305 -60.460396 7.959862
8.605168 -60.974159 7.883995
8.277790 -59.441406 7.957184
8.304976 -59.956459 7.886276
8.185347 -60.489716 7.883049
8.293159 -61.008247 7.978058
7.880701 -59.464371 7.883232
7.965458 -59.987293 7.928646
7.787886 -60.519562 7.810600
7.848246 -61.040585 7.806316
7.499214 -59.489765 7.849304
7.566870 -60.014023 7.858444
7.460539 -60.553036 7.885117
7.521292 -61.075130 7.880627
7.171076 -59.521206 7.925907
7.184195 -60.042591 7.828186
7.133255 -60.586731 7.962818
7.208195 -61.110039 7.984741
6.805626 -59.549213 7.935070
6.893007 -60.077976 7.978874
6.693508 -60.616451 7.831760
6.792755 -61.144318 7.897350
6.382055 -59.572220 7.842609
6.470449 -60.104782 7.885712
6.307407 -60.648827 7.811337
6.388788 -61.179253 7.841084
5.974884 -59.597576 7.789986
6.064240 -60.133381 7.832420
5.958380 -60.682899 7.865093
6.001865 -61.214779 7.824371
5.629200 -59.629028 7.855087
5.655781 -60.162498 7.783684
5.628618 -60.717850 7.957233
5.672186 -61.250843 7.916451
5.293238 -59.661591 7.940998
5.344471 -60.197746 7.913021
5.199213 -60.750267 7.879341
5.322811 -61.287125 7.977077
4.820934 -59.683311 7.797508
4.953329 -60.228790 7.907154
4.787344 -60.783787 7.840897
4.851755 -61.323959 7.834213
4.447290 -59.713787 7.831230
4.545321 -60.259491 7.879818
4.373386 -60.817822 7.807110
4.458904 -61.361206 7.834396
4.031157 -59.741493 7.800674
4.104246 -60.289169 7.805813
4.020000 -60.853672 7.880383
4.064608 -61.398888 7.838909
3.697447 -59.775818 7.910606
3.707813 -60.321636 7.813446
3.666401 -60.889801 7.957287
3.711143 -61.436687 7.915718
3.321329 -59.807365 7.956299
3.347389 -60.356171 7.884624
3.248245 -60.925133 7.936565
3.378910 -61.474567 8.029968
2.884811 -59.835281 7.913689
2.997490 -60.391449 7.976357
2.784691 -60.960331 7.853497
2.895212 -61.514290 7.912281
2.440495 -59.863407 7.867817
2.559845 -60.423553 7.937939
0.863338 -60.977497 5.573071
1.000481 -61.572155 5.662224
0.479027 -59.798676 5.569908
0.580276 -60.399502 5.602654
0.514343 -61.018055 5.721275
0.580307 -61.614540 5.701649
0.049892 -59.832890 5.605404
0.180176 -60.437515 5.678776
0.109625 -61.058270 5.790394
0.226784 -61.656303 5.844788
-0.277573 -59.873386 5.793304
-0.157648 -60.477921 5.849514
-0.289942 -61.098892 5.872086
-0.171734 -61.699032 5.925758
-0.701906 -59.908627 5.845627
-0.598227 -60.515293 5.876518
-0.660910 -61.140018 5.998810
-0.547504 -61.741680 6.043648
-1.103741 -59.945507 5.935074
-0.975870 -60.554970 5.997768
-1.090185 -61.181164 6.048363
-0.969894 -61.785519 6.100567
-1.482187 -59.983910 6.061043
-1.376926 -60.594284 6.090675
-1.467028 -61.222858 6.175152
-1.369448 -61.829269 6.194427
-1.884321 -60.021423 6.158939
-1.760300 -60.634373 6.211952
-1.837553 -61.264820 6.313854
-1.721306 -61.872272 6.356647
-2.310928 -60.058167 6.229389
-2.185856 -60.673775 6.281536
-2.262281 -61.307064 6.384888
-2.114710 -61.916466 6.466698
-2.689203 -60.097454 6.367775
-2.612146 -60.713585 6.355900
-2.669291 -61.349670 6.484371
-2.538807 -61.961742 6.541492
-3.141470 -60.133900 6.416008
-3.008165 -60.754391 6.474304
-3.064127 -61.392570 6.603985
-2.920174 -62.006275 6.675980
-3.544760 -60.172810 6.531784
-3.385359 -60.795826 6.620384
-3.490303 -61.435951 6.688957
-3.370155 -62.052979 6.728817
-3.948082 -60.212040 6.651958
-3.812664 -60.836712 6.708454
-3.897999 -61.479591 6.801929
-3.770569 -62.098690 6.848785
-4.351395 -60.251587 6.776524
-4.240503 -60.877995 6.801365
-4.292978 -61.523460 6.934753
-4.190168 -62.145298 6.950104
-4.780531 -60.290573 6.875019
-4.642986 -60.919991 6.929653
-4.720163 -61.567940 7.033787
-4.616570 -62.192478 7.048531
-5.183949 -60.330784 7.008648
-5.077999 -60.961945 7.024479
-5.147757 -61.612808 7.137688
-5.023788 -62.239407 7.174515
-5.640024 -60.369705 7.086643
-5.500341 -61.004421 7.139332
-5.602158 -61.658390 7.216465
-5.444174 -62.287109 7.290016
-6.096945 -60.409088 7.169994
-5.929533 -61.047215 7.251507
-6.010649 -61.703781 7.352703
-5.878071 -62.335632 7.395382
-6.527721 -60.449646 7.288300
-6.385881 -61.090218 7.338970
-6.432487 -61.749699 7.478733
-6.325809 -62.385033 7.490974
-6.931532 -60.491264 7.440876
-6.815825 -61.133801 7.461208
-6.922445 -61.797081 7.536289
-6.753763 -62.434113 7.613846
-7.444723 -60.530598 7.481510
-7.273327 -61.177666 7.559235
-7.345013 -61.843800 7.672535
-7.209288 -62.484600 7.712540
-7.869560 -60.572498 7.622337
-7.731445 -61.221973 7.662693
-7.885361 -61.893085 7.691082
-7.776093 -62.539848 7.701195
-8.447956 -60.611622 7.610592
-8.329582 -61.266663 7.628250
-8.595558 -61.946419 7.544994
-8.450115 -62.600029 7.589890
-9.155762 -60.649132 7.478664
-9.008083 -61.312248 7.523521
-9.254227 -61.999672 7.465462
-9.163639 -62.662689 7.452354
-9.875393 -60.687622 7.349495
-9.754681 -61.359001 7.364677
-11.254398 -62.083916 6.074245
-11.131969 -62.778988 6.086887
-11.861252 -60.707329 6.003197
-11.708931 -61.411270 6.043064
-12.018070 -62.142937 5.940811
-11.865616 -62.845570 5.980221
-12.687538 -60.748497 5.822121
-12.562569 -61.462448 5.832672
-12.837326 -62.204399 5.769756
-12.690388 -62.917076 5.800827
-13.490486 -60.791378 5.680161
-13.364285 -61.514683 5.689373
-13.618446 -62.266045 5.651360
-13.455376 -62.986969 5.694798
-14.328022 -60.835178 5.522377
-14.171207 -61.568169 5.557384
-14.485252 -62.331066 5.469421
-14.290993 -63.061054 5.538429
-15.163681 -60.880379 5.383224
-15.042355 -61.623421 5.382938
-16.847939 -62.439198 3.951447
-16.833984 -63.216103 3.848938
-17.191299 -60.916504 4.197746
-17.178959 -61.692497 4.094337
-17.528912 -62.502853 3.993542
-17.544556 -63.287903 3.864452
-17.903591 -60.966881 4.217937
-17.891132 -61.750153 4.114399
-18.264889 -62.568947 3.998676
-18.227837 -63.359177 3.915920
-18.618610 -61.018177 4.247746
-18.606018 -61.808739 4.144077
-18.981113 -62.635315 4.033382
-18.966312 -63.433914 3.930862
-19.359138 -61.070286 4.267838
-19.323521 -61.868240 4.183434
-19.761005 -62.704559 4.026222
-19.753426 -63.511936 3.917171
-20.087120 -61.123417 4.310829
-20.104950 -61.929550 4.181274
-20.513435 -62.773846 4.055393
-20.474823 -63.587490 3.971939
-20.864059 -61.177372 4.325771
-20.858704 -61.991432 4.215302
-21.268608 -62.844116 4.094910
-21.291370 -63.668789 3.960640
-21.620632 -61.232380 4.370243
-21.638519 -62.054684 4.240879
-22.057629 -62.916451 4.119823
-22.041286 -63.747498 4.017101
-22.474022 -61.288376 4.350822
-22.429073 -62.119102 4.271069
-22.881016 -62.990963 4.131012
-22.864193 -63.830952 4.028191
-23.291611 -61.345505 4.374111
-23.293575 -62.185905 4.257069
-23.707626 -63.066586 4.153793
-23.721912 -63.917244 4.026398
-24.207771 -61.403965 4.336227
-24.058414 -62.251839 4.334202
-24.226715 -63.131516 4.423763
-23.962952 -63.970306 4.508591
-24.703465 -61.462166 4.628677
-24.177280 -62.305096 4.907486
-23.535000 -63.985691 5.488480
-24.584862 -61.517719 5.376457
-24.314003 -62.358303 5.462299
-25.195419 -61.576530 5.587635
-24.979660 -62.423328 5.630337
-24.868298 -64.139908 5.811699
-25.879433 -61.636433 5.754807
-25.629696 -62.488667 5.818871
24.271751 -61.293564 41.248493
24.280788 -61.296867 41.253201
24.243116 -61.295448 41.238346
24.304764 -61.295563 41.271725
24.259449 -61.294788 41.250164
24.277414 -61.297596 41.259365
24.267122 -61.294571 41.257042
24.249838 -61.299686 41.247475
24.275255 -61.298080 41.263523
24.264919 -61.295071 41.261375
24.283110 -61.297688 41.270119
24.299683 -61.293304 41.281212
24.317896 -61.295345 41.289833
24.262794 -61.295567 41.265747
24.281136 -61.298145 41.274178
24.252726 -61.296333 41.263691
24.271154 -61.299038 41.271954
24.269814 -61.295528 41.274334
24.288290 -61.297935 41.282455
24.305586 -61.296799 41.292652