# This PCD file was generated using the MATLAB® pcwrite function
# from Computer Vision System Toolbox®.
# .PCD v.7 - Point Cloud Data file format
VERSION .7
FIELDS x y z
SIZE 4 4 4
TYPE F F F
COUNT 1 1 1
WIDTH 1164
HEIGHT 1
VIEWPOINT 0 0 0 1 0 0 0
POINTS 1164
DATA ascii
-1.530284 35.407669 -1.445948
-2.264531 35.250244 -1.667496
-1.606271 34.854225 -1.493515
-2.328650 34.577126 -1.603895
-1.676302 34.162254 -1.405743
-2.398272 34.047050 -1.659964
-1.754017 33.752522 -1.567049
-2.459587 33.394722 -1.592909
-1.817522 32.986530 -1.387060
-2.513833 32.659355 -1.434153
-1.878541 32.226048 -1.196281
-2.583610 32.215530 -1.543816
-1.953520 31.849852 -1.365294
-2.646878 31.686941 -1.563839
-2.020668 31.317183 -1.374979
-2.718430 31.301086 -1.718853
-2.092641 30.913021 -1.505814
-2.775823 30.726412 -1.676594
-2.164576 30.522749 -1.646332
-2.835221 30.203114 -1.677275
-2.232002 30.063250 -1.710138
-2.893246 29.681999 -1.671320
-2.293188 29.515942 -1.673643
-2.947683 29.135983 -1.629498
-2.354523 28.998497 -1.659477
-3.009727 28.700428 -1.698709
-2.416213 28.510237 -1.668379
-3.070807 28.265753 -1.762772
-2.478466 28.050463 -1.701059
-3.113971 27.647278 -1.611982
-2.530236 27.460526 -1.577892
-3.177612 27.268608 -1.724630
-2.597708 27.109297 -1.719486
-3.235438 26.838213 -1.772295
-2.658581 26.680157 -1.765846
-3.290316 26.389732 -1.791946
-2.705972 26.098909 -1.622873
-3.340060 25.904812 -1.760004
-2.766631 25.698936 -1.688829
-3.397515 25.503799 -1.823015
-2.820890 25.237160 -1.672379
-3.445607 25.029137 -1.787720
-2.878544 24.826962 -1.713055
-3.495345 24.581429 -1.778122
-2.934101 24.405613 -1.733242
-3.543956 24.135666 -1.763210
-2.977124 23.870783 -1.597651
-3.594486 23.715887 -1.774889
-3.037877 23.525351 -1.703024
-3.644024 23.297615 -1.781727
-3.094839 23.150236 -1.764566
-3.692566 22.880907 -1.783749
-3.146433 22.734846 -1.765356
-2.627910 22.349476 -1.697418
-2.088756 22.167500 -1.623886
-3.744176 22.494741 -1.821569
-3.197031 22.321077 -1.761366
-2.680965 21.938299 -1.689590
-2.144346 21.752464 -1.606388
-3.790809 22.080967 -1.814291
-3.244551 21.891891 -1.728062
-2.730763 21.506254 -1.644098
-2.199335 21.344915 -1.592340
-3.836442 21.668911 -1.802288
-3.298782 21.526754 -1.780361
-2.788737 21.165714 -1.726061
-2.255996 20.972466 -1.623442
-3.876755 21.230768 -1.744293
-3.339921 21.067816 -1.687908
-2.837133 20.742744 -1.679552
-2.312784 20.611942 -1.667152
-3.920299 20.822666 -1.722696
-3.393147 20.710697 -1.739899
-2.891199 20.381790 -1.720263
-1.840605 14.283903 7.553795
-2.364531 20.203434 -1.631426
-3.970017 20.459856 -1.763283
-3.438063 20.300055 -1.704340
-2.934409 19.935881 -1.622372
-1.869981 13.924857 7.694496
-2.415736 19.802330 -1.599457
-2.944058 13.801112 8.073904
-4.007114 20.028206 -1.690834
-3.479608 19.875473 -1.638836
-2.989331 19.598776 -1.688501
-2.470550 19.450583 -1.639307
-2.848866 12.823578 9.215887
-4.059793 19.694319 -1.765310
-3.532722 19.537691 -1.703857
-3.037656 19.215027 -1.674578
-1.946888 13.429996 7.639551
-2.521485 19.068378 -1.624254
-4.103370 19.313677 -1.760033
-3.581986 19.179417 -1.731373
-2.334981 13.187812 7.743080
-2.574788 18.718506 -1.656406
-3.378724 14.848245 5.037281
-4.148962 18.949913 -1.776175
-2.709512 13.126809 7.762960
-3.627197 18.801563 -1.720875
-2.414319 13.258459 7.185030
-3.135777 18.482801 -1.685604
-2.622323 18.324013 -1.607323
-4.190836 18.572046 -1.762726
-2.793746 13.180947 7.231697
-3.674907 18.445412 -1.740627
-2.511680 13.435063 6.425623
-3.182907 18.113567 -1.676565
-2.047242 12.594678 7.745531
-2.678110 18.011187 -1.692343
-4.231831 18.195749 -1.745171
-3.718430 18.070362 -1.722075
-3.230657 17.755608 -1.680893
-2.075101 12.285066 7.848000
-2.723892 17.619862 -1.635092
-3.259537 12.916803 6.920742
-4.267892 17.801422 -1.688917
-3.761074 17.696928 -1.699442
-2.503006 12.392129 7.343847
-3.280619 17.418188 -1.716293
-2.243298 13.091291 5.934971
-2.775393 17.283789 -1.669624
-2.926135 10.946784 9.994812
-3.250514 12.469379 7.256384
-2.615679 10.923253 9.913021
-2.919391 12.561059 6.949011
-3.809089 17.358870 -1.733791
-2.448941 11.595945 8.343548
-3.326108 17.057583 -1.704433
-2.100364 11.465152 8.450220
-2.411186 13.813059 4.103588
-2.823733 16.929371 -1.665581
-4.350580 17.081442 -1.676851
-2.645825 10.710957 9.891571
-3.847358 16.974041 -1.677103
-2.487460 11.399010 8.263763
-3.371562 16.703087 -1.697535
-2.134991 11.241654 8.424133
-2.418431 13.295209 4.543079
-2.870001 16.566898 -1.640142
-2.993284 10.564977 9.875004
-4.395502 16.744537 -1.704582
-2.679267 10.517713 9.837093
-3.041251 12.341688 6.397589
-3.897608 16.656717 -1.739342
-2.721867 12.335344 6.011499
-3.415434 16.345289 -1.678059
-2.396369 12.597719 5.352671
-2.918063 16.224401 -1.646259
-3.089555 10.643037 9.302370
-3.473482 12.282372 6.165688
-4.437613 16.399128 -1.711267
-2.857491 11.030864 8.423841
-3.115587 12.288052 6.003000
-3.940738 16.307377 -1.736622
-2.918435 12.979523 4.239361
-3.459302 15.993525 -1.663668
-2.221257 10.917604 8.138491
-2.429619 12.307901 5.398043
-2.967435 15.896494 -1.675516
-3.062666 10.195651 9.735868
-4.473527 16.032133 -1.670141
-2.729984 10.058466 9.875635
-2.939797 11.046441 7.932446
-3.980238 15.945709 -1.703644
-2.613271 10.867185 7.910461
-3.503213 15.647599 -1.654501
-2.469754 12.068552 5.348278
-3.012027 15.542583 -1.647860
-4.522995 15.724855 -1.740616
-2.970780 10.814789 7.920506
-4.024732 15.612354 -1.720293
-2.780446 11.336748 6.467896
-3.549751 15.320455 -1.677549
-2.263643 10.316502 8.414053
-3.061469 15.225128 -1.688246
-3.114276 9.758833 9.737347
-3.383514 10.803975 7.604912
-4.564106 15.386849 -1.745695
-2.832009 9.838767 9.440779
-4.063615 15.258036 -1.688833
-2.826506 11.154202 6.328226
-3.592214 14.976794 -1.661369
-3.105999 14.882360 -1.671453
-3.184514 9.711160 9.387594
-4.593100 15.006898 -1.657761
-2.839239 9.536030 9.619274
-3.207407 11.101903 6.331711
-4.109723 14.939574 -1.725525
-2.628687 9.796374 8.698280
-3.637429 14.651364 -1.677725
-3.116459 14.351782 -1.244164
-3.480233 10.476093 7.292603
-4.595600 14.536782 -1.367863
-4.018349 14.058725 -0.550741
-4.143002 14.571129 -1.650879
-2.653335 9.553649 8.743258
-2.877465 10.593607 6.469858
-3.674869 14.293536 -1.618382
-2.363349 9.675816 8.331486
-3.156497 14.002892 -1.191509
-3.660747 10.774714 6.122644
-4.678572 14.362441 -1.704306
-3.029944 9.654992 8.421047
-3.316291 10.792499 5.922712
-4.186744 14.250354 -1.671871
-2.655563 9.214838 9.009001
-2.764602 9.702574 7.918030
-2.979045 10.661790 5.772449
-2.402271 9.496431 8.232185
-3.214209 13.753016 -1.353880
-3.460585 9.742492 7.873142
-4.704938 13.988380 -1.605024
-2.995580 9.192459 8.958704
-3.121959 9.677552 7.868423
-4.222511 13.901922 -1.626099
-2.785830 9.439264 8.001431
-3.747092 13.584053 -1.488390
-2.644237 10.339505 5.774836
-3.266310 13.473516 -1.450193
-4.744756 13.664805 -1.610859
-4.257455 13.555270 -1.576723
-2.668157 8.603896 9.433842
-3.770600 13.185603 -1.307920
-2.654017 9.978147 6.046446
-3.289182 13.053330 -1.213575
-3.365434 8.809831 8.991734
-4.783935 13.342092 -1.613495
-3.024056 8.670441 9.173801
-4.276395 13.156065 -1.395653
-3.802406 12.829492 -1.214899
-3.339260 12.771459 -1.294498
-4.781682 12.894191 -1.310732
-3.067894 8.519700 9.028549
-4.291880 12.753341 -1.191776
-2.780021 8.411186 8.886444
-3.838121 12.494634 -1.164223
-2.507583 8.548521 8.395462
-3.363966 12.377234 -1.095613
-3.687682 9.194574 7.001093
-4.821578 12.583419 -1.324387
-3.214386 8.709599 8.036737
-4.337274 12.459341 -1.241383
-2.870225 8.433208 8.298531
-3.870089 12.150538 -1.082373
-3.395884 12.023816 -0.985052
-3.618144 8.682787 7.709291
-4.862164 12.276950 -1.344259
-3.158027 8.219698 8.722857
-4.384475 12.172633 -1.306732
-2.867832 8.108539 8.581314
-3.908185 11.833818 -1.061924
-3.432018 11.694567 -0.926567
-3.513770 8.094540 8.655497
-4.894509 11.949514 -1.305710
-3.176881 7.984628 8.784904
-4.408370 11.814382 -1.183992
-2.925083 7.999647 8.309343
-3.972043 11.609404 -1.280420
-2.743461 8.497814 6.814831
-3.478799 11.412476 -0.986042
-3.553746 7.922269 8.552067
-4.913151 11.588606 -1.171118
-3.258961 7.942691 8.337763
-4.459117 11.542663 -1.280731
-2.898222 7.605845 8.803539
-3.305682 8.958134 5.114666
-4.017448 11.320362 -1.329189
-2.574154 7.510255 8.906372
-3.539501 11.184632 -1.192694
-4.962253 11.312878 -1.256071
-3.273893 7.696269 8.431089
-4.493125 11.222448 -1.244465
-4.060330 11.024574 -1.356567
-3.574814 10.860898 -1.134811
-4.948666 10.879668 -0.899912
-4.524050 10.897013 -1.186331
-4.097412 10.712771 -1.334213
-3.055551 8.596722 4.565561
-3.630633 10.613502 -1.290228
-3.717520 7.505331 7.941399
-4.454275 9.291779 2.802734
-5.001808 10.619411 -1.016167
-4.578325 10.638092 -1.312645
-4.138155 10.414816 -1.346518
-3.089860 8.357178 4.551250
-3.676041 10.329369 -1.339800
-4.450989 8.946297 3.046568
-5.087315 10.433981 -1.355474
-3.399892 7.190996 8.067724
-4.620226 10.346148 -1.342684
-3.150635 7.200396 7.541800
-3.495395 8.178913 4.556967
-4.181645 10.126657 -1.384369
-3.122805 8.114885 4.548641
-3.738774 7.011364 8.150417
-4.469765 8.658239 3.134207
-5.133553 10.153714 -1.420849
-3.395755 6.904643 8.301529
-4.664130 10.060538 -1.388901
-4.218062 9.820449 -1.362759
-3.758853 9.739710 -1.364761
-3.743471 6.757353 8.291771
-5.172505 9.857962 -1.436548
-3.916603 7.881845 4.555779
-4.701373 9.759858 -1.385231
-4.253862 9.515296 -1.338228
-2.896299 6.769453 7.366835
-3.795065 9.432472 -1.330301
-3.769760 6.553084 8.284441
-4.279571 7.617678 4.841139
-5.181544 9.501191 -1.250856
-3.913830 7.564042 4.804846
-4.719094 9.416298 -1.236477
-4.282237 9.194131 -1.253685
-3.826638 9.115160 -1.254744
-4.327736 7.417662 4.713501
-5.213527 9.196640 -1.222679
-4.740935 9.087284 -1.122248
-3.605436 7.179609 4.682619
-4.319012 8.897197 -1.242310
-3.865549 8.821771 -1.252571
-4.260082 6.992456 5.357382
-5.247749 8.898728 -1.210627
-4.782586 8.804760 -1.157211
-4.348247 8.584974 -1.170784
-2.852835 5.800475 8.565981
-3.899822 8.518364 -1.209339
-5.292957 8.623034 -1.272013
-4.832969 8.540831 -1.256489
-3.203907 5.685796 8.449656
-4.403833 8.334367 -1.316681
-2.906331 5.668664 8.316832
-3.945937 8.247265 -1.278484
-5.327624 8.328704 -1.264137
-4.879165 8.268017 -1.324799
-4.440270 8.041524 -1.306858
-3.987524 7.965530 -1.306759
-5.373528 8.055138 -1.330090
-4.899678 7.947233 -1.208473
-3.282577 5.341981 8.234024
-4.480993 7.759123 -1.332836
-2.913992 5.166287 8.727531
-4.015862 7.654877 -1.216759
-5.416144 7.776106 -1.374477
-3.900631 5.811548 6.167810
-4.949030 7.681980 -1.300474
-3.640771 5.781734 5.606470
-4.516410 7.467400 -1.317701
-2.981371 5.060802 8.356977
-3.295337 5.736435 5.554310
-4.056433 7.374265 -1.239746
-4.272237 5.645720 6.181931
-5.458387 7.496813 -1.416397
-4.989969 7.401690 -1.332428
-3.683003 5.582910 5.502190
-4.540189 7.156068 -1.212936
-3.337837 5.539791 5.440231
-4.092191 7.084764 -1.221481
-4.151893 5.207244 7.119101
-5.468473 7.169908 -1.253746
-5.016737 7.098944 -1.265404
-4.570662 6.860119 -1.163265
-4.122969 6.787410 -1.161766
-4.188848 5.013579 7.049282
-4.758406 5.823552 3.453112
-5.502037 6.881075 -1.242161
-4.115323 5.360838 5.251450
-5.028921 6.776299 -1.098886
-4.575299 6.523599 -0.916916
-3.085534 4.518640 8.132082
-3.999144 6.207034 0.231983
-4.196376 4.779368 7.164608
-4.513722 5.209273 5.175119
-5.530464 6.586637 -1.198980
-4.368988 5.467641 3.698851
-5.078065 6.512902 -1.190639
-4.464097 6.010919 0.206945
-3.109010 4.316686 8.154255
-3.295520 4.643386 6.557985
-4.015403 5.904369 0.396769
-4.528011 4.965950 5.260429
-5.477487 6.189273 -0.650078
-3.977343 4.638442 6.584877
-3.702960 4.551869 6.220394
-4.159632 5.818580 -0.527370
-5.469542 5.859470 -0.387583
-3.693260 4.014033 8.695236
-4.142569 4.610678 5.645359
-4.919559 5.642455 0.371212
-3.696359 4.289464 6.476921
-4.571853 5.527874 -0.079966
-3.337533 4.200912 6.671267
-3.808934 4.938935 2.717081
-4.188382 5.532998 -0.465799
-4.045817 3.894814 8.562197
-4.493117 4.413333 5.816298
-4.834518 4.809094 3.720490
-3.710680 3.813487 8.741787
-4.435652 4.724658 3.858694
-4.968551 5.394424 0.269331
-3.747845 4.110798 6.297035
-4.570458 5.209432 0.189342
-3.368972 3.998089 6.638090
-3.690333 4.472336 3.968872
-4.204745 5.231477 -0.303829
-4.564033 4.243504 5.549414
-5.411883 5.172931 0.380304
-3.761178 3.653791 8.566139
-5.049442 5.183009 -0.044754
-3.492895 3.543541 8.375385
-4.606389 4.944454 0.178457
-3.364453 3.745389 6.900394
-4.227372 4.943030 -0.197741
-4.162930 3.580704 8.144142
-5.475636 4.938340 0.195398
-3.747142 3.418889 8.820885
-5.139563 4.976285 -0.415813
-3.726594 3.597488 6.851234
-4.656660 4.697027 0.062302
-3.279490 3.394114 7.812214
-4.245672 4.652049 -0.059570
-4.180552 3.378293 8.185303
-5.571846 4.732332 -0.182432
-4.166723 3.645488 6.216606
-5.130855 4.658906 -0.131100
-3.742100 3.379191 6.931368
-4.716280 4.458354 -0.120325
-4.313037 4.424496 -0.321093
-4.209179 3.187251 8.160021
-5.515170 4.379845 0.357962
-5.156871 4.382171 -0.077976
-3.765264 3.170986 6.954666
-4.788247 4.229480 -0.389256
-3.331217 3.000949 7.810234
-4.351166 4.159163 -0.345020
-4.219467 2.980504 8.243797
-4.681768 3.375330 5.500353
-5.558659 4.124237 0.296597
-3.914917 2.940841 8.199232
-4.228752 3.229514 6.163406
-5.177797 4.102472 0.007000
-3.783910 2.959402 7.009264
-4.794319 3.932441 -0.185257
-4.410039 3.915932 -0.533844
-4.335332 2.859845 7.703987
-4.656946 3.115790 5.808029
-5.591946 3.859879 0.296068
-3.985512 2.786765 7.903063
-5.195042 3.821905 0.114098
-4.832832 3.669006 -0.214285
-3.248774 2.478789 8.858784
-4.438876 3.640269 -0.484379
-4.377112 2.674360 7.605064
-4.657721 2.881577 5.961679
-5.661567 3.622873 0.082659
-4.128654 2.684821 7.147142
-5.291361 3.606683 -0.286207
-3.756670 2.487650 7.566652
-4.910301 3.437638 -0.516356
-3.282998 2.301671 8.781015
-3.441310 2.443919 7.549267
-4.465904 3.364547 -0.422607
-4.427250 2.493028 7.458759
-5.780118 3.415599 -0.412722
-4.107948 2.448842 7.441839
-5.375912 3.375606 -0.606350
-3.750733 2.266279 7.784729
-4.942811 3.166951 -0.501654
-3.455242 2.236945 7.639656
-4.530728 3.121658 -0.654240
-4.470670 2.305018 7.353155
-5.841876 3.163715 -0.573416
-4.156332 2.265159 7.296755
-5.412536 3.106733 -0.620146
-4.997722 2.912436 -0.642153
-4.558277 2.846890 -0.597662
-4.493563 2.103574 7.366804
-5.864359 2.886743 -0.506470
-4.157649 2.050315 7.448086
-5.433076 2.828207 -0.533306
-3.904825 1.940391 7.073936
-5.028089 2.640363 -0.612955
-3.533657 1.863325 7.430971
-4.585279 2.573267 -0.538658
-5.901741 2.619100 -0.525379
-4.229517 1.877467 7.158758
-5.495729 2.574891 -0.709553
-3.881806 1.711906 7.405800
-5.059432 2.369750 -0.591232
-3.625403 1.705686 6.933760
-4.616994 2.303983 -0.516769
-4.462173 1.666427 7.831306
-5.959537 2.360887 -0.659758
-4.241192 1.669787 7.244795
-5.524919 2.302115 -0.676992
-3.980658 1.550203 6.911034
-5.091784 2.100358 -0.577009
-3.593314 1.472970 7.367083
-4.653565 2.038026 -0.532072
-5.998085 2.092536 -0.683884
-4.210592 1.445519 7.588638
-5.550414 2.028620 -0.622358
-3.926924 1.313508 7.444038
-5.120753 1.830035 -0.540699
-3.577298 1.255967 7.673958
-4.683083 1.768793 -0.495611
-4.606328 1.310280 7.301441
-6.020500 1.818178 -0.617256
-4.324518 1.282499 7.048067
-5.572145 1.754945 -0.545637
-3.938564 1.111046 7.534876
-5.150730 1.560975 -0.511906
-4.720224 1.503478 -0.516165
-4.597670 1.100292 7.490879
-6.049427 1.547234 -0.587555
-4.439425 1.110040 6.508865
-5.601450 1.485314 -0.515787
-4.057621 0.943740 6.916403
-5.187743 1.294803 -0.530153
-4.748853 1.235171 -0.475035
-4.648716 0.909218 7.347918
-6.081447 1.277773 -0.575153
-4.465026 0.903957 6.513159
-5.645067 1.220213 -0.572289
-5.222900 1.027968 -0.536207
-4.783867 0.969425 -0.481064
-4.662240 0.707861 7.413092
-6.113050 1.008557 -0.560415
-5.673554 0.950964 -0.537781
-5.257687 0.761041 -0.539944
-4.819896 0.703864 -0.494686
-6.146033 0.739890 -0.553175
-5.708232 0.683394 -0.540363
-5.285969 0.493220 -0.501842
-4.854179 0.437871 -0.496098
-6.174996 0.470939 -0.523939
-5.742536 0.415763 -0.540623
-5.319962 0.226518 -0.500944
-4.888088 0.171827 -0.495201
-6.214447 0.203134 -0.551367
-5.776460 0.148091 -0.538559
-5.353577 -0.040213 -0.497730
-4.920202 -0.094262 -0.482096
-6.235250 -0.065457 -0.478153
-5.796431 -0.119657 -0.455330
-5.378983 -0.306686 -0.442818
-4.954772 -0.360330 -0.486479
-6.273956 -0.333454 -0.500923
-5.843164 -0.387291 -0.527460
-5.419661 -0.573685 -0.484354
-4.986102 -0.626245 -0.468760
-6.306777 -0.601505 -0.491877
-5.875939 -0.654961 -0.518427
-5.458471 -0.841293 -0.513683
-5.018476 -0.892201 -0.458630
-6.348534 -0.870690 -0.529615
-5.908325 -0.922590 -0.507072
-5.490590 -1.108288 -0.501194
-5.050463 -1.158106 -0.446194
-6.371250 -1.137463 -0.466810
-5.926409 -1.187444 -0.414660
-5.522316 -1.375211 -0.486391
-5.083530 -1.424356 -0.441334
-6.417980 -1.408593 -0.529289
-5.971921 -1.457643 -0.477400
-5.553649 -1.642043 -0.469273
-5.119186 -1.691696 -0.453911
-6.443624 -1.675565 -0.481482
-6.003128 -1.725026 -0.459084
-5.584586 -1.908762 -0.449842
-5.144075 -1.955311 -0.395052
-6.480242 -1.945380 -0.490185
-6.046319 -1.996477 -0.507217
-5.615125 -2.175349 -0.428102
-5.180491 -2.223515 -0.412853
-6.518433 -2.216238 -0.506313
-6.078574 -2.264884 -0.494032
-5.658440 -2.447747 -0.482731
-5.218096 -2.493021 -0.438148
-6.558221 -2.488375 -0.529837
-6.115811 -2.535614 -0.507940
-5.688251 -2.714699 -0.456303
-5.246276 -2.758122 -0.401974
-6.588026 -2.756992 -0.502069
-6.145525 -2.803420 -0.480259
-5.729321 -2.987883 -0.496286
-5.295443 -3.035954 -0.501244
-6.632971 -3.032811 -0.550100
-6.196523 -3.082346 -0.567736
-5.766762 -3.260051 -0.514202
-5.324443 -3.302531 -0.470190
-6.662027 -3.301685 -0.517599
-6.225529 -3.350756 -0.535294
-5.795459 -3.527394 -0.480715
-5.353033 -3.568875 -0.436829
-6.690668 -3.570313 -0.482775
-6.254120 -3.618920 -0.500525
-5.830518 -3.799185 -0.484055
-5.393666 -3.844512 -0.479607
-6.726777 -3.843409 -0.484550
-6.287799 -3.890422 -0.492708
-5.856717 -4.065077 -0.436123
-5.427763 -4.116131 -0.480713
-6.768478 -4.120716 -0.513063
-6.322957 -4.163440 -0.492239
-5.892749 -4.338589 -0.444462
-5.455214 -4.382678 -0.440290
-6.795956 -4.389423 -0.471125
-6.359616 -4.438210 -0.499079
-5.926727 -4.611207 -0.440613
-5.488578 -4.654714 -0.436626
-6.840987 -4.670774 -0.514086
-6.394076 -4.712049 -0.493742
-5.960350 -4.884173 -0.434340
-5.527955 -4.933244 -0.469553
-6.867687 -4.939571 -0.467371
-6.426306 -4.984677 -0.476267
-6.000563 -5.163885 -0.464499
-5.560640 -5.206295 -0.460987
-6.910074 -5.220897 -0.495619
-6.461913 -5.260708 -0.475756
-6.031750 -5.436130 -0.443598
-5.599397 -5.486481 -0.488873
-6.925861 -5.481123 -0.395905
-6.480192 -5.521761 -0.385742
-6.073078 -5.719141 -0.478386
-5.631386 -5.760459 -0.475370
-6.985813 -5.779311 -0.505850
-6.533970 -5.815935 -0.476944
-6.105306 -5.993959 -0.462225
-5.664629 -6.036575 -0.469110
-7.002780 -6.040728 -0.411066
-6.551399 -6.076397 -0.382242
-6.144239 -6.276797 -0.482201
-5.689351 -6.303285 -0.412024
-7.066319 -6.345926 -0.534714
-6.612267 -6.381053 -0.506548
-6.163301 -6.538190 -0.393644
-5.713633 -6.569531 -0.352633
-7.100944 -6.625341 -0.521299
-6.644213 -6.657623 -0.483860
-6.187230 -6.804937 -0.331726
-5.737473 -6.835294 -0.290941
-7.120763 -6.890248 -0.438496
-6.662293 -6.919391 -0.391661
-6.223262 -7.086577 -0.334629
-5.774117 -7.118289 -0.303835
-7.146310 -7.160916 -0.382050
-6.695345 -7.197930 -0.373718
-6.246352 -7.352882 -0.267963
-5.802117 -7.390604 -0.266161
-7.188034 -7.449539 -0.399321
-6.733841 -7.483699 -0.381855
-6.283449 -7.637589 -0.275368
-5.838063 -7.674804 -0.273895
-7.210679 -7.717739 -0.328493
-6.764208 -7.760683 -0.349283
-6.318394 -7.920619 -0.270594
-5.873672 -7.959784 -0.278982
-7.241229 -7.995192 -0.293209
-6.794176 -8.037756 -0.314220
-6.356623 -8.209307 -0.282202
-5.908939 -8.245516 -0.281414
-7.271377 -8.272710 -0.255430
-6.813936 -8.302094 -0.229340
-6.392690 -8.496268 -0.281612
-5.943857 -8.531977 -0.281170
-7.326365 -8.581785 -0.328152
-6.858805 -8.600013 -0.264940
-6.430237 -8.786635 -0.287783
-6.054805 -8.941552 -0.704483
-7.364216 -8.871204 -0.322636
-6.905343 -8.902016 -0.307060
-6.544753 -9.194879 -0.687090
-6.094415 -9.241549 -0.726057
-7.399585 -9.158490 -0.305035
-6.983273 -9.250482 -0.496458
-6.578174 -9.484655 -0.667845
-6.121723 -9.522483 -0.678795
-7.477037 -9.503754 -0.471542
-7.057124 -9.597279 -0.663290
-6.622326 -9.792596 -0.702141
-6.155472 -9.815248 -0.666571
-7.567122 -9.870515 -0.690149
-7.108907 -9.915088 -0.723635
-6.656862 -10.086780 -0.686672
-6.202619 -10.133020 -0.726515
-7.610146 -10.175087 -0.700340
-7.142409 -10.207265 -0.696981
-6.692877 -10.384645 -0.677742
-6.228739 -10.415068 -0.671186
-7.648531 -10.474453 -0.689054
-7.175511 -10.499825 -0.667597
-6.732254 -10.689610 -0.684544
-6.270027 -10.725942 -0.697083
-7.692972 -10.784118 -0.702587
-7.228310 -10.824972 -0.727976
-6.773145 -10.998858 -0.697626
-6.307497 -11.031550 -0.701334
-7.717687 -11.065352 -0.630297
-7.262665 -11.122347 -0.702021
-6.808033 -11.299155 -0.679977
-6.339365 -11.327997 -0.674854
-7.780776 -11.406858 -0.720465
-7.304700 -11.433732 -0.710003
-6.853846 -11.620737 -0.714622
-6.377826 -11.638744 -0.682428
-7.826287 -11.723324 -0.733910
-7.346364 -11.746207 -0.714903
-6.893642 -11.933307 -0.718496
-6.415919 -11.950571 -0.686926
-7.867096 -12.033948 -0.725981
-7.387653 -12.059742 -0.716702
-6.933061 -12.246924 -0.719269
-6.453634 -12.263449 -0.688324
-7.911856 -12.352659 -0.733131
-7.430595 -12.377935 -0.724472
-6.972095 -12.561559 -0.716919
-6.498028 -12.592160 -0.723091
-7.945348 -12.654072 -0.691895
-7.471117 -12.693581 -0.719982
-6.993576 -12.843278 -0.629845
-6.527910 -12.892232 -0.681770
-7.987133 -12.970895 -0.683779
-7.501014 -12.991247 -0.667217
-7.056626 -13.209142 -0.738913
-5.861841 -11.678114 2.910509
-6.569779 -13.219666 -0.700937
-8.035074 -13.300205 -0.699390
-5.750877 -9.930604 7.191977
-7.557116 -13.339353 -0.728506
-5.464215 -10.185523 6.927912
-7.086820 -13.511254 -0.690983
-5.835778 -11.829266 3.214226
-6.597043 -13.516961 -0.644602
-6.167879 -10.195679 7.093565
-8.091394 -13.646618 -0.747322
-5.782305 -10.171327 7.192589
-7.602606 -13.669893 -0.741272
-6.083643 -11.658465 4.179886
-7.122328 -13.825642 -0.667030
-5.718150 -11.770882 3.976383
-6.632769 -13.834471 -0.630348
-6.222392 -10.478524 7.008566
-8.145161 -13.991003 -0.782650
-5.813433 -10.412871 7.195656
-6.797475 -12.338237 2.932671
-7.639469 -13.985671 -0.714945
-5.489295 -10.599072 7.095873
-7.168954 -14.165242 -0.693485
-5.197413 -10.777180 6.747458
-5.751370 -12.048694 3.975023
-6.680587 -14.181557 -0.675508
-6.195316 -10.612464 7.254503
-5.811253 -10.589504 7.343290
-6.774518 -12.507422 3.195688
-7.686215 -14.322667 -0.729879
-5.508976 -10.821555 7.147032
-7.215195 -14.506460 -0.716349
-5.187883 -10.935419 6.942223
-6.202962 -10.809596 7.359793
-8.225119 -14.635081 -0.736439
-5.870635 -10.889960 7.226889
-7.732562 -14.661102 -0.741285
-5.508990 -11.001592 7.288774
-6.192812 -12.503327 4.156878
-5.167108 -11.065558 7.191109
-6.749988 -14.821876 -0.630461
-6.141811 -10.874146 7.738945
-5.851140 -11.031337 7.448648
-7.770220 -14.983885 -0.713911
-5.520188 -11.205940 7.379004
-5.187177 -11.291961 7.237345
-6.164025 -11.097163 7.785120
-5.822859 -11.152328 7.706102
-6.563187 -12.702342 4.576525
-7.809509 -15.311751 -0.692039
-5.521309 -11.387614 7.514872
-5.214103 -11.536114 7.250610
-6.826653 -15.487339 -0.616411
-6.183678 -11.315873 7.842167
-5.875074 -11.442033 7.623499
-6.500292 -12.772279 4.996780
-5.605522 -11.760262 7.276775
-6.166788 -13.053714 4.754066
-7.374774 -15.837545 -0.675434
-5.282218 -11.884278 7.065145
-6.881486 -15.864398 -0.687311
-6.424642 -11.982338 7.035093
-6.839154 -12.819789 5.415295
-8.417404 -16.008377 -0.752075
-5.879189 -11.630708 7.744061
-6.445051 -12.853817 5.381393
-7.905473 -16.010517 -0.716379
-5.300538 -11.227509 8.781233
-5.695425 -12.151717 7.017487
-6.140889 -13.194295 5.027842
-5.268777 -12.031034 7.275990
-5.677431 -13.063707 5.307695
-6.907009 -16.170868 -0.614609
-6.164205 -11.634593 8.186668
-6.506042 -12.336108 6.859032
-8.457183 -16.340216 -0.718849
-6.003739 -12.083469 7.364729
-7.933020 -16.318703 -0.640787
-5.339031 -11.488560 8.743563
-5.750114 -12.465391 6.919035
-6.124181 -13.354260 5.258799
-5.274788 -12.226150 7.392225
-6.931743 -13.411957 5.357662
-8.496493 -16.672810 -0.682207
-5.794405 -11.799873 8.368320
-6.147005 -12.585773 6.914314
-6.507949 -13.390276 5.425894
-5.404557 -11.817081 8.588369
-7.509812 -16.894821 -0.696489
-5.167921 -12.127399 8.044893
-7.001936 -16.901894 -0.675924
-6.165245 -11.991960 8.449808
-8.548682 -17.034374 -0.693354
-5.795097 -11.976871 8.500135
-8.051393 -17.081551 -0.746021
-5.419068 -12.024960 8.659958
-7.548728 -17.237389 -0.673054
-5.701630 -13.712044 5.663996
-7.033315 -17.229425 -0.627554
-6.131738 -12.096842 8.710876
-8.587053 -17.368832 -0.649570
-5.835132 -12.243755 8.471479
-8.077524 -17.391983 -0.660103
-5.360833 -12.052803 9.048717
-7.598910 -17.610079 -0.697115
-5.002936 -12.034891 9.099964
-7.086039 -17.615973 -0.678310
-6.180285 -12.377887 8.659342
-8.662854 -17.786551 -0.745979
-5.897895 -12.565798 8.352629
-8.124085 -17.751093 -0.655909
-5.372572 -12.252349 9.131079
-5.772157 -13.258702 7.402155
-7.642765 -17.969818 -0.691589
-5.017877 -12.243445 9.164726
-7.129220 -17.980076 -0.682171
-6.192808 -12.581903 8.745604
-6.652772 -13.598446 7.013939
-8.704746 -18.133417 -0.711315
-5.782188 -12.469943 8.954372
-8.178563 -18.131384 -0.681517
-5.405516 -12.506513 9.122555
-7.688107 -18.335913 -0.690573
-5.008753 -12.386515 9.341372
-5.871472 -14.763147 5.343843
-7.166462 -18.330610 -0.656673
-6.207191 -12.790425 8.825394
-8.746142 -18.481153 -0.672972
-5.810648 -12.711379 8.973951
-8.222084 -18.488461 -0.660900
-5.524515 -12.985468 8.747919
-5.915165 -13.996920 7.079250
-7.729043 -18.693302 -0.668749
-5.022956 -12.593749 9.409582
-6.071320 -12.657959 9.464310
-6.576881 -13.806903 7.584965
-5.712724 -12.647359 9.496515
-6.130769 -13.662719 7.836884
-5.438995 -12.935763 9.247477
-7.775378 -19.067280 -0.668064
-5.034973 -12.795611 9.488163
-7.248607 -19.060549 -0.636189
-6.084829 -12.860761 9.544954
-6.718422 -14.320425 7.204687
-8.865477 -19.266775 -0.725752
-5.792951 -13.015099 9.311180
-6.205056 -14.029659 7.685623
-8.337073 -19.278454 -0.724148
-5.437492 -13.103197 9.387764
-7.823185 -19.448008 -0.671497
-5.086880 -13.112542 9.385765
-5.366826 -13.915357 8.113749
-7.302660 -19.466846 -0.682268
-6.693954 -14.454738 7.440302
-8.905369 -19.618147 -0.675472
-5.841356 -13.308422 9.254471
-6.255898 -14.342661 7.629845
-8.372799 -19.624098 -0.666464
-5.526141 -13.513190 9.150030
-7.874428 -19.840969 -0.687128
-5.037769 -13.139688 9.742023
-6.713861 -14.692141 7.512905
-8.960426 -20.007366 -0.678659
-6.735978 -15.743732 5.905174
-8.433265 -20.034191 -0.703518
-5.464822 -13.519804 9.541002
-5.112820 -13.528365 9.538177
-5.415231 -14.418302 8.182056
-7.385480 -20.216366 -0.653275
-6.233070 -13.730288 9.400242
-7.318908 -16.332954 5.466707
-9.019454 -20.409029 -0.693661
-5.922443 -13.863495 9.208813
-6.375491 -15.023626 7.456287
-8.482691 -20.419584 -0.694994
-5.572546 -13.989270 9.229488
-5.984518 -15.128258 7.526234
-5.211436 -13.992765 9.233410
-7.428859 -20.601324 -0.644751
-6.175570 -13.766048 9.741423
-6.750211 -15.161196 7.673342
-9.073470 -20.801727 -0.687838
-5.885509 -13.943695 9.486626
-6.418942 -15.327188 7.436676
-5.561667 -14.134045 9.410748
-6.062634 -15.536604 7.353212
-5.137274 -13.943042 9.698702
-5.946619 -16.385435 6.117111
-7.469875 -20.982233 -0.623743
-9.108983 -21.151846 -0.613289
-5.871345 -14.081045 9.675552
-8.582056 -21.200369 -0.672869
-5.615498 -14.461335 9.327198
-8.072263 -21.425438 -0.696180
-5.279312 -14.548216 9.208900
-5.809987 -16.169523 6.876123
-9.193358 -21.625418 -0.710550
-5.787129 -14.030991 10.129337
-8.636199 -21.607035 -0.675123
-5.629495 -14.677960 9.407825
-6.389542 -16.858986 6.327572
-8.116920 -21.815857 -0.673008
-5.288818 -14.754110 9.305822
-7.566805 -21.799032 -0.641029
-6.137510 -14.189306 10.274466
-9.245733 -22.023180 -0.690853
-5.822797 -14.297956 10.127207
-8.689786 -22.015484 -0.672634
-5.607556 -14.791087 9.633713
-8.162989 -22.213354 -0.653332
-5.259339 -14.838669 9.572100
-7.613523 -22.207346 -0.638508
-6.141264 -14.370326 10.393436
-9.302032 -22.433857 -0.682331
-5.765180 -14.312951 10.475887
-8.742808 -22.425673 -0.665365
-5.648416 -15.087207 9.607174
-5.435331 -15.571858 8.951212
-6.140137 -14.538789 10.529652
-6.513389 -15.502472 9.230577
-9.375742 -22.892656 -0.731602
-5.846559 -14.707298 10.305075
-8.807926 -22.872490 -0.700394
-5.635549 -15.226337 9.796101
-8.269205 -23.059601 -0.662998
-5.276358 -15.244739 9.773600
-5.599965 -16.281866 8.388954
-6.514173 -15.687155 9.369091
-5.929689 -15.111752 10.131922
-5.841609 -16.023352 9.120733
-8.319456 -23.479637 -0.652479
-5.302662 -15.506526 9.799124
-6.218431 -18.475773 5.907423
-6.640487 -16.203539 9.076834
-9.494399 -23.747072 -0.720432
-6.206807 -16.069099 9.251892
-8.925829 -23.743647 -0.715309
-5.746928 -15.919281 9.634497
-6.165843 -17.194490 7.993540
-8.377007 -23.925428 -0.667946
-5.295468 -15.660524 9.967367
-6.783184 -20.539976 3.688374
-6.622454 -16.341579 9.282816
-9.561808 -24.201046 -0.737856
-6.225781 -16.307436 9.325691
-5.859313 -16.446198 9.337582
-8.414183 -24.312569 -0.601116
-5.409239 -16.215403 9.627996
-6.727704 -20.589191 4.101646
-6.621994 -16.525938 9.428616
-9.610597 -24.608648 -0.688805
-6.309823 -16.734890 9.165285
-9.032831 -24.598413 -0.678614
-5.811230 -16.481363 9.666605
-7.097395 -20.486334 4.698093
-4.890095 -14.655644 11.929565
-5.419616 -16.432123 9.725451
-6.769512 -17.114929 9.077148
-7.819530 -19.986870 5.547514
-6.188542 -16.568197 9.746284
-7.436834 -20.213757 5.265242
-5.201773 -14.745606 12.146444
-6.264469 -18.091845 8.069956
-5.786191 -17.858217 8.351046
-7.960793 -25.235476 -0.637619
-6.662529 -17.009010 9.582355
-5.568534 -14.920835 12.098890
-6.191482 -16.760448 9.878471
-6.630713 -18.057531 8.312891
-5.253776 -15.073316 12.073860
-6.316170 -18.455748 8.027275
-4.946632 -15.174992 11.948351
-6.577648 -16.958323 10.009428
-7.096777 -18.409990 8.289177
-5.742240 -15.602858 11.611198
-6.200338 -16.970612 9.989998
-5.333010 -15.492462 11.901138
-8.667090 -26.224104 -0.707903
-4.937578 -15.308785 12.112192
-5.788079 -18.258142 8.645947
-6.436241 -16.742636 10.618631
-7.132664 -18.711391 8.327560
-5.603127 -15.352095 12.231583
-6.719453 -18.721594 8.309288
-5.238169 -15.350924 12.386377
-4.884095 -15.286425 12.455244
-6.002612 -15.683264 12.175642
-5.666251 -15.709371 12.139614
-9.330118 -26.888062 -0.640440
-5.770176 -17.264561 10.529850
-8.771712 -27.136221 -0.658960
-5.035823 -15.987463 11.970709
-6.402927 -20.831612 6.478191
-6.031361 -15.932816 12.213167
-6.408432 -17.021866 10.990801
-10.010805 -27.426193 -0.687191
-5.667796 -15.881005 12.264257
-6.163224 -17.408791 10.548761
-5.402437 -16.225040 12.031858
-5.731580 -17.319111 10.813833
-5.034778 -16.153210 12.104326
-5.966377 -19.489515 8.388470
-6.046239 -16.143705 12.296972
-10.072802 -27.896496 -0.659155
-6.174628 -17.627611 10.652431
-9.457247 -27.857895 -0.630394
-5.371580 -16.291578 12.276510
-5.051676 -16.384197 12.166847
-6.002754 -19.826387 8.400829
-6.363359 -17.247038 11.416565
-10.129576 -28.355341 -0.610956
-6.259292 -18.078087 10.506975
-6.926745 -20.180075 8.229906
-9.518653 -28.342680 -0.612606
-5.365970 -16.441925 12.427568
-5.005909 -16.387686 12.476717
-6.372740 -17.452827 11.527134
-6.816305 -18.774704 10.121328
-5.769031 -16.704880 12.312801
-5.418976 -16.793234 12.366343
-6.077590 -20.517643 8.423939
-6.442139 -17.840029 11.449739
-6.791345 -18.891422 10.351454
-5.758457 -16.841866 12.481848
-6.401741 -18.909969 10.320196
-5.465607 -17.126537 12.331089
-9.086435 -29.672945 -0.674377
-6.061193 -20.667473 8.647306
-8.451666 -29.592962 -0.610538
-6.810719 -19.141623 10.442400
-5.755913 -17.004482 12.623846
-6.436428 -19.214668 10.354578
-5.407732 -17.097700 12.671104
-5.047563 -17.054935 12.703011
-6.834088 -19.405483 10.522329
-7.741331 -22.192776 7.713144
-5.790751 -17.289854 12.642313
-6.453821 -19.465227 10.448299
-9.777561 -30.369631 -0.549534
-5.471139 -17.494019 12.579174
-9.200143 -30.679935 -0.611223
-5.044200 -17.214785 12.846092
-8.548989 -30.570383 -0.523760
-6.256452 -17.806057 12.450087
-10.524799 -31.050955 -0.662058
-5.898489 -17.819395 12.423557
-6.864806 -21.021547 9.251089
-9.864370 -30.961414 -0.596640
-5.532049 -17.886366 12.499735
-9.270450 -31.238674 -0.621561
-5.058667 -17.443565 12.921640
-5.690639 -19.876223 10.529215
-7.002007 -20.317986 10.317642
-7.291914 -21.226517 9.434170
-10.594627 -31.576796 -0.630613
-5.773180 -17.576420 12.969797
-5.469187 -17.837040 12.854935
-9.337923 -31.793032 -0.617691
-5.138179 -17.926971 12.753872
-7.308882 -21.487886 9.548357
-10.674724 -32.139893 -0.626024
-5.877803 -18.102671 12.766932
-6.896262 -21.545036 9.476070
-10.001828 -32.041782 -0.558683
-9.406458 -32.356976 -0.613253
-5.438651 -19.284904 11.767355
-8.762390 -32.337177 -0.621391
-10.736113 -32.648636 -0.560591
-6.907030 -21.792095 9.606359
-10.081760 -32.628048 -0.569262
-5.883062 -19.711645 11.706467
-6.485792 -21.929157 9.640682
-5.465785 -19.582922 11.809475
-10.838836 -33.295086 -0.614191
-6.239386 -19.702230 11.894426
-10.169095 -33.245884 -0.598473
-9.544662 -33.506748 -0.595131
-5.568444 -20.186325 11.576374
-6.127932 -22.427217 9.523697
-6.644288 -19.949516 12.008945
-10.911701 -33.851223 -0.573771
-6.264659 -19.979584 11.963339
-10.230451 -33.779934 -0.540436
-6.248076 -21.464945 10.769932
-6.679790 -23.084442 9.314167
-9.604560 -34.056168 -0.548321
-5.905307 -21.745886 10.497223
-11.003559 -34.474972 -0.584316
-10.307514 -34.374130 -0.527473
-6.269817 -21.753536 10.855139
-6.685292 -23.327188 9.465679
-9.675158 -34.651592 -0.533253
-5.921145 -22.021833 10.597151
-11.085537 -35.072330 -0.560661
-10.400190 -35.029785 -0.557995
-6.345271 -22.249868 10.763903
-6.746464 -23.784033 9.433384
-5.884208 -22.082352 10.887383
-11.168706 -35.679520 -0.535282
-6.770624 -22.365084 10.858858
-6.342584 -22.450836 10.934361
-9.805577 -35.819965 -0.453537
-5.956574 -22.596050 10.787714
-9.132897 -35.821739 -0.491522
-9.861529 -36.377213 -0.376743
-9.181889 -36.371433 -0.409946
-9.929956 -36.989071 -0.336205
-9.242401 -36.975746 -0.364910
-10.001142 -37.618435 -0.299669
-9.287549 -37.520958 -0.262228
-10.073123 -38.257847 -0.260595
-9.344141 -38.121273 -0.195223
-9.387182 -38.669075 -0.077772
-9.413201 -39.147503 0.100683
-0.622772 -0.386688 29.757109
-0.611467 -0.355492 29.779808
-9.437551 -39.993164 0.557283
-0.622466 -0.389899 29.761452
-0.605938 -0.334209 29.800694
-0.616648 -0.367293 29.780470
-0.618058 -0.391970 29.762980
-0.608976 -0.336254 29.804613
-0.609174 -0.352891 29.792978
-0.605094 -0.321123 29.817263
-0.603818 -0.329650 29.811302
-0.608711 -0.338622 29.808058
-0.601956 -0.322551 29.818373
-0.616029 -0.372818 29.788507
-0.601830 -0.323616 29.819965
-0.608431 -0.340930 29.811541
-0.601700 -0.324667 29.821566
-0.615695 -0.375476 29.792595
-0.610142 -0.367551 29.797190
-0.613675 -0.368378 29.799757
-0.606558 -0.351974 29.809423
-0.602994 -0.336197 29.821371