# This PCD file was generated using the MATLAB® pcwrite function
# from Computer Vision System Toolbox®.
# .PCD v.7 - Point Cloud Data file format
VERSION .7
FIELDS x y z
SIZE 4 4 4
TYPE F F F
COUNT 1 1 1
WIDTH 964
HEIGHT 1
VIEWPOINT 0 0 0 1 0 0 0
POINTS 964
DATA ascii
2.624543 31.699905 -0.737431
3.229187 31.245197 -0.433992
2.563684 31.297052 -0.882385
3.169102 30.945961 -0.673178
2.502629 30.787371 -0.917183
3.109422 30.659124 -0.923491
2.442516 30.307636 -0.973808
3.046922 30.250664 -1.050293
2.383102 29.815241 -1.010111
2.983665 29.786512 -1.114971
2.324490 29.435345 -1.155554
2.920118 29.275118 -1.123323
2.266585 28.869774 -1.100407
2.856821 28.731552 -1.088692
2.210013 28.246130 -0.971828
2.792754 28.082184 -0.929462
2.153517 27.842545 -1.071180
2.730536 27.464607 -0.790907
2.097722 27.412649 -1.136051
2.675089 27.277737 -1.121367
2.043330 26.904379 -1.105755
2.615643 26.750858 -1.067476
1.991477 26.267754 -0.917797
2.558015 26.318373 -1.112801
1.938850 25.791943 -0.903925
2.500367 25.790136 -1.038486
1.883722 25.517199 -1.121904
2.444043 25.322741 -1.026508
1.831740 25.075550 -1.136534
2.388564 24.870144 -1.024214
1.781677 24.579018 -1.075813
2.333828 24.381887 -0.969620
1.730050 24.191063 -1.141994
2.279908 23.964617 -0.995203
1.679732 23.773062 -1.164330
2.226239 23.646803 -1.142269
1.630931 23.326097 -1.142054
2.173263 23.249437 -1.182714
1.581964 22.911345 -1.154320
2.121157 22.817184 -1.170559
1.532631 22.527824 -1.201939
2.069585 22.404654 -1.177402
1.485977 22.086491 -1.164305
2.018666 21.993710 -1.179417
1.438966 21.676497 -1.162077
1.968863 21.555489 -1.135843
1.392615 21.268192 -1.155077
1.918906 21.171085 -1.160870
1.347956 20.838995 -1.110374
1.868908 20.816072 -1.222824
1.302720 20.440104 -1.102018
1.821059 20.389153 -1.172991
2.314465 20.138218 -1.236002
2.832884 20.095619 -1.319845
1.254999 20.103579 -1.180790
1.772818 20.008642 -1.184910
2.263843 19.720530 -1.186855
2.777867 19.650993 -1.228603
1.210308 19.718235 -1.180588
1.725784 19.607750 -1.158958
2.213660 19.364292 -1.225574
2.724833 19.262987 -1.216434
1.164345 19.366617 -1.226620
1.678038 19.251627 -1.195950
2.164066 18.992962 -1.234991
2.672234 18.866098 -1.182873
1.130848 18.819693 -0.955290
1.634314 18.796007 -1.067774
2.115301 18.596788 -1.197660
2.620235 18.466022 -1.136209
1.085248 18.487856 -1.017704
1.588762 18.416943 -1.053547
2.075721 17.574099 -0.110228
2.067013 18.218140 -1.181503
2.565878 17.837149 -0.698761
1.035783 18.218138 -1.179455
1.552176 17.839346 -0.700472
2.023078 17.612646 -0.773466
2.518545 17.687759 -1.054930
1.021473 17.459782 -0.512388
1.509736 17.436178 -0.624331
1.976134 17.265755 -0.790194
2.468737 17.304239 -1.011982
0.970737 17.229412 -0.725786
1.458653 17.230040 -0.881491
1.927463 17.018473 -0.977201
2.419569 16.917871 -0.955980
0.909644 17.124708 -1.163475
1.411372 16.942207 -0.997982
1.881209 16.672176 -0.987337
2.371268 16.591793 -1.000631
0.877373 16.659647 -0.963848
1.366397 16.614979 -1.041765
1.833791 16.384314 -1.099180
2.323350 16.323320 -1.147455
0.837420 16.299587 -0.942852
1.324339 16.245441 -1.003063
1.790759 15.964109 -0.961243
2.275798 15.941154 -1.079857
0.796736 15.955235 -0.944397
1.279949 15.924631 -1.048601
1.743392 15.695539 -1.102018
2.228634 15.616663 -1.114462
0.756990 15.607450 -0.933434
1.242713 15.502943 -0.895716
1.703196 15.243773 -0.884272
2.181857 15.292769 -1.145741
0.719147 15.247415 -0.892080
1.203204 15.130375 -0.826979
1.655730 14.993710 -1.054516
2.136318 14.898253 -1.030455
0.673856 14.965208 -0.998699
1.153971 14.898129 -1.031515
1.612317 14.653953 -1.043087
2.090534 14.576890 -1.054527
0.633586 14.638391 -1.012999
1.108785 14.610991 -1.126453
1.567662 14.350049 -1.100229
2.045464 14.239035 -1.039211
0.591237 14.334005 -1.069002
1.069581 14.254598 -1.074341
1.525840 13.999630 -1.054810
2.000897 13.902535 -1.020350
0.553288 13.995869 -1.049679
1.030988 13.900201 -1.018391
1.484115 13.659391 -1.023825
1.955982 13.600566 -1.070776
0.513211 13.679915 -1.072237
0.988339 13.597500 -1.067776
1.443700 13.308495 -0.961882
1.912803 13.250010 -1.008625
0.476214 13.344232 -1.046066
0.950817 13.246268 -1.004663
1.401459 12.995713 -0.978624
1.869574 12.921468 -0.988575
0.442496 12.990037 -0.970663
0.911002 12.925010 -1.001951
1.360168 12.675792 -0.973866
1.828297 12.555220 -0.873087
0.397521 12.720421 -1.084318
0.869477 12.624291 -1.041979
1.318718 12.364614 -0.984325
1.785056 12.256965 -0.910620
0.363661 12.376877 -1.020491
0.830025 12.308560 -1.042183
1.275786 12.076784 -1.047258
1.741429 11.973983 -0.982357
0.330992 12.031631 -0.943811
0.790987 11.993770 -1.039236
1.232759 11.792472 -1.116791
1.698004 11.690680 -1.051477
0.282573 11.787937 -1.114038
0.748146 11.712895 -1.116802
1.193649 11.468228 -1.081154
1.657176 11.364064 -1.005980
0.248325 11.459451 -1.068188
0.710304 11.395769 -1.098558
1.157140 11.124352 -0.986109
1.617723 11.025096 -0.919683
0.208907 11.164283 -1.103052
0.676373 11.055340 -1.011667
1.116560 10.827714 -1.009413
1.599428 10.377003 0.024954
0.176239 10.835012 -1.041426
0.634946 10.771955 -1.071365
1.137314 9.987226 0.494728
1.074793 10.544943 -1.067528
1.571970 9.916498 0.497839
0.132925 10.564654 -1.136211
0.709932 9.744303 0.970533
0.590607 10.508381 -1.184935
1.107668 9.635840 0.679876
1.537123 9.582317 0.636183
0.124664 10.123317 -0.738476
0.629113 9.739126 0.167021
1.073650 9.329966 0.745804
1.479455 9.534135 -0.065426
0.172659 9.434481 0.420687
0.066505 9.928926 -1.044493
0.623020 9.276516 0.687056
1.036834 9.050871 0.738886
1.428821 9.378546 -0.473627
0.152314 9.086649 0.612820
0.586218 9.002928 0.662111
0.981484 8.905766 0.315760
1.394276 9.041803 -0.328524
0.125728 8.773114 0.713663
0.508438 8.946205 -0.045687
0.931061 8.715661 0.017132
1.358955 8.722933 -0.227659
0.065018 8.603264 0.360275
0.476526 8.640879 0.018572
0.884712 8.492377 -0.184660
1.321082 8.434974 -0.219353
0.011788 8.396462 0.112831
0.447518 8.325964 0.124136
0.846095 8.218922 -0.221693
1.285541 8.131220 -0.150677
-0.022300 8.113798 0.115822
0.412397 8.043884 0.127373
0.809629 7.934655 -0.217766
1.241283 7.901716 -0.338942
-0.033959 7.753692 0.399876
0.370120 7.794600 0.017883
0.769558 7.672011 -0.288277
1.202878 7.625375 -0.361393
-0.064685 7.466995 0.437672
0.325963 7.551794 -0.118406
0.729622 7.408737 -0.356483
1.171712 7.301444 -0.197554
-0.137511 7.317962 -0.042540
0.277868 7.322257 -0.310646
0.702252 7.086054 -0.190016
1.130654 7.049014 -0.301781
-0.169693 7.034111 -0.019724
0.242824 7.041431 -0.307541
0.661305 6.830693 -0.282202
1.092775 6.776543 -0.326162
-0.205569 6.762992 -0.042665
0.214845 6.737789 -0.204853
0.622597 6.565135 -0.333313
1.055544 6.501914 -0.338341
-0.253576 6.526110 -0.208700
0.171631 6.488370 -0.322699
0.589615 6.277224 -0.284678
1.021090 6.214505 -0.289516
-0.296687 6.273699 -0.314507
0.135412 6.215675 -0.341097
0.555920 5.994872 -0.252838
0.984047 5.943096 -0.306362
-0.327874 5.990451 -0.281832
0.102290 5.934787 -0.318018
0.516796 5.733823 -0.316128
0.949467 5.661808 -0.271826
-0.367307 5.728440 -0.344088
0.066621 5.662775 -0.331427
0.483135 5.454631 -0.289013
0.914354 5.385415 -0.254282
-0.397864 5.446428 -0.306337
0.034891 5.381375 -0.293457
0.449828 5.176336 -0.259331
0.878168 5.115272 -0.263668
-0.429816 5.169194 -0.285557
0.002041 5.104720 -0.272493
0.415024 4.904282 -0.256563
0.844634 4.836592 -0.221458
-0.459637 4.889188 -0.242651
-0.032760 4.834071 -0.278456
0.379244 4.636037 -0.271011
0.809025 4.567377 -0.225916
-0.498187 4.627111 -0.295328
-0.066528 4.562032 -0.272161
0.344985 4.364699 -0.263367
0.771663 4.304789 -0.267405
-0.527363 4.348523 -0.247431
-0.103935 4.298346 -0.312637
0.310361 4.095355 -0.263145
0.736529 4.035823 -0.267096
-0.558023 4.074123 -0.216671
-0.132401 4.017876 -0.242384
0.276002 3.826338 -0.260515
0.701134 3.768599 -0.274267
-0.590240 3.803422 -0.203136
-0.169337 3.754416 -0.278097
0.244621 3.552284 -0.215944
0.669220 3.493583 -0.219681
-0.626959 3.539942 -0.236500
-0.202814 3.485343 -0.271988
0.208089 3.289369 -0.248062
0.632731 3.230976 -0.251760
-0.659618 3.271146 -0.228054
-0.236019 3.216650 -0.263477
0.177347 3.016761 -0.198622
0.600926 2.958821 -0.202200
-0.696918 3.008583 -0.266634
-0.272331 2.952955 -0.292170
0.141266 2.753962 -0.226051
0.564888 2.696331 -0.229597
-0.724113 2.734776 -0.204000
-0.300749 2.679425 -0.229391
0.108268 2.486897 -0.211481
0.529032 2.433585 -0.254690
-0.759971 2.471221 -0.228004
-0.333984 2.413061 -0.223642
0.077758 2.217538 -0.164751
0.498149 2.163417 -0.197943
-0.788515 2.201085 -0.180349
-0.366083 2.146098 -0.205618
0.042359 1.954981 -0.185183
0.460317 1.904160 -0.258165
-0.814648 1.930306 -0.110470
-0.394331 1.876402 -0.145521
0.007150 1.692230 -0.203312
0.429421 1.636033 -0.206633
-0.859126 1.674137 -0.216707
-0.436662 1.619392 -0.241955
-0.024009 1.426017 -0.169394
0.397613 1.370219 -0.172642
-0.888879 1.407158 -0.181803
-0.467087 1.352623 -0.206974
-0.062688 1.166223 -0.232653
0.359665 1.110647 -0.235941
-0.920448 1.142025 -0.164400
-0.499053 1.087664 -0.189520
-0.094136 0.901070 -0.204041
0.327706 0.845876 -0.207272
-0.958204 0.880145 -0.204250
-0.532629 0.824016 -0.189629
-0.124487 0.636097 -0.163137
0.293368 0.583203 -0.216152
-0.988218 0.614912 -0.172279
-0.567878 0.561183 -0.207323
-0.161874 0.374698 -0.209560
0.256517 0.321612 -0.262625
-1.023428 0.351803 -0.187654
-0.601986 0.297806 -0.212765
-0.196662 0.111858 -0.223803
0.225301 0.057595 -0.227011
-1.057345 0.088241 -0.190790
-0.635887 0.034365 -0.215897
-0.233782 -0.150794 -0.265636
0.188773 -0.204816 -0.268885
-1.091053 -0.175366 -0.191612
-0.669579 -0.229120 -0.216722
-0.259729 -0.414848 -0.175632
0.158063 -0.468229 -0.228657
-1.123417 -0.439041 -0.180195
-0.703059 -0.492629 -0.215239
-0.297320 -0.677842 -0.222816
0.121871 -0.731381 -0.265919
-1.161256 -0.702761 -0.216139
-0.740343 -0.756384 -0.251242
-0.333932 -0.941575 -0.257719
0.088741 -0.994664 -0.260979
-1.195506 -0.966768 -0.219963
-0.773435 -1.020227 -0.245134
-0.366883 -1.205144 -0.250463
0.052851 -1.258823 -0.293610
-1.233049 -1.231561 -0.251261
-0.810412 -1.284968 -0.276497
-0.403187 -1.469843 -0.280724
0.017096 -1.523628 -0.323912
-1.265757 -1.495780 -0.240515
-0.842068 -1.548746 -0.255812
-0.438448 -1.734788 -0.298693
-0.015458 -1.787465 -0.312023
-1.301796 -1.761088 -0.257219
-0.878716 -1.814306 -0.282511
-0.472633 -1.999697 -0.304377
-0.047786 -2.051216 -0.297825
-1.338866 -2.027295 -0.281500
-0.920511 -2.082927 -0.356516
-0.504780 -2.263739 -0.287846
-0.080672 -2.315431 -0.291271
-1.376997 -2.294637 -0.313334
-0.947305 -2.344875 -0.289139
-0.536697 -2.527653 -0.269005
-0.105372 -2.573116 -0.182936
-1.408915 -2.559466 -0.293262
-0.987788 -2.614477 -0.348465
-0.559864 -2.784882 -0.158495
-0.132884 -2.832076 -0.112175
-1.449186 -2.829278 -0.340153
-1.005328 -2.869508 -0.197210
-0.591218 -3.047706 -0.135105
-0.171515 -3.101631 -0.178240
-1.464619 -3.083707 -0.186834
-1.037755 -3.133856 -0.182503
-0.626201 -3.313941 -0.149069
-0.202635 -3.364304 -0.152546
-1.498257 -3.349299 -0.179632
-1.069963 -3.398180 -0.165474
-0.657117 -3.576716 -0.121048
-0.233515 -3.626770 -0.124557
-1.532950 -3.616012 -0.179955
-1.099709 -3.660438 -0.126350
-0.687791 -3.839265 -0.090729
-0.264153 -3.889010 -0.094275
-1.564923 -3.880845 -0.158186
-1.140488 -3.933254 -0.183699
-0.726194 -4.110827 -0.137173
-0.301415 -4.160402 -0.140842
-1.600501 -4.149087 -0.163641
-1.170943 -4.196715 -0.149767
-0.756454 -4.373551 -0.102171
-0.335114 -4.427859 -0.145414
-1.624322 -4.406480 -0.078157
-1.199998 -4.458630 -0.103682
-0.790531 -4.641304 -0.104311
-0.368642 -4.695716 -0.147589
-1.655576 -4.670736 -0.049444
-1.226462 -4.717366 -0.035643
-0.824432 -4.909435 -0.104053
-0.445513 -5.034135 -0.630360
-1.700967 -4.950492 -0.126335
-1.270149 -4.996873 -0.112785
-0.912022 -5.255958 -0.612673
-0.478263 -5.305405 -0.617222
-1.734487 -5.218392 -0.112415
-1.324419 -5.291829 -0.275610
-0.941880 -5.522885 -0.567577
-0.504457 -5.565610 -0.532866
-1.783712 -5.505565 -0.213501
-1.394274 -5.610962 -0.562880
-0.971472 -5.789437 -0.520151
-0.537644 -5.838268 -0.524809
-1.869011 -5.840243 -0.575533
-1.434568 -5.893102 -0.602232
-1.013570 -6.076677 -0.587841
-0.578050 -6.125407 -0.592686
-1.907768 -6.119939 -0.592604
-1.463899 -6.160332 -0.551071
-1.042737 -6.343441 -0.535563
-0.607184 -6.391863 -0.540466
-1.936905 -6.387455 -0.538965
-1.502688 -6.442070 -0.575563
-1.075964 -6.617475 -0.519964
-0.643604 -6.673437 -0.564032
-1.965767 -6.654522 -0.482992
-1.529096 -6.705200 -0.500135
-1.118817 -6.909837 -0.589506
-0.679895 -6.955911 -0.584980
-2.016307 -6.953419 -0.579847
-1.570005 -6.991962 -0.538998
-1.155022 -7.191344 -0.597937
-0.716054 -7.239260 -0.603304
-2.051663 -7.231396 -0.567295
-1.613302 -7.284170 -0.594534
-1.187741 -7.466990 -0.574678
-0.748188 -7.514669 -0.580160
-2.095166 -7.522832 -0.610161
-1.650268 -7.566864 -0.598898
-1.224723 -7.751852 -0.587629
-0.784034 -7.799363 -0.593271
-2.123190 -7.790597 -0.544224
-1.689596 -7.854785 -0.619940
-1.261560 -8.037516 -0.597914
-0.815775 -8.075393 -0.565058
-2.163594 -8.079010 -0.562492
-1.727523 -8.141292 -0.628633
-1.293701 -8.314226 -0.566988
-0.851291 -8.361334 -0.572918
-2.196782 -8.356157 -0.530062
-1.755068 -8.408899 -0.557770
-1.330199 -8.601089 -0.571995
-0.882626 -8.637893 -0.539610
-2.239719 -8.651043 -0.562115
-1.796478 -8.703867 -0.590012
-1.365386 -8.886084 -0.564716
-0.925919 -8.945933 -0.618963
-2.266779 -8.918467 -0.486294
-1.823527 -8.971175 -0.514227
-1.398071 -9.166246 -0.535646
-0.956900 -9.223595 -0.580343
-2.310841 -9.217535 -0.522415
-1.867229 -9.273056 -0.560095
-1.434049 -9.454895 -0.532618
-0.991776 -9.512412 -0.577391
-2.354799 -9.517937 -0.555607
-1.908221 -9.570853 -0.583960
-1.475748 -9.758455 -0.574421
-1.025441 -9.799015 -0.562189
-2.382611 -9.788221 -0.481661
-1.934563 -9.838165 -0.500576
-1.510235 -10.045870 -0.556299
-1.059964 -10.089036 -0.553787
-2.432124 -10.102053 -0.547007
-1.977869 -10.143219 -0.537842
-1.545721 -10.336741 -0.544935
-1.095364 -10.382693 -0.552105
-2.463893 -10.381532 -0.496140
-2.014390 -10.434489 -0.524910
-1.585833 -10.640586 -0.568527
-1.132725 -10.683326 -0.566490
-2.517642 -10.707479 -0.583565
-2.061481 -10.751304 -0.584438
-1.619768 -10.929735 -0.542103
-1.167801 -10.978610 -0.559103
-2.550516 -10.991162 -0.536516
-2.097688 -11.044333 -0.565718
-1.660803 -11.238823 -0.569187
-1.201620 -11.271305 -0.539482
-2.587640 -11.284669 -0.514839
-2.126901 -11.321443 -0.497465
-1.694364 -11.529161 -0.537111
-1.240681 -11.581306 -0.563839
-2.189600 -10.610675 2.197758
-2.636604 -11.605453 -0.564758
-1.841333 -10.823655 1.715988
-2.174983 -11.645369 -0.557129
-1.741274 -11.857493 -0.604729
-1.277426 -11.885709 -0.566435
-2.233229 -10.902223 2.160521
-2.671871 -11.897120 -0.527931
-2.214745 -11.950524 -0.557709
-1.774479 -12.149316 -0.566795
-1.315112 -12.194569 -0.575315
-1.592791 -9.614998 6.283808
-2.241809 -11.114481 2.338783
-2.714513 -12.206613 -0.534525
-1.230057 -9.640898 6.301630
-1.700040 -10.841083 3.155416
-2.255726 -12.260125 -0.564520
-1.813699 -12.459332 -0.572340
-0.878725 -10.965221 3.373499
-1.352647 -12.504494 -0.581108
-1.611569 -9.822856 6.366964
-2.761583 -12.527929 -0.565636
-1.243237 -9.833868 6.421494
-2.295162 -12.567165 -0.559010
-0.891209 -9.960272 6.485977
-1.295412 -11.141545 3.517878
-1.851506 -12.766716 -0.565563
-0.906308 -11.219660 3.412243
-1.384440 -12.797027 -0.537657
-1.620883 -10.007968 6.506973
-2.803931 -12.839728 -0.565908
-1.253308 -10.018106 6.561277
-2.335820 -12.878752 -0.559633
-1.264231 -11.219249 3.990526
-1.884086 -13.059946 -0.518988
-1.422744 -13.112356 -0.546587
-1.625226 -10.180133 6.675798
-2.098474 -11.332305 3.869835
-2.838406 -13.133747 -0.517340
-1.256015 -10.181803 6.748222
-1.757201 -11.528170 3.480040
-2.381928 -13.206413 -0.593742
-0.959244 -10.466351 6.429708
-1.266457 -11.392948 4.215338
-1.929123 -13.391641 -0.561115
-0.594311 -10.482967 6.465281
-1.467683 -13.451896 -0.607281
-2.076702 -11.457824 4.214291
-2.881930 -13.450922 -0.520596
-1.269594 -10.373813 6.863235
-1.687213 -11.513778 4.163666
-2.416635 -13.504863 -0.551460
-0.952925 -10.598150 6.692694
-1.966398 -13.701626 -0.545048
-0.600808 -10.649178 6.646074
-1.495472 -13.734615 -0.527439
-1.595423 -10.424025 7.234634
-2.071375 -11.621238 4.459070
-1.301303 -10.615699 6.861702
-0.960196 -10.770031 6.856245
-2.002197 -14.008375 -0.516800
-0.617211 -10.849078 6.746126
-1.539005 -14.073044 -0.572264
-1.621879 -10.647609 7.270519
-1.298697 -10.762163 7.079830
-1.543720 -11.451906 5.523352
-2.498167 -14.138689 -0.539667
-0.995476 -11.029348 6.822020
-2.049394 -14.352296 -0.566904
-0.646006 -11.092968 6.748276
-1.577827 -14.396970 -0.577253
-1.615210 -10.785885 7.497547
-3.019346 -14.429183 -0.555857
-1.309953 -10.946526 7.208572
-2.540811 -14.463167 -0.542444
-0.983998 -11.140823 7.114845
-0.605161 -11.087868 7.294020
-1.614169 -14.713735 -0.560858
-1.625411 -10.966657 7.626617
-1.897963 -11.684502 6.076355
-3.060642 -14.746751 -0.536907
-1.405723 -11.375366 6.809196
-1.057973 -11.526858 6.815786
-2.129157 -14.999491 -0.557261
-0.640284 -11.354037 7.245050
-1.654976 -15.048283 -0.577162
-1.722305 -11.378531 7.266323
-1.946937 -11.978868 5.999229
-3.109647 -15.086254 -0.559336
-1.382065 -11.459589 7.157557
-2.631371 -15.132516 -0.573633
-1.027482 -11.574732 7.236343
-2.174661 -15.343997 -0.587610
-0.649578 -11.526867 7.395767
-1.686262 -15.349687 -0.518389
-1.694111 -11.457396 7.613558
-3.153747 -15.414387 -0.551476
-1.421608 -11.728865 7.113960
-1.605841 -12.278037 5.983751
-2.664818 -15.434701 -0.512711
-1.096270 -11.949082 6.980026
-2.210823 -15.659526 -0.551991
-0.797499 -12.216827 6.497105
-1.111948 -13.390942 4.119822
-1.736135 -15.721580 -0.599133
-1.770538 -11.820374 7.376526
-3.194471 -15.734795 -0.522499
-1.379494 -11.753275 7.569517
-1.622799 -12.488393 6.089888
-2.715488 -15.789822 -0.555155
-1.134878 -12.226246 6.932226
-1.520930 -13.528049 4.347139
-0.797370 -12.359468 6.725901
-1.774105 -16.051304 -0.587023
-1.816752 -12.103626 7.311541
-3.241382 -16.073746 -0.525461
-1.459513 -12.146889 7.282732
-1.185372 -12.545973 6.808224
-2.299733 -16.351200 -0.585730
-0.831300 -12.631060 6.699457
-1.817832 -16.404785 -0.615585
-1.978611 -12.715652 6.618734
-3.289727 -16.418518 -0.533566
-1.457524 -12.291259 7.492882
-1.054449 -12.241525 7.881090
-1.462714 -13.652884 5.196877
-2.341952 -16.692383 -0.583824
-1.089983 -13.774299 5.024796
-1.851851 -16.722960 -0.570009
-2.388020 -14.046752 4.600405
-3.342741 -16.778530 -0.564116
-1.564272 -12.775731 7.057129
-2.856439 -16.834230 -0.597704
-1.214087 -12.941475 7.043348
-1.596014 -14.277782 4.555193
-2.390689 -17.058235 -0.621918
-0.883229 -13.117233 6.769213
-1.175295 -14.260664 4.645027
-2.401829 -14.260207 4.740065
-3.381047 -17.098145 -0.512529
-1.561882 -12.920271 7.271828
-2.289011 -15.232547 3.001842
-2.882858 -17.120983 -0.485456
-1.311448 -13.433022 6.624752
-1.779813 -15.091222 3.601278
-2.420452 -17.359337 -0.534281
-0.891404 -13.291520 6.933952
-1.200575 -14.515613 4.706932
-1.933649 -17.418051 -0.573536
-1.903656 -12.970780 7.602911
-3.440218 -17.480137 -0.569990
-1.652729 -13.363514 6.942049
-2.323206 -15.521679 3.039116
-2.949085 -17.536285 -0.604197
-1.268655 -13.429421 7.112242
-2.482352 -17.776400 -0.651207
-0.922277 -13.556223 6.935467
-1.151605 -14.474269 5.299402
-1.977915 -17.782148 -0.595617
-1.918280 -13.167391 7.715284
-1.687160 -13.628798 6.945616
-2.989912 -17.872356 -0.571560
-1.283447 -13.629737 7.227886
-2.515717 -18.093603 -0.582479
-0.931067 -13.733119 7.094889
-2.029111 -13.653173 7.324774
-3.538594 -18.192091 -0.569059
-1.633075 -13.603813 7.457527
-3.032008 -18.214155 -0.543934
-1.370168 -14.093594 6.891720
-0.973795 -14.048483 7.015701
-2.052495 -18.460373 -0.533319
-2.050053 -13.872224 7.409145
-3.592419 -18.565092 -0.588232
-1.623297 -13.721261 7.711418
-3.087406 -18.601959 -0.589350
-1.239665 -13.758885 7.915554
-1.498205 -14.716333 6.306658
-1.331295 -15.667382 4.758205
-2.101122 -18.849009 -0.577730
-2.013133 -13.913514 7.791801
-3.637844 -18.914516 -0.560873
-1.655299 -13.977709 7.728220
-3.135127 -18.966545 -0.587893
-1.323343 -14.214388 7.602148
-1.025763 -14.547203 7.097673
-2.026788 -14.108547 7.912418
-3.176595 -19.311909 -0.548641
-1.287346 -14.222789 8.027758
-1.536820 -15.166530 6.503550
-1.068193 -14.867713 7.028742
-2.191749 -19.606651 -0.610870
-1.965618 -14.067886 8.411390
-3.741251 -19.657963 -0.561710
-1.600345 -14.084663 8.424246
-1.908652 -15.147012 6.722113
-3.228450 -19.694696 -0.564367
-1.412544 -14.843488 7.471914
-2.746080 -19.940668 -0.600882
-0.988530 -14.670728 7.785477
-2.234925 -19.980129 -0.608381
-1.996745 -14.315701 8.441700
-2.757639 -16.737562 4.629612
-1.654310 -14.417185 8.320734
-2.338461 -16.799820 4.577061
-3.275550 -20.063339 -0.550686
-1.575732 -15.619712 6.700588
-1.924182 -16.965229 4.610550
-2.786283 -20.294176 -0.560425
-1.042835 -15.042417 7.636332
-2.271644 -20.328180 -0.559988
-2.022694 -14.547991 8.499533
-3.845512 -20.412685 -0.553993
-3.322430 -20.433271 -0.532869
-1.398360 -15.079376 7.969664
-1.895679 -17.019068 5.014132
-2.842951 -20.713718 -0.615452
-1.024380 -15.101727 7.972860
-2.321905 -20.736868 -0.599024
-3.904843 -20.816708 -0.580706
-1.780560 -15.156278 8.027506
-3.373683 -20.820807 -0.535622
-1.406688 -15.255826 8.124331
-2.167057 -18.250862 3.647148
-2.882699 -21.069721 -0.566675
-1.015467 -15.200491 8.242720
-2.363184 -21.109142 -0.575529
-2.162754 -15.304605 8.189001
-3.953941 -21.189764 -0.553577
-1.786803 -15.326952 8.191338
-2.669590 -18.497709 3.488722
-3.438569 -21.259691 -0.607632
-2.097618 -18.146938 4.296320
-2.927788 -21.448778 -0.546722
-1.545883 -17.684311 5.014565
-2.406752 -21.493786 -0.564224
-3.124105 -18.647243 3.729057
-4.007834 -21.580704 -0.546621
-1.747979 -15.333652 8.592592
-2.563950 -18.293728 4.284895
-1.724824 -16.818571 6.689638
-2.089180 -18.281630 4.583742
-2.982486 -21.868658 -0.579372
-1.043225 -15.596970 8.481119
-1.333732 -16.894337 6.616570
-3.035639 -18.533472 4.384634
-4.071608 -22.007067 -0.583605
-1.796737 -15.657522 8.530893
-3.540080 -22.044031 -0.589750
-1.750044 -17.074247 6.762293
-2.119761 -18.572851 4.645243
-1.320812 -16.984119 6.924002
-2.499558 -22.295975 -0.568819
-3.034101 -18.707047 4.618572
-3.324574 -19.690695 3.237827
-4.121688 -22.390015 -0.551197
-1.846955 -15.989387 8.465223
-1.691510 -16.988304 7.311356
-3.078577 -22.662928 -0.557234
-1.303567 -17.052408 7.255281
-1.719928 -18.945456 4.634094
-2.541157 -22.679291 -0.535910
-2.341393 -16.515961 8.107796
-1.934411 -16.462996 8.211985
-1.561261 -16.601053 8.255877
-1.816772 -17.655951 6.819942
-3.138329 -23.112129 -0.607019
-1.739392 -19.196672 4.757933
-2.594026 -23.116636 -0.570518
-2.405211 -16.890068 8.005545
-4.248209 -23.253065 -0.599991
-2.023521 -16.948139 7.957546
-3.690562 -23.231565 -0.528658
-1.743062 -17.503254 7.448133
-2.147340 -19.187439 5.197430
-3.183661 -23.504648 -0.571985
-1.743114 -19.375814 4.979448
-2.375406 -16.941174 8.341150
-4.297546 -23.640440 -0.553524
-2.838133 -20.198555 4.051035
-3.751157 -23.671783 -0.554251
-2.308036 -20.028690 4.545052
-3.238712 -23.940338 -0.587515
-1.805725 -19.829292 4.839502
-2.696578 -23.986269 -0.607883
-2.413294 -17.227610 8.363148
-4.360234 -24.076801 -0.565144
-2.087570 -17.496315 8.041294
-2.886863 -20.564632 4.046726
-3.808401 -24.102222 -0.558773
-2.194370 -19.717710 5.406845
-3.282085 -24.329569 -0.535179
-1.715695 -19.568699 5.629538
-2.739758 -24.387737 -0.571636
-2.399729 -17.332987 8.621447
-3.247184 -20.341759 4.770380
-4.424397 -24.521276 -0.579187
-2.101203 -17.701292 8.177303
-2.619624 -19.709293 5.610365
-3.871687 -24.558918 -0.589182
-1.781233 -18.116814 7.876001
-2.218871 -19.988461 5.507898
-3.345248 -24.805647 -0.587057
-1.788102 -20.071110 5.433195
-2.786546 -24.808874 -0.554016
-2.625452 -18.293949 7.800495
-3.264101 -20.581980 4.924744
-2.193259 -18.212883 7.928989
-2.706573 -20.218739 5.410927
-3.926877 -24.987257 -0.575275
-1.867642 -18.639612 7.623981
-1.385899 -18.307859 8.061949
-1.843583 -20.497570 5.344215
-2.842165 -25.275126 -0.585392
-2.671593 -18.619469 7.798790
-3.227478 -20.628830 5.318655
-2.264840 -18.649317 7.787762
-2.752469 -20.571463 5.418020
-1.854599 -18.735451 7.907644
-2.377999 -21.012100 5.129187
-3.455082 -25.697104 -0.588467
-1.494794 -18.977798 7.637159
-2.893642 -25.724962 -0.587919
-2.867103 -19.491825 7.139986
-3.188571 -20.664101 5.718958
-2.119694 -18.228216 8.695583
-2.311052 -18.989025 7.774361
-4.044345 -25.880314 -0.569944
-1.937942 -19.252451 7.682129
-2.403297 -21.293495 5.235504
-3.514661 -26.167921 -0.607521
-1.516295 -19.230757 7.732370
-2.943548 -26.170431 -0.577276
-2.610007 -18.710949 8.478794
-2.878694 -19.699287 7.302105
-4.673381 -26.300869 -0.557579
-2.182759 -18.631430 8.596525
-4.101881 -26.326517 -0.555233
-1.783738 -18.724396 8.700893
-1.989413 -19.633917 7.629972
-3.563844 -26.596222 -0.567854
-2.999723 -26.649796 -0.598928
-2.672529 -19.098808 8.409321
-4.746583 -26.793589 -0.588957
-2.201252 -18.858007 8.712959
-4.173420 -26.832264 -0.602524
-1.770742 -18.814165 8.974953
-2.030564 -19.972471 7.635208
-1.593916 -19.911156 7.728533
-3.056951 -27.138037 -0.621998
-2.760835 -19.586346 8.233612
-4.805701 -27.237181 -0.554571
-2.216272 -19.071009 8.846592
-4.236761 -27.308453 -0.606035
-1.851872 -19.325441 8.766148
-1.244770 -18.323828 9.923605
-3.106013 -27.589413 -0.594204
-2.708827 -19.549316 8.661905
-4.887010 -27.767189 -0.610554
-2.280395 -19.486217 8.753363
-1.829488 -19.373117 9.087934
-2.099100 -20.594370 7.724720
-1.347510 -18.976179 9.549934
-1.971244 -16.900415 11.976120
-2.727386 -19.776777 8.787956
-2.392282 -20.103008 8.446043
-1.797894 -19.376650 9.452724
-1.397455 -19.369162 9.479101
-2.531993 -19.184196 9.808485
-2.355444 -20.105427 8.823887
-1.852129 -19.772341 9.388105
-1.440622 -19.731100 9.449921
-2.573975 -19.496563 9.831152
-2.387000 -20.392763 8.890091
-2.739425 -21.876421 7.304356
-2.032208 -20.754858 8.710476
-2.493764 -22.894697 6.445404
-1.334966 -19.332365 10.232164
-1.559239 -20.483154 9.015003
-2.068744 -17.678541 12.097675
-3.174909 -21.989010 7.567909
-2.721519 -21.967026 7.608784
-1.899908 -20.290405 9.567415
-2.695379 -24.006378 5.702812
-1.386776 -19.739275 10.155827
-1.665962 -21.182457 8.656067
-2.657248 -20.124517 9.888327
-2.126352 -19.587763 10.457230
-1.844734 -20.179230 10.039713
-1.501010 -20.474920 9.752331
-3.189307 -22.382532 7.952629
-3.473996 -23.509329 6.809748
-2.171121 -19.926060 10.458157
-2.500957 -21.347080 9.017878
-1.730156 -19.782137 10.788696
-1.520562 -20.722363 9.858669
-2.659111 -20.435646 10.281109
-2.370329 -20.937218 9.794992
-1.765275 -20.091721 10.820553
-2.191305 -22.126741 8.813242
-1.565200 -21.103607 9.835588
-2.927372 -21.664814 9.425436
-2.458386 -21.474781 9.624479
-1.801622 -20.409367 10.849483
-2.989062 -22.073275 9.395418
-2.329892 -21.063547 10.378304
-1.879102 -20.928600 10.691559
-2.451047 -23.700533 8.052206
-1.494364 -21.017708 10.617867
-2.682113 -20.981199 10.790888
-2.212076 -20.690973 11.075733
-1.892795 -21.141598 10.831839
-1.512603 -21.260086 10.731352
-2.774573 -21.511415 10.638174
-2.294341 -21.204853 10.932703
-3.284746 -25.632284 6.825230
-1.993561 -21.783354 10.579508
-1.542624 -21.567762 10.787252
-2.756129 -21.587671 10.911236
-3.255239 -23.653551 9.027458
-2.535164 -22.437574 10.145868
-2.015603 -22.042128 10.688295
-1.564297 -21.831942 10.886900
-2.943090 -22.518702 10.415609
-3.433803 -24.564480 8.583097
-2.777680 -23.693092 9.372845
-1.997264 -22.100920 10.977301
-1.605852 -22.207239 10.891079
-2.946925 -22.691536 10.611322
-2.470188 -22.452150 10.829773
-2.091417 -22.722963 10.772041
-1.668685 -22.703676 10.796242
-2.878193 -22.557337 11.072430
-3.281524 -24.262804 9.598385
-2.536946 -22.912233 10.772783
-2.824336 -24.233807 9.630964
-2.192791 -23.387865 10.544134
-1.767668 -23.406738 10.534727
-3.041647 -23.407326 10.688660
-3.441692 -25.110752 9.242559
-2.561193 -23.179455 10.888424
-2.435236 -24.777542 9.721895
-2.813004 -26.700022 8.105433
-1.796289 -23.721689 10.615652
-2.970408 -23.260328 11.156881
-2.575356 -23.400938 11.045168
-2.107640 -23.263208 11.334455
-1.987926 -24.961536 9.937267
-3.126304 -24.089323 10.816429
-2.607065 -23.705442 11.135546
-2.150068 -23.634781 11.367435
-1.726930 -23.636950 11.369978
-2.253246 -24.324675 11.152889
-1.784221 -24.118313 11.320862
-2.311437 -24.786493 11.131855
-1.818217 -24.469667 11.382544
-2.317128 -24.976091 11.328318
-2.018194 -25.788301 10.706593
-2.589286 -26.577286 10.460814
-2.070467 -26.258375 10.702747
2.279154 -0.824029 29.897871
2.274893 -0.826600 29.902693
2.288639 -0.769592 29.941107
2.290003 -0.762494 29.948315
2.279397 -0.804704 29.923349
2.280566 -0.821774 29.912230
2.284639 -0.798116 29.930393
2.279445 -0.807334 29.927467
2.286012 -0.790970 29.937632
2.285417 -0.774881 29.950190
2.296820 -0.724557 29.980946
2.279506 -0.809892 29.931631
2.280683 -0.827331 29.921103
2.288442 -0.759993 29.963800
2.290138 -0.768884 29.958515
2.281063 -0.803808 29.940775
2.287482 -0.787068 29.950352
2.290204 -0.770896 29.961988