# This PCD file was generated using the MATLAB® pcwrite function
# from Computer Vision System Toolbox®.
# .PCD v.7 - Point Cloud Data file format
VERSION .7
FIELDS x y z
SIZE 4 4 4
TYPE F F F
COUNT 1 1 1
WIDTH 761
HEIGHT 1
VIEWPOINT 0 0 0 1 0 0 0
POINTS 761
DATA ascii
-24.091101 -10.837573 -0.859087
-23.696032 -10.603878 -0.864309
-23.955402 -10.188381 -0.820665
-23.342773 -10.390496 -0.903503
-23.627346 -9.990228 -0.887177
-22.909885 -10.141434 -0.856297
-23.191349 -9.745717 -0.841043
-22.592148 -9.946188 -0.918114
-22.871689 -9.552986 -0.903654
-22.188963 -9.712828 -0.885828
-22.458992 -9.320814 -0.865503
-21.807211 -9.490276 -0.868086
-22.087915 -9.107704 -0.862499
-21.492083 -9.298743 -0.914518
-21.737909 -8.904594 -0.874836
-21.093578 -9.070616 -0.864506
-21.336763 -8.680683 -0.825565
-20.748301 -8.867332 -0.865337
-21.041231 -8.502541 -0.883883
-20.404230 -8.665481 -0.861015
-20.675383 -8.295551 -0.859140
-20.086649 -8.476208 -0.880548
-20.355738 -8.108870 -0.879513
-19.769966 -8.288117 -0.895462
-20.030663 -7.920744 -0.887978
-19.454235 -8.101232 -0.905783
-19.719185 -7.739067 -0.906416
-19.145645 -7.918239 -0.918957
-19.396151 -7.553451 -0.905588
-18.850189 -7.741673 -0.942659
-19.086599 -7.374174 -0.915028
-18.513195 -7.548035 -0.909443
-18.765800 -7.191157 -0.905018
-18.231672 -7.378943 -0.939610
-18.458361 -7.014371 -0.905561
-17.873632 -7.178150 -0.866463
-18.145987 -6.836434 -0.894115
-17.605898 -7.016385 -0.903532
-17.900282 -6.685695 -0.962786
-17.350311 -6.860293 -0.952478
-17.595688 -6.512337 -0.950842
-17.043119 -6.683347 -0.927729
-17.309809 -6.347095 -0.958008
-16.782980 -6.526617 -0.961540
-17.024832 -6.182937 -0.961246
-16.472441 -6.349866 -0.920626
-16.717903 -6.011115 -0.928980
-16.241829 -6.206442 -0.986879
-16.480427 -5.866554 -0.987852
-15.939184 -6.034426 -0.945953
-16.198172 -5.705600 -0.979662
-15.681923 -5.881421 -0.965359
-15.872561 -5.529236 -0.903193
-15.997482 -5.125334 -0.941912
-15.425297 -5.729268 -0.981369
-15.636879 -5.387183 -0.951811
-15.727407 -4.973333 -0.940964
-15.966465 -4.639374 -0.950869
-15.126421 -5.561108 -0.928627
-15.379655 -5.237715 -0.964821
-15.474669 -4.827918 -0.960932
-15.690114 -4.488556 -0.938913
-14.892857 -5.419311 -0.970388
-15.101633 -5.081338 -0.941652
-15.217113 -4.681505 -0.969433
-15.436755 -4.345622 -0.956079
-14.638571 -5.269978 -0.976124
-14.867340 -4.941450 -0.980778
-14.938891 -4.528934 -0.941557
-15.156918 -4.195283 -0.928799
-14.364310 -5.113616 -0.945274
-14.617567 -4.796552 -0.992062
-14.709567 -4.393145 -0.984749
-14.948024 -4.067057 -1.005564
-14.132330 -4.974078 -0.977659
-14.337308 -4.641553 -0.950050
-14.433361 -4.242728 -0.949932
-14.643456 -3.910889 -0.929846
-13.860189 -4.819929 -0.939857
-14.089286 -4.498617 -0.954657
-14.173998 -4.098522 -0.936668
-14.393213 -3.771637 -0.933830
-13.609410 -4.674524 -0.932257
-13.831861 -4.353077 -0.939215
-13.946292 -3.964976 -0.970736
-14.159251 -3.637711 -0.959930
-13.399052 -4.544660 -0.989435
-13.620542 -4.223901 -0.996815
-13.713827 -3.830437 -0.993530
-13.925699 -3.504434 -0.983154
-13.149600 -4.400892 -0.975742
-13.369573 -4.081782 -0.983669
-13.481801 -3.696563 -1.013466
-13.692585 -3.371821 -1.003521
-12.920368 -4.265079 -0.993217
-13.143985 -3.948752 -1.010197
-13.230554 -3.557466 -0.996243
-13.459935 -3.239885 -1.021036
-12.691622 -4.129951 -1.007866
-12.909108 -3.813173 -1.016739
-12.999739 -3.425127 -1.010334
-13.208070 -3.103390 -1.001308
-12.444629 -3.988911 -0.984997
-12.665349 -3.675312 -1.003061
-12.750263 -3.287930 -0.986954
-12.976681 -2.973014 -1.013006
-12.235686 -3.861800 -1.028736
-12.450678 -3.547354 -1.038542
-12.539698 -3.162574 -1.030092
-12.726642 -2.838444 -0.987156
-12.008550 -3.728804 -1.034990
-12.226923 -3.416971 -1.053999
-12.310522 -3.032384 -1.035791
-12.534504 -2.719163 -1.062927
-11.746028 -3.584346 -0.968071
-11.957962 -3.273190 -0.978916
-12.081946 -2.902936 -1.038721
-12.285889 -2.586232 -1.031355
-11.538343 -3.459105 -1.003849
-11.753802 -3.149995 -1.023905
-11.835845 -2.769361 -1.003593
-12.038415 -2.454396 -0.996714
-11.330783 -3.334284 -1.037210
-11.540760 -3.024495 -1.048824
-11.626694 -2.646314 -1.036348
-11.810271 -2.327895 -0.994408
-11.110460 -3.205704 -1.041407
-11.319248 -2.896957 -1.053446
-11.382442 -2.514625 -0.995455
-11.600700 -2.206229 -1.024923
-10.869517 -3.071054 -0.998194
-11.093990 -2.768885 -1.046499
-11.178486 -2.393897 -1.032042
-11.395711 -2.085980 -1.061966
-10.679860 -2.953275 -1.059927
-10.890641 -2.647563 -1.081749
-10.953221 -2.268297 -1.021420
-11.164730 -1.960534 -1.042927
-10.457052 -2.825473 -1.047329
-10.645641 -2.515141 -1.024540
-10.745540 -2.147532 -1.044189
-10.960283 -1.841296 -1.075121
-10.218864 -2.693592 -0.995811
-10.426707 -2.390598 -1.018620
-10.538098 -2.027247 -1.064598
-10.734897 -1.718242 -1.059855
-10.049487 -2.582972 -1.096109
-10.236700 -2.274227 -1.073734
-10.314622 -1.903776 -1.046299
-10.526874 -1.599217 -1.078215
-9.808931 -2.451584 -1.030230
-10.010685 -2.148845 -1.044691
-10.107993 -1.784655 -1.061867
-10.302834 -1.477672 -1.057821
-9.604400 -2.331334 -1.043940
-9.805159 -2.029275 -1.058746
-9.870160 -1.659386 -1.001865
-10.083642 -1.357695 -1.043951
-9.400184 -2.211600 -1.055328
-9.599948 -1.910222 -1.070477
-9.680185 -1.544800 -1.049259
-9.873058 -1.239837 -1.045895
-9.196307 -2.092394 -1.064407
-9.383771 -1.789032 -1.052229
-9.459594 -1.424434 -1.020847
-9.666824 -1.123221 -1.054659
-8.996419 -1.974689 -1.080454
-9.194255 -1.674547 -1.096254
-9.269783 -1.310573 -1.063892
-9.445753 -1.004823 -1.024195
-8.778965 -1.852841 -1.047779
-8.990044 -1.557059 -1.101101
-9.083472 -1.197571 -1.114170
-9.270399 -0.893772 -1.102337
-8.572937 -1.734529 -1.040569
-8.782668 -1.439371 -1.094353
-8.860926 -1.078551 -1.069365
-9.050390 -0.776660 -1.067175
-8.401691 -1.625200 -1.124630
-8.582831 -1.323761 -1.103962
-8.671227 -0.965672 -1.106058
-8.860107 -0.664066 -1.104078
-8.182692 -1.504611 -1.075527
-8.376448 -1.207303 -1.092623
-8.453771 -0.848812 -1.065769
-8.655617 -0.550078 -1.101551
-7.997677 -1.392498 -1.118053
-8.190771 -1.095266 -1.135382
-8.264423 -0.736753 -1.098188
-8.451589 -0.436679 -1.096775
-7.770672 -1.271424 -1.035858
-7.962204 -0.975831 -1.053614
-8.074998 -0.624941 -1.128595
-8.261575 -0.325151 -1.127380
-7.582997 -1.159546 -1.064655
-7.773795 -0.864149 -1.082647
-7.872534 -0.511808 -1.119184
-8.058249 -0.212783 -1.118246
-7.404486 -1.049769 -1.119946
-7.597898 -0.754701 -1.147604
-7.683286 -0.400695 -1.145472
-7.881377 -0.102874 -1.182552
-7.195513 -0.934304 -1.078176
-7.372285 -0.637985 -1.058662
-7.456778 -0.286176 -1.055733
-7.653178 0.010092 -1.093336
-7.019742 -0.825514 -1.139082
-7.184344 -0.527465 -1.081503
-7.253190 -0.174836 -1.030096
-7.463868 0.120012 -1.115614
-6.817677 -0.712328 -1.112062
-7.008111 -0.418678 -1.140587
-7.068084 -0.065539 -1.059538
-7.262452 0.230033 -1.097780
-6.630279 -0.602064 -1.130798
-6.805622 -0.306981 -1.111666
-6.891524 0.043021 -1.115765
-7.061633 0.339401 -1.077778
-6.432054 -0.490533 -1.109095
-6.609451 -0.196577 -1.099743
-6.703164 0.152147 -1.131819
-6.884501 0.448029 -1.132223
-6.247668 -0.381414 -1.133442
-6.430030 -0.088122 -1.143459
-6.503884 0.261300 -1.107439
-6.681539 0.556383 -1.098495
-6.060633 -0.272222 -1.146210
-6.242324 0.020830 -1.156404
-6.315943 0.369606 -1.119473
-6.493070 0.664363 -1.110680
-5.861190 -0.162058 -1.108624
-6.034163 0.130573 -1.090075
-6.117693 0.477568 -1.090923
-6.307356 0.772131 -1.130541
-5.684399 -0.054622 -1.156181
-5.854698 0.238215 -1.128000
-5.930235 0.585020 -1.098969
-6.108630 0.878811 -1.100203
-5.481264 0.054716 -1.095053
-5.670067 0.345878 -1.144686
-5.745352 0.692213 -1.114765
-5.920691 0.985631 -1.106466
-5.295236 0.162184 -1.099878
-5.473678 0.453314 -1.110867
-5.555700 0.798865 -1.109234
-5.725544 1.091326 -1.081709
-5.118178 0.268953 -1.141790
-5.296220 0.560324 -1.152872
-5.359426 0.904524 -1.072548
-5.535738 1.196988 -1.074331
-4.927900 0.375944 -1.123291
-5.102924 0.666754 -1.124804
-5.172841 1.010348 -1.072783
-5.357754 1.303904 -1.113619
-4.744270 0.482392 -1.132166
-4.916631 0.772912 -1.124025
-4.995080 1.116857 -1.110140
-5.170454 1.409240 -1.112144
-4.550758 0.588298 -1.090151
-4.728475 0.878515 -1.111542
-4.808585 1.222084 -1.106604
-4.983352 1.514184 -1.108751
-4.373338 0.694198 -1.124636
-4.550576 0.984700 -1.146122
-4.630352 1.328333 -1.140312
-4.804784 1.620633 -1.142523
-4.182687 0.799091 -1.088531
-4.362777 1.089550 -1.129837
-4.445943 1.433329 -1.142815
-4.609807 1.722868 -1.096231
-4.005063 0.904574 -1.119341
-4.179029 1.194502 -1.131283
-4.257904 1.537111 -1.123814
-4.431119 1.828848 -1.126299
-3.827098 1.009991 -1.148365
-4.000658 1.300160 -1.160374
-4.072063 1.640871 -1.112724
-4.237240 1.929894 -1.076109
-3.639121 1.113722 -1.116405
-3.816910 1.404576 -1.158115
-3.886498 1.744200 -1.099747
-4.058492 2.035373 -1.102488
-3.456345 1.217782 -1.112154
-3.628470 1.507347 -1.124418
-3.714341 1.851696 -1.163670
-3.879439 2.140766 -1.127068
-3.273719 1.321488 -1.106050
-3.443695 1.610455 -1.108545
-3.528774 1.954494 -1.147020
-3.700092 2.246065 -1.149853
-3.092647 1.425234 -1.107994
-3.260693 1.713635 -1.100681
-3.345017 2.057502 -1.138363
-3.515790 2.348911 -1.141291
-2.910290 1.528254 -1.098211
-3.075101 1.815316 -1.071201
-3.164275 2.161551 -1.147604
-3.328707 2.449729 -1.111170
-2.731845 1.632363 -1.116327
-2.903092 1.922533 -1.138803
-2.984771 2.266146 -1.164913
-3.156203 2.558704 -1.177794
-2.556653 1.737947 -1.162407
-2.722685 2.026150 -1.145271
-2.799971 2.367437 -1.140873
-2.214998 2.140974 4.441545
-2.969382 2.658841 -1.143999
-2.374242 1.840210 -1.147190
-2.544516 2.130944 -1.169748
-2.616740 2.469083 -1.124882
-2.071334 2.215825 4.480450
-2.789376 2.763200 -1.157715
-2.192067 1.942075 -1.130144
-2.360564 2.231990 -1.142872
-2.437093 2.572972 -1.136757
-2.609161 2.867417 -1.169626
-2.008263 2.042207 -1.091412
-2.172982 2.329407 -1.074488
-2.252058 2.672084 -1.097319
-2.424323 2.967302 -1.140203
-1.833662 2.148815 -1.150229
-2.000402 2.438379 -1.153080
-2.077224 2.780295 -1.155113
-2.244030 3.071039 -1.148495
-1.654191 2.251949 -1.157581
-1.818881 2.539966 -1.140594
-1.897031 2.883713 -1.161594
-2.063570 3.174610 -1.154984
-1.468861 2.348570 -1.083597
-1.635158 2.638470 -1.096525
-1.716683 2.986958 -1.166277
-1.887352 3.283889 -1.209129
-1.294779 2.457704 -1.166910
-1.458391 2.744977 -1.140007
-1.188974 2.571272 3.509382
-1.536193 3.090023 -1.169159
-1.703000 3.382446 -1.172451
-1.112623 2.556791 -1.129105
-1.278367 2.847646 -1.141983
-1.355577 3.192899 -1.170242
-1.179074 2.890911 3.486176
-1.519127 3.480468 -1.133963
-0.932894 2.659033 -1.129288
-1.098223 2.950123 -1.142166
-1.174847 3.295579 -1.169523
-1.338357 3.583171 -1.133247
-0.754694 2.764938 -1.167458
-0.917973 3.052401 -1.140554
-0.994017 3.398055 -1.167007
-1.159216 3.689716 -1.160406
-0.572797 2.861902 -1.114338
-0.736024 3.149954 -1.097437
-0.810941 3.493963 -1.113144
-0.976530 3.787957 -1.126411
-0.394151 2.968738 -1.158857
-0.558511 3.261015 -1.171650
-0.632114 3.602364 -1.156578
-0.796775 3.894327 -1.149958
-0.213776 3.070307 -1.151867
-0.376971 3.359173 -1.134874
-0.451068 3.704180 -1.148661
-0.615460 3.996295 -1.142033
-0.033664 3.175057 -1.172890
-0.196878 3.464391 -1.155842
-0.269977 3.805762 -1.138950
-0.434101 4.098028 -1.132305
0.147000 3.277466 -1.172234
-0.016388 3.570925 -1.184902
-0.088855 3.907100 -1.127441
-0.252710 4.199517 -1.120779
0.327745 3.377268 -1.149923
0.164820 3.672182 -1.172491
0.092127 4.012642 -1.143803
-0.071785 4.307173 -1.146933
0.509456 3.488113 -1.215105
0.346201 3.777340 -1.187990
0.273594 4.119706 -1.168211
0.109752 4.414910 -1.171238
0.690786 3.588917 -1.199089
0.527774 3.879635 -1.181864
0.455657 4.226841 -1.190771
0.291761 4.515960 -1.154259
0.872100 3.689452 -1.181278
0.709275 3.980273 -1.164034
0.637601 4.327595 -1.171995
0.474175 4.623661 -1.174875
1.053382 3.789709 -1.161671
0.891593 4.085169 -1.174049
0.820514 4.434678 -1.190857
0.657159 4.731415 -1.193621
1.236328 3.895412 -1.179825
1.075397 4.194691 -1.211834
1.002671 4.535025 -1.168446
0.838621 4.824691 -1.131844
1.417307 3.993783 -1.146717
1.257012 4.293253 -1.178671
1.186378 4.642021 -1.183598
1.022094 4.932190 -1.146912
1.602114 4.102384 -1.180912
1.440955 4.399616 -1.192993
1.368692 4.741930 -1.157545
1.204449 5.032122 -1.120855
1.786435 4.208059 -1.193470
1.625417 4.506001 -1.205425
1.550912 4.841526 -1.129696
1.388659 5.139499 -1.132189
1.964686 4.299354 -1.115543
1.805088 4.598639 -1.137339
1.738079 4.955690 -1.178488
1.575621 5.254810 -1.180771
2.152550 4.411240 -1.163757
1.989942 4.704711 -1.146082
1.920676 5.054964 -1.146942
1.758561 5.354270 -1.149166
2.341497 4.523451 -1.209970
2.175274 4.810781 -1.152929
2.103137 5.153900 -1.113600
1.944223 5.461647 -1.154793
2.523849 4.622197 -1.175735
2.361958 4.918681 -1.167658
2.292320 5.268365 -1.156567
2.130341 5.569004 -1.158508
2.711212 4.729410 -1.188652
2.552138 5.032294 -1.209764
2.475071 5.366930 -1.119513
2.317765 5.678478 -1.170029
2.889178 4.820436 -1.111660
2.729825 5.121174 -1.122976
2.665726 5.481658 -1.158518
2.503882 5.783625 -1.160162
3.080570 4.932910 -1.150091
2.921084 5.234837 -1.161190
2.854139 5.590346 -1.166319
2.691276 5.890871 -1.158092
3.267930 5.038118 -1.147501
3.108583 5.340749 -1.158445
3.040777 5.694767 -1.152750
2.879066 5.998060 -1.154083
3.454343 5.141342 -1.133257
3.296472 5.446602 -1.153763
3.228881 5.801229 -1.146952
3.067237 6.105183 -1.148125
3.648034 5.254245 -1.165627
3.495473 5.569077 -1.224638
3.422598 5.916523 -1.177855
3.260743 6.221619 -1.178785
3.835257 5.357364 -1.147484
3.680444 5.668723 -1.186909
3.611720 6.022987 -1.168079
3.449930 6.328743 -1.168844
4.038281 5.480768 -1.224064
3.874261 5.781039 -1.205231
3.801177 6.129357 -1.156343
3.639451 6.435772 -1.156937
4.223355 5.579771 -1.182602
4.064155 5.886878 -1.192581
3.990954 6.235625 -1.142645
3.836630 6.555027 -1.190962
4.413423 5.684802 -1.168171
4.254360 5.992608 -1.177967
4.181036 6.341780 -1.126972
4.025605 6.659532 -1.165449
4.610929 5.798371 -1.190159
4.451730 6.107359 -1.199711
4.378150 6.457511 -1.147543
4.222804 6.776555 -1.185671
4.794436 5.894507 -1.133389
4.628480 6.194416 -1.104570
4.569092 6.563568 -1.127823
4.409032 6.875675 -1.137140
5.000822 6.017092 -1.189449
4.841622 6.327958 -1.198557
4.767630 6.679493 -1.144142
4.612726 7.000638 -1.181635
5.192580 6.121912 -1.166916
5.025754 6.423870 -1.137781
4.967003 6.795574 -1.158274
4.804821 7.107366 -1.157547
5.399149 6.242805 -1.208904
5.235713 6.551028 -1.198532
5.167194 6.911802 -1.170200
5.004795 7.224727 -1.169207
5.594035 6.349928 -1.191679
5.434693 6.663845 -1.200056
5.359958 7.017695 -1.142195
5.197617 7.331271 -1.141005
5.795959 6.464137 -1.200743
5.627829 6.769166 -1.171116
5.561437 7.134027 -1.149786
5.398877 7.448734 -1.148321
5.998657 6.578463 -1.207579
5.832328 6.887070 -1.187193
5.763680 7.250469 -1.155144
5.592360 7.555055 -1.115974
6.183094 6.673129 -1.137024
6.023875 6.989605 -1.144703
5.968948 7.369742 -1.167595
5.812505 7.695379 -1.193531
6.394052 6.794878 -1.167694
6.236870 7.115519 -1.184393
6.170390 7.483640 -1.159098
6.016295 7.813285 -1.193975
6.598598 6.909297 -1.167923
6.443805 7.233815 -1.193623
6.384513 7.611564 -1.194824
6.220794 7.931263 -1.192144
6.816832 7.036700 -1.212408
6.646527 7.346847 -1.181940
6.589926 7.728477 -1.190994
6.416271 8.037454 -1.151072
7.023129 7.151432 -1.207928
6.862795 7.473563 -1.214323
6.785733 7.833925 -1.147966
6.631841 8.167390 -1.181601
7.219122 7.255586 -1.164183
7.050894 7.570071 -1.142660
7.002748 7.962441 -1.176435
6.838354 8.285514 -1.172871
7.437696 7.381019 -1.192070
7.279819 7.708302 -1.207058
7.210121 8.079467 -1.165684
7.056079 8.415949 -1.198383
7.645928 7.495849 -1.180666
7.473885 7.810086 -1.149506
7.429253 8.208457 -1.189112
7.264127 8.534252 -1.184864
7.854768 7.610688 -1.166937
7.685179 7.928832 -1.144730
7.638124 8.325639 -1.173559
7.472769 8.652555 -1.169003
8.088436 7.747925 -1.223742
7.914979 8.065174 -1.192102
7.847571 8.442806 -1.155653
7.693427 8.783560 -1.186945
8.299004 7.863026 -1.205046
8.140279 8.196081 -1.218517
8.069577 8.572330 -1.171474
7.915211 8.914822 -1.202236
8.506945 7.975224 -1.174946
8.360630 8.321326 -1.224165
8.292690 8.702097 -1.184639
8.138098 9.046326 -1.214863
8.731492 8.101840 -1.187551
8.575581 8.440681 -1.209246
8.529458 8.844753 -1.230927
8.346697 9.161629 -1.180151
8.957113 8.228679 -1.197483
8.800920 8.569235 -1.218706
8.742142 8.962298 -1.202917
8.574515 9.296715 -1.196476
9.200711 8.370606 -1.249350
9.023990 8.694897 -1.216557
8.968435 9.092704 -1.207998
8.813156 9.442129 -1.236576
9.411486 8.482964 -1.209240
9.254722 8.826943 -1.229511
9.195744 9.223289 -1.210352
9.027088 9.560887 -1.203102
9.640190 8.610376 -1.211033
9.496971 8.968728 -1.266151
9.424043 9.354041 -1.209959
9.268291 9.706921 -1.237410
9.855494 8.725637 -1.174847
9.694898 9.069348 -1.185413
9.653308 9.484942 -1.206804
9.497316 9.839545 -1.233686
10.118844 8.881230 -1.250208
9.939293 9.211538 -1.216417
9.883517 9.615978 -1.200874
9.727283 9.972302 -1.227180
10.332096 8.993516 -1.199875
10.185174 9.354122 -1.244314
10.114644 9.747130 -1.192154
9.943913 10.091081 -1.183262
10.568386 9.124655 -1.199276
10.421310 9.487184 -1.243069
10.376277 9.905880 -1.249668
10.189941 10.238146 -1.205759
10.832803 9.278437 -1.256281
10.650857 9.613738 -1.221668
10.609718 10.037482 -1.234974
10.437386 10.385558 -1.225090
11.063709 9.403622 -1.232380
10.884997 9.743671 -1.206110
10.840165 10.165652 -1.208893
10.671144 10.518811 -1.207129
11.271265 9.509146 -1.154388
11.119971 9.873667 -1.187708
11.094731 10.315013 -1.231043
10.917230 10.663076 -1.211750
11.556127 9.677132 -1.235872
11.391829 10.034575 -1.242903
11.330897 10.446899 -1.207602
11.156705 10.800196 -1.196362
11.806101 9.815847 -1.237213
11.624927 10.161469 -1.209913
11.579955 10.589597 -1.206499
11.405023 10.944830 -1.194769
12.044602 9.944649 -1.210135
11.866931 10.295298 -1.190929
11.817832 10.721595 -1.177128
11.658522 11.093401 -1.198341
12.318058 10.100674 -1.247141
12.135059 10.450331 -1.219097
12.073122 10.868221 -1.178110
11.896844 11.227084 -1.165436
12.541149 10.215958 -1.180561
12.357779 10.566663 -1.152269
12.316910 11.003986 -1.150978
12.152544 11.375978 -1.162594
12.817315 10.372540 -1.210772
12.645791 10.736505 -1.206829
12.587337 11.162097 -1.170135
12.443336 11.555798 -1.222040
13.095186 10.529552 -1.237270
12.909449 10.885258 -1.208097
12.881186 11.339327 -1.226517
12.706210 11.709173 -1.220284
13.356562 10.672870 -1.227293
13.169910 11.030591 -1.197746
13.163895 11.505845 -1.254370
12.983450 11.874465 -1.239368
13.600621 10.802108 -1.181417
13.449646 11.190777 -1.216480
13.421329 11.649919 -1.229897
13.222393 12.004738 -1.182169
13.901316 10.974263 -1.229534
13.712566 11.336498 -1.199156
13.665991 11.782517 -1.178043
13.502246 12.170480 -1.194099
14.166203 11.118073 -1.209181
13.976537 11.482322 -1.178419
13.966766 11.961428 -1.218830
13.783645 12.336544 -1.202187
14.451315 11.276543 -1.217314
14.279399 11.658351 -1.217953
14.231995 12.109672 -1.191982
14.048044 12.486831 -1.174807
14.737928 11.435306 -1.221581
14.565080 11.819726 -1.221563
14.536277 12.289392 -1.224611
14.350941 12.669549 -1.206747
15.006290 11.579533 -1.190460
14.852223 11.981369 -1.221273
14.823212 12.453767 -1.221647
14.636766 12.836440 -1.203173
15.315510 11.753614 -1.218426
15.160489 12.158657 -1.248293
15.092002 12.602428 -1.183710
14.923995 13.003560 -1.195663
15.601350 11.909354 -1.203184
15.430752 12.305359 -1.208925
15.401258 12.783176 -1.203901
15.232111 13.187412 -1.214945
15.893538 12.069021 -1.191807
15.717014 12.463754 -1.189119
15.692298 12.948164 -1.189068
15.522283 13.355022 -1.199272
16.212936 12.247919 -1.214741
16.014690 12.630128 -1.180719
16.004925 13.129578 -1.200623
15.833761 13.539535 -1.209909
16.502789 12.404202 -1.187494
16.324110 12.804624 -1.183376
16.278217 13.278582 -1.147375
16.106459 13.690678 -1.155890
16.804359 12.568281 -1.171427
16.598501 12.951491 -1.128946
16.614590 13.476928 -1.180347
16.461903 13.909556 -1.217724
17.139429 12.755865 -1.196133
16.958321 13.162456 -1.190500
16.932087 13.659186 -1.178635
16.773296 14.090745 -1.207441
17.460241 12.932131 -1.193674
17.277914 13.341804 -1.187277
17.288420 13.870915 -1.223959
17.096672 14.280722 -1.207418
17.804585 13.124423 -1.216154
17.642427 13.553920 -1.238358
17.571894 14.024460 -1.161522
17.432356 14.479615 -1.217278
18.106623 13.285384 -1.175051
17.921852 13.701214 -1.167114
17.910421 14.220086 -1.167831
17.732355 14.648458 -1.171535
18.454514 13.478292 -1.187866
18.312521 13.930609 -1.237019
18.256289 14.420285 -1.176348
18.103895 14.874056 -1.214905
18.804342 13.671562 -1.195570
18.616581 14.094512 -1.185949
18.631828 14.642193 -1.215405
18.428568 15.060703 -1.188499
19.156063 13.865164 -1.198132
18.966799 14.291669 -1.187662
18.931248 14.804487 -1.149652
18.765711 15.256294 -1.171516
19.509619 14.059060 -1.195520
19.318855 14.489120 -1.184196
19.305136 15.022802 -1.170971
19.115627 15.460944 -1.163563
19.864965 14.253218 -1.187708
19.672695 14.686831 -1.175526
19.704147 15.258931 -1.214376
19.518213 15.706016 -1.212776
20.169027 14.410568 -1.112074
20.022449 14.880534 -1.154680
20.059509 15.460694 -1.196423
19.866383 15.906833 -1.186905
20.604605 14.658744 -1.183920
20.403172 15.095683 -1.163073
20.416517 15.662629 -1.173180
20.250708 16.134840 -1.196722
20.959225 14.849421 -1.153246
20.768167 15.298328 -1.145231
20.822292 15.900018 -1.198736
20.608055 16.340542 -1.166862
21.369850 15.077834 -1.178270
21.194773 15.544196 -1.189442
21.182890 16.102375 -1.164330
20.990469 16.564569 -1.158384
21.782887 15.306697 -1.196932
21.581789 15.760352 -1.180094
21.569000 16.322636 -1.151098
21.398558 16.807150 -1.170490
22.167423 15.514828 -1.175999
21.940193 15.954991 -1.131744
21.956985 16.543104 -1.131950
21.826923 17.063910 -1.195822
22.389589 16.795254 -1.152411
22.191355 17.270302 -1.142925
22.812363 17.038786 -1.153091
22.630289 17.532354 -1.161642
23.274687 17.309872 -1.185360
23.071760 17.794827 -1.173290
23.645679 17.513004 -1.115496
23.521902 18.062357 -1.184124
23.980795 18.334951 -1.193899
24.607908 18.075287 -1.169065
24.385435 18.565397 -1.140821
25.035349 18.315498 -1.129074
24.874283 18.857452 -1.160612
0.357129 0.576832 22.309183
0.420089 0.617120 22.258715
0.391883 0.601632 22.282816
0.366972 0.582852 22.307945
0.376377 0.585221 22.303373
0.387919 0.597756 22.292337
0.395830 0.603053 22.288504
0.405778 0.605029 22.284304
0.417233 0.618110 22.273624
0.379812 0.586433 22.308493
0.364633 0.579533 22.319992
0.408406 0.605942 22.288321
0.392854 0.599488 22.299751
0.361296 0.572810 22.328161
0.373520 0.585150 22.317783
0.376175 0.582756 22.319031
0.353897 0.570711 22.335390
0.396412 0.600689 22.305426