# This PCD file was generated using the MATLAB® pcwrite function
# from Computer Vision System Toolbox®.
# .PCD v.7 - Point Cloud Data file format
VERSION .7
FIELDS x y z
SIZE 4 4 4
TYPE F F F
COUNT 1 1 1
WIDTH 908
HEIGHT 1
VIEWPOINT 0 0 0 1 0 0 0
POINTS 908
DATA ascii
42.533192 -24.822153 4.485109
42.027473 -24.278454 4.523117
42.009548 -24.873215 4.530321
41.538387 -24.327122 4.536032
41.590740 -24.900877 4.461182
40.555649 -25.075878 5.143822
40.349846 -24.483347 4.848169
40.537895 -25.010187 4.606159
40.319473 -24.414026 4.318090
40.506474 -24.946362 4.074116
40.281715 -24.345081 3.786087
40.493690 -24.801836 2.910313
40.302746 -24.175570 2.559189
40.528458 -24.716642 2.253788
40.288197 -24.094698 1.957485
40.494766 -24.646883 1.673500
40.201160 -24.032305 1.441147
37.882576 -25.242023 4.625080
37.499035 -24.717236 4.576498
37.490276 -25.271000 4.586313
37.084824 -24.755970 4.573635
37.076424 -25.306423 4.584351
36.717068 -24.781998 4.510546
36.709137 -25.330248 4.522011
36.283768 -24.828152 4.549570
36.276154 -25.372538 4.561995
35.896450 -24.861584 4.527914
35.889259 -25.403214 4.541149
35.467484 -24.908556 4.576775
35.460621 -25.446321 4.590965
35.147018 -24.923107 4.464279
35.119495 -25.465778 4.512405
34.763504 -24.957748 4.455347
34.736713 -25.497654 4.504452
34.381451 -24.992779 4.450670
34.355396 -25.529919 4.500750
34.000900 -25.028191 4.450224
33.975586 -25.562565 4.501268
33.601891 -25.070534 4.487999
33.597324 -25.595585 4.505985
33.244473 -25.100138 4.461924
33.240414 -25.622974 4.480608
32.849289 -25.143202 4.508377
32.845638 -25.662720 4.527903
32.513680 -25.166992 4.455694
32.510582 -25.684845 4.475836
32.159775 -25.197683 4.441137
32.157196 -25.713318 4.461958
31.843983 -25.215668 4.360582
31.879078 -25.718229 4.312052
31.491798 -25.247072 4.353159
31.422028 -25.781771 4.506824
31.069386 -25.304892 4.490208
31.090662 -25.805305 4.469105
30.925587 -26.321854 4.472324
30.931599 -26.822523 4.481823
30.725315 -25.335320 4.481966
30.742344 -25.835150 4.470165
30.578281 -26.349640 4.475748
30.575956 -26.850504 4.503595
30.395321 -25.361204 4.450672
30.412615 -25.859369 4.439295
30.232300 -26.377750 4.482803
30.256393 -26.869118 4.457592
30.032185 -25.400421 4.494015
30.015713 -25.907707 4.554663
29.887680 -26.406181 4.493467
29.894993 -26.900162 4.504562
29.687668 -25.433451 4.505463
29.688702 -25.932568 4.531021
29.544460 -26.434925 4.507723
29.552210 -26.926676 4.519337
29.393436 -25.447353 4.412638
29.378822 -25.951826 4.474634
29.218901 -26.458607 4.489378
29.227131 -26.948679 4.501450
29.030855 -25.489119 4.475922
29.037073 -25.983267 4.493570
28.878267 -26.487972 4.510599
28.890930 -26.974609 4.514088
28.709692 -25.515007 4.452509
28.728218 -26.003187 4.443422
28.570316 -26.506927 4.462446
28.563889 -26.998440 4.511917
28.385414 -25.542830 4.441364
28.404221 -26.029343 4.432682
28.216820 -26.542244 4.526993
28.226425 -27.026169 4.540518
28.047028 -25.577406 4.469959
28.051008 -26.067589 4.498333
27.884220 -26.571159 4.549391
27.894285 -27.052990 4.563393
27.721249 -25.607445 4.474548
27.714767 -26.100220 4.531010
27.578663 -26.591049 4.510685
27.589260 -27.071751 4.525059
27.389418 -25.640987 4.500782
27.408983 -26.121391 4.493435
27.273449 -26.611258 4.474894
27.270243 -27.095587 4.526667
27.083656 -25.663597 4.465805
27.089466 -26.148739 4.495747
26.926689 -26.647678 4.553314
26.924221 -27.129204 4.605749
26.764561 -25.692917 4.470757
26.784754 -26.170530 4.464113
26.623234 -26.668480 4.523689
26.635319 -27.144131 4.539316
26.436489 -25.727314 4.506714
26.453579 -26.204302 4.509809
26.306887 -26.694864 4.534288
26.319469 -27.168829 4.550320
26.129599 -25.752419 4.490072
26.137268 -26.232510 4.521524
25.978668 -26.726788 4.585453
25.991707 -27.198515 4.601942
25.813793 -25.782589 4.504395
25.822086 -26.260994 4.536341
25.677574 -26.748465 4.564774
25.865849 -27.154510 4.064089
25.499144 -25.813034 4.521807
25.508064 -26.289753 4.554235
25.725359 -26.622572 3.482189
25.715956 -27.117035 3.573185
25.505604 -25.675964 3.545746
25.540661 -26.154053 3.501350
25.448965 -26.630884 3.360161
25.498096 -27.103542 3.271717
26.458521 -26.731407 0.252579
25.252075 -25.671001 3.349586
25.287373 -26.150604 3.305019
25.174206 -26.638279 3.230972
25.196753 -27.121969 3.227798
26.104334 -26.761465 0.285637
24.973125 -25.679085 3.230965
25.022888 -26.151909 3.139019
25.759432 -26.251595 0.215477
25.768709 -26.784857 0.265034
23.566072 -26.327255 6.972912
25.578892 -25.184591 0.081192
25.593260 -25.722042 0.116192
25.434441 -26.271294 0.159470
25.455700 -26.799335 0.171215
25.243851 -25.210373 0.054420
25.264385 -25.743958 0.070763
25.098669 -26.296509 0.144588
25.109777 -26.828018 0.194901
23.018082 -26.373386 6.957785
24.896194 -25.244307 0.078373
24.917282 -25.776205 0.095135
24.766060 -26.320763 0.123241
24.788452 -26.846664 0.135574
22.727306 -26.407759 7.020901
24.585045 -25.256699 -0.028091
24.604321 -25.790260 -0.001606
24.438892 -26.342781 0.085747
22.835909 -27.608681 6.327133
24.461878 -26.867960 0.098328
22.404236 -26.464100 7.220900
24.241201 -25.289715 -0.007439
23.070471 -26.512079 4.690924
24.273354 -25.814632 -0.028507
23.001392 -26.952675 4.476330
24.102200 -26.370253 0.089687
24.108765 -26.902122 0.170013
22.282618 -26.390215 6.618292
22.788420 -26.530416 4.648891
22.291729 -27.203749 6.199633
23.834904 -26.899090 -0.073532
21.992498 -26.425404 6.688698
22.520039 -26.065018 4.448000
21.964622 -26.884361 6.902533
22.501736 -26.551880 4.628643
21.761147 -27.369778 7.295341
22.113800 -27.619762 5.877901
21.414364 -26.665888 8.043636
21.841522 -26.363619 6.154785
23.314789 -25.321096 -0.359833
21.459389 -27.058107 7.942102
22.662331 -26.287155 2.641285
21.494486 -27.392212 7.304054
21.691782 -27.716150 6.523863
21.193703 -26.660849 7.871170
22.974014 -25.353922 -0.336899
21.246822 -27.049149 7.730606
21.218155 -27.421177 7.363724
21.452713 -27.720272 6.378233
21.346298 -26.369576 5.891092
22.622280 -25.396231 -0.252762
21.083614 -27.004368 7.268608
22.383219 -26.107435 1.035515
21.038914 -27.390118 6.959490
20.991541 -27.847538 7.305256
21.102776 -26.367785 5.728338
21.269009 -26.704514 5.020267
22.091776 -26.113728 0.892735
20.683578 -27.470907 7.422762
20.704216 -27.883018 7.438463
20.873466 -26.352707 5.480099
21.967575 -25.446487 -0.297810
20.493805 -27.096989 7.611410
20.904625 -26.789488 5.451532
20.433283 -27.485512 7.373074
20.502066 -27.868834 7.134903
20.291386 -26.640228 7.169256
21.646709 -25.466797 -0.349987
20.581877 -26.848055 5.701653
20.440882 -27.315742 5.869785
20.307274 -27.847498 6.764170
20.041391 -26.652393 7.102894
20.144783 -27.004240 6.648155
21.352242 -26.015633 -0.370449
20.035313 -27.437847 6.663723
20.066624 -27.853098 6.629820
19.806496 -26.649796 6.941092
19.759851 -27.129532 7.384960
19.736279 -27.486839 6.884254
19.690353 -27.951780 7.331711
19.675394 -26.540955 6.087288
19.590324 -27.071436 6.814295
19.569946 -27.429394 6.253910
19.427910 -27.976152 7.369577
19.323811 -26.651854 6.662237
19.392693 -27.031883 6.371796
19.060760 -27.664005 7.973021
19.151108 -28.012600 7.518097
19.060856 -26.674366 6.662943
19.139591 -27.041798 6.283901
18.836338 -27.660488 7.780022
18.921978 -28.012602 7.334202
18.832941 -26.655527 6.391270
19.065624 -26.376209 4.546753
18.899065 -27.037239 6.090015
19.226374 -26.684114 3.514641
19.734827 -26.135555 -0.486046
18.679487 -27.587439 7.017363
18.919327 -27.349703 5.076521
19.131163 -27.139723 3.362278
18.670317 -28.030151 7.309980
18.780210 -26.406372 4.588957
18.499653 -27.212997 7.216728
18.840393 -26.819767 4.333300
18.427019 -27.603193 6.975218
18.370588 -28.092598 7.702816
18.177467 -26.877531 7.573870
18.248470 -27.228661 7.175880
18.211733 -27.576220 6.579823
18.123444 -28.109385 7.673534
17.970034 -26.831472 7.122150
18.023605 -27.208698 6.870937
17.949570 -27.599915 6.601002
17.938103 -28.059196 7.012970
17.777235 -26.749651 6.425508
17.835230 -27.128433 6.113632
17.654943 -27.668793 7.000383
17.687630 -28.073784 6.957706
17.508026 -26.785433 6.518784
17.496603 -27.270817 7.016983
17.325981 -27.799801 7.927355
17.364010 -28.183193 7.806770
17.196878 -26.909796 7.216450
17.761698 -25.770151 -0.539951
17.155107 -27.446430 8.181091
17.053986 -27.861988 8.283333
17.123569 -28.192682 7.706869
17.441620 -25.792000 -0.575180
16.873514 -27.541162 8.745548
16.814720 -27.873892 8.215673
16.882835 -28.200487 7.589151
17.118460 -25.821396 -0.558224
16.676598 -27.461296 7.986298
16.641060 -27.739069 6.890358
16.642376 -28.204611 7.433729
16.437057 -26.971361 7.202702
16.797213 -25.846794 -0.568092
16.469822 -27.373611 7.158985
16.388786 -27.752457 6.826178
16.371994 -28.270975 7.886570
16.476374 -25.871099 -0.585060
16.514706 -26.393337 -0.554085
16.156233 -27.698645 6.178406
16.126333 -28.290691 7.884607
16.202696 -28.078358 5.786707
16.155712 -25.894329 -0.609135
16.009970 -27.216368 5.617723
16.193975 -26.420481 -0.548397
15.903774 -27.683517 5.860149
15.888748 -28.281668 7.596352
15.723008 -26.716383 4.971859
15.835583 -25.912270 -0.670010
15.752356 -27.186157 5.211634
15.874342 -26.442848 -0.579586
15.633846 -27.746010 6.219521
15.755092 -26.970011 -0.595367
15.663539 -28.181946 6.394779
15.451838 -26.726610 4.885372
15.513748 -25.940445 -0.658821
15.554667 -26.461781 -0.637749
15.369596 -27.817261 6.660814
15.435041 -26.997656 -0.582672
15.403271 -28.222168 6.588005
15.192179 -25.971724 -0.625027
15.233912 -26.487413 -0.643551
15.113231 -27.857990 6.836168
15.115307 -27.028959 -0.537373
15.146519 -28.258465 6.743715
14.871039 -25.997721 -0.628040
14.955187 -27.524948 7.369755
14.913041 -26.510876 -0.666405
14.861259 -27.915380 7.162832
14.891675 -28.283138 6.782238
14.549163 -26.017136 -0.677780
14.704429 -27.542995 7.349741
14.591697 -26.533455 -0.696392
14.608374 -27.929544 7.104130
14.475052 -27.070286 -0.637188
14.642181 -28.335991 7.111588
14.227878 -26.045208 -0.665298
14.271676 -26.566309 -0.644215
14.357580 -27.957203 7.166864
14.156005 -27.101410 -0.593491
14.393777 -28.370438 7.254015
13.907475 -26.076332 -0.630234
13.952273 -26.598188 -0.599182
14.122725 -28.031832 7.658960
14.016800 -27.697689 4.609037
13.835312 -27.125185 -0.616562
14.140192 -28.383085 7.169748
14.049779 -28.125629 4.473520
13.583160 -26.092768 -0.701263
13.628856 -26.615660 -0.670383
13.869252 -28.037886 7.527277
13.893529 -28.414970 7.286638
13.261549 -26.120476 -0.690289
13.308050 -26.643297 -0.659439
13.600471 -28.017563 7.149620
13.640249 -28.431049 7.236605
12.938320 -26.144468 -0.706196
12.985086 -26.666426 -0.685345
12.873216 -27.202980 -0.629288
12.919601 -27.719433 -0.613438
12.614058 -26.167490 -0.729168
12.661588 -26.689936 -0.708427
12.554094 -27.232424 -0.601486
12.600458 -27.747761 -0.595592
12.291561 -26.194885 -0.719658
12.343557 -26.723366 -0.649475
12.230669 -27.255867 -0.630402
12.942482 -28.561586 7.973633
11.963186 -26.213354 -0.776466
12.013921 -26.739281 -0.736195
12.113533 -27.528849 1.711483
11.904863 -27.277617 -0.676289
12.694950 -28.580147 7.951860
11.641112 -26.242783 -0.751415
11.922862 -27.062794 1.760731
11.689054 -26.763920 -0.750767
11.810491 -27.552208 1.696465
11.584759 -27.307034 -0.649982
12.246492 -28.408138 5.820328
11.634890 -27.825663 -0.624561
11.591161 -26.621391 1.909550
11.316242 -26.268602 -0.753151
11.633650 -27.102140 1.885433
11.631687 -27.699099 2.871246
11.256611 -27.328548 -0.700047
11.309643 -27.849991 -0.654995
11.312604 -26.672659 2.115364
11.330029 -27.124205 1.864498
11.266134 -27.657017 2.227947
10.936378 -27.358646 -0.668110
10.985882 -27.876482 -0.662746
11.025532 -26.711016 2.225006
11.031728 -27.152399 1.895557
10.912148 -27.635523 1.776054
10.611616 -27.385014 -0.672886
10.661747 -27.903347 -0.667645
10.729929 -26.739267 2.258389
10.865433 -27.299873 2.953957
10.790169 -27.800459 3.152679
10.616224 -27.666214 1.830818
10.282614 -27.408743 -0.704399
11.455234 -28.680922 7.915371
10.974083 -28.357990 4.220535
10.338552 -27.931444 -0.659809
10.521925 -26.849323 2.923103
10.657892 -27.395918 3.579678
10.437429 -27.210777 1.975304
10.877467 -28.096523 5.849350
10.651832 -27.934589 4.243189
10.696047 -28.384016 4.245586
10.012462 -27.958185 -0.668858
10.610891 -27.207857 5.522133
10.109286 -26.770037 2.126797
10.299900 -27.364956 3.105431
10.599899 -28.112490 5.786434
10.322004 -27.926325 3.926270
10.349619 -28.370525 3.809792
10.018490 -28.178341 1.572311
9.684444 -27.984463 -0.684879
10.336613 -27.227900 5.510323
9.811396 -26.798044 2.158340
10.256554 -27.572353 4.716637
9.822020 -27.253460 1.918068
10.314732 -28.124968 5.686731
10.053272 -27.960922 4.035332
10.169847 -28.452816 4.490009
9.724986 -28.211445 1.654835
9.361992 -28.014492 -0.658592
10.056970 -27.244530 5.471592
9.518597 -26.830090 2.221855
9.989830 -27.604059 4.796404
9.524373 -27.283169 1.962242
9.776276 -27.989849 4.087744
9.388729 -27.761436 1.771011
9.884228 -28.474525 4.463110
9.026593 -28.038216 -0.708126
9.511691 -27.069397 3.920292
9.216316 -26.854935 2.229244
9.697041 -27.618322 4.721750
9.233934 -27.317558 2.048176
9.574156 -28.060261 4.564074
9.630415 -28.512203 4.625320
9.113844 -28.265144 1.670288
8.701960 -28.068153 -0.685886
9.277775 -27.130001 4.220720
9.509525 -27.698622 5.236549
8.910770 -27.331385 1.950787
9.401756 -28.141558 5.158991
8.792440 -27.822226 1.870171
9.494390 -28.601891 5.416945
8.375505 -28.097622 -0.670578
9.001784 -27.159849 4.279165
8.618570 -26.910536 2.291054
9.283962 -27.751219 5.508184
8.626595 -27.369596 2.071236
9.277349 -28.240944 5.950033
9.286870 -28.654339 5.768177
8.920847 -27.310041 5.303261
8.553606 -27.083164 3.483765
8.321871 -26.940002 2.335632
8.996372 -27.767092 5.449989
8.322623 -27.396124 2.086815
9.023500 -28.272066 6.038483
9.073254 -28.701706 6.062096
8.523437 -27.262394 4.743181
8.025514 -26.969753 2.382816
8.754248 -27.807926 5.618305
8.685957 -28.265482 5.729740
8.705928 -28.688395 5.606369
8.553289 -27.461147 6.175337
8.423351 -27.803318 5.370798
8.463249 -28.311016 5.969021
8.161644 -28.182981 4.607903
8.396667 -28.700321 5.456581
8.168407 -27.422701 5.688473
7.280802 -26.948250 1.817162
8.277589 -27.889652 5.960627
8.443562 -28.437016 7.073547
8.053948 -28.279478 5.385061
8.358321 -28.807207 6.505245
7.837116 -28.627724 4.231098
6.698928 -28.235771 -0.735085
7.921988 -27.460836 5.824183
7.896342 -27.864040 5.515182
6.389945 -27.181442 -0.843258
8.131294 -28.441162 6.878460
7.564286 -28.222500 4.515348
8.289225 -28.896530 7.348642
7.696573 -27.508398 6.039009
5.984173 -26.671171 -0.872986
7.735071 -27.938471 6.001259
7.226305 -27.718115 3.934326
7.868145 -28.465525 6.899223
7.487637 -28.325401 5.372143
8.045029 -28.925438 7.426367
7.752658 -28.834122 6.245443
7.902190 -27.756281 7.919743
5.634766 -26.694078 -0.901791
7.857513 -28.126591 7.567373
6.981115 -27.763340 4.136112
7.599888 -28.488426 6.903072
7.734729 -28.934566 7.245378
7.861514 -27.875599 8.748552
7.721655 -28.198772 8.052086
7.434261 -28.546377 7.294313
6.923209 -28.802820 5.197863
7.668466 -27.921822 8.972656
7.259749 -28.143143 7.318380
6.391850 -27.812656 4.151754
7.237683 -28.591877 7.551842
7.240968 -28.992331 7.393156
6.888687 -28.896547 6.114241
4.976307 -28.376579 -0.828438
7.356225 -27.917078 8.768093
6.993473 -28.165684 7.327665
6.880401 -28.586269 7.235928
6.978839 -29.017235 7.412676
6.208299 -28.816849 4.707401
7.073584 -27.926512 8.681259
7.082081 -28.313303 8.552305
6.172924 -27.994055 5.448433
6.709347 -28.638710 7.573788
6.691154 -29.036137 7.348463
5.677433 -28.783798 3.903366
4.292015 -28.438936 -0.804932
6.835143 -27.954224 8.749392
6.704649 -28.294413 8.163364
3.962136 -27.368490 -0.905907
6.462093 -28.667585 7.645607
3.877071 -27.930941 -0.817806
6.413375 -29.058279 7.325275
3.943296 -28.469366 -0.807514
6.561633 -27.968924 8.705797
5.844726 -27.703621 6.420244
6.462131 -28.322874 8.234961
5.940475 -28.153412 6.562609
3.598948 -27.392763 -0.943962
6.371194 -28.739294 8.213892
5.922864 -29.032442 6.628786
3.596754 -28.500935 -0.797298
6.161412 -27.939322 8.277084
4.837451 -27.466911 4.181618
3.171033 -26.872309 -0.973186
6.171520 -28.336285 8.157042
4.907056 -27.940781 4.224203
3.252588 -27.423292 -0.921650
6.184972 -28.782639 8.459324
3.166489 -27.988129 -0.840870
6.146028 -29.167564 8.188929
6.057705 -28.015829 8.768143
4.515797 -27.484999 4.136852
6.066714 -28.406796 8.649105
2.918324 -27.458014 -0.858315
5.768600 -28.766624 8.006321
4.479508 -28.440237 4.149105
6.074625 -29.232309 8.777269
5.599339 -29.132402 7.347507
2.873535 -28.559429 -0.852325
5.755691 -28.023102 8.656994
5.635806 -28.379578 8.160831
2.545780 -27.481876 -0.905056
5.622507 -28.819860 8.369144
2.442213 -28.044895 -0.878628
5.770576 -29.247295 8.656672
2.527740 -28.593050 -0.822651
5.490750 -28.043697 8.661552
5.591054 -28.464527 8.805511
2.188027 -27.510931 -0.901134
5.478747 -28.871904 8.723022
2.091597 -28.077173 -0.854641
5.536652 -29.277008 8.746403
2.158406 -28.622593 -0.855640
5.350544 -28.103533 9.014587
5.354300 -28.493677 8.886820
5.279171 -28.909695 8.908669
4.107560 -28.644888 5.685192
4.533222 -29.163544 6.707687
5.125637 -28.135902 9.125677
4.983425 -28.487799 8.605951
5.113528 -28.954283 9.179808
4.880362 -29.302757 8.417299
4.678317 -28.103462 8.653265
4.730837 -28.514145 8.655291
4.698525 -28.945438 8.790691
4.548676 -29.317026 8.262871
4.585160 -28.174475 9.112661
4.652179 -28.583109 9.152378
4.473125 -28.977734 8.907892
4.275416 -29.342228 8.270145
2.685715 -29.079718 4.208025
4.128065 -28.143837 8.648623
4.326038 -28.591177 9.010651
4.241559 -29.008688 9.008463
4.027561 -29.371931 8.344927
4.117249 -28.234581 9.294266
4.076106 -28.618034 9.066097
3.885217 -29.016098 8.806847
3.886601 -29.418095 8.680433
3.020432 -29.285877 6.575520
3.710242 -28.220387 8.975643
3.602341 -28.595783 8.591148
3.563502 -29.031429 8.701216
3.618786 -29.444530 8.703543
2.687783 -29.307873 6.495705
3.209912 -28.185780 8.461096
3.360003 -28.626291 8.680580
3.441674 -29.082956 9.065826
2.893652 -28.986748 7.802965
3.580194 -29.503723 9.260876
3.151467 -28.261189 8.972260
2.477970 -28.099522 7.452665
3.054043 -28.643713 8.626278
3.382074 -29.143654 9.558155
3.477760 -29.552158 9.652483
3.018844 -28.316664 9.301111
2.027767 -28.085924 7.116476
3.012908 -28.714931 9.165623
2.892412 -29.131958 9.086817
3.253645 -29.583414 9.761875
2.593507 -28.304556 8.989147
1.725873 -28.108583 7.120003
2.729450 -28.736773 9.160788
2.599954 -29.154369 9.065239
1.126787 -28.921566 5.898920
2.858521 -29.593212 9.501669
2.065309 -29.493639 7.789068
1.435908 -28.134489 7.153561
0.453747 -27.919216 5.084982
2.295945 -28.731110 8.843420
0.817809 -28.454222 5.716225
1.521592 -29.057501 7.397810
0.685491 -28.929899 5.640781
1.744017 -29.517851 7.739140
-2.386142 -29.019337 -0.979168
0.141005 -27.947054 5.120844
-2.859630 -27.308691 -1.059666
1.439549 -28.651060 7.669874
0.120722 -28.411772 4.941317
0.221235 -28.936750 5.352121
1.359966 -29.535551 7.566833
0.153954 -29.395605 5.077085
1.045227 -28.226727 7.612801
-0.083630 -27.993582 5.338196
-3.284272 -27.332544 -1.110973
-0.012341 -28.473370 5.347067
-3.152410 -27.921444 -1.008045
-0.102423 -28.965664 5.364105
-0.251216 -29.417683 4.928679
0.888193 -28.279472 7.910891
0.777405 -28.690609 7.568487
-0.359637 -28.496975 5.316698
-0.526422 -28.981365 5.183649
-3.678033 -28.548050 -1.017998
-0.502204 -29.457541 5.096910
-3.591184 -29.126423 -1.008095
0.533727 -28.292681 7.820478
-0.689713 -28.054409 5.459263
0.324657 -28.691647 7.292799
-0.786271 -28.508333 5.139397
-3.968190 -27.983290 -1.028370
-1.014438 -28.990080 4.893078
-1.127494 -29.458759 4.539553
-3.980454 -29.164934 -0.979748
0.246546 -28.319805 7.866140
0.284472 -28.760744 7.816818
-1.475900 -29.004230 4.670370
-4.491889 -28.617466 -1.017925
-1.208592 -29.516777 5.041937
-4.421884 -29.198917 -1.044590
-0.017212 -28.351643 7.958488
0.242889 -28.827545 8.321852
-1.458341 -28.563929 5.160154
-5.007298 -28.013992 -1.435497
-0.155430 -29.240759 7.754143
-1.628192 -29.541201 4.901461
-4.851588 -29.235039 -1.078171
-0.569184 -28.332178 7.529873
-5.328719 -27.482447 -1.097805
-0.299994 -28.817110 7.898886
-0.385756 -29.278303 7.911879
-5.320790 -28.688221 -1.018162
-5.244754 -29.275396 -1.037045
-0.543101 -28.416065 8.150553
-0.226912 -28.899117 8.596895
-1.192780 -28.758543 6.874182
-2.375224 -29.112680 4.949574
-5.739831 -28.724281 -1.016010
-1.494800 -29.678717 6.386341
-5.623967 -29.317581 -0.965744
-0.834970 -28.443624 8.198423
-0.846240 -28.880596 8.062052
-2.255851 -29.196060 5.775288
-6.175246 -28.759333 -1.035324
-2.083766 -29.688967 5.948992
-6.072961 -29.354406 -1.011993
-1.716762 -28.374979 7.243324
-2.034215 -28.787657 6.579472
-6.484988 -28.179251 -1.045681
-2.108241 -29.279478 6.622486
-2.046096 -29.751966 6.606476
-6.483909 -29.395264 -0.984219
-1.890105 -28.424976 7.516062
-2.815288 -28.756598 5.843962
-6.934257 -28.210949 -1.074226
-3.234817 -29.227619 5.314499
-7.031037 -28.833727 -1.025341
-6.926608 -29.434364 -1.003571
-2.916093 -28.342319 6.385408
-3.439498 -28.749973 5.401176
-7.297549 -28.254715 -0.952774
-7.440305 -28.874022 -0.979282
-2.636086 -29.823151 6.768600
-7.371203 -29.474207 -1.018002
-3.015658 -28.405691 6.794178
-3.752486 -28.294891 5.608931
-7.920825 -27.668091 -1.096172
-7.786391 -28.283180 -1.031429
-7.887324 -28.911331 -0.988251
-7.796576 -29.516277 -0.993526
-3.338897 -28.434990 6.840384
-8.371486 -27.699488 -1.100460
-3.239371 -28.919813 6.878895
-8.214307 -28.320274 -1.003120
-8.336127 -28.949385 -0.992226
-8.244506 -29.557558 -0.998226
-8.791432 -27.736238 -1.049473
-8.632590 -28.359278 -0.953388
-8.786666 -28.988178 -0.991199
-8.672521 -29.600973 -0.964314
-9.245095 -27.769051 -1.043972
-9.144738 -28.388363 -1.041073
-9.238883 -29.027712 -0.985134
-9.123578 -29.643688 -0.959160
-9.744842 -27.796642 -1.099655
-9.599135 -28.425125 -1.031368
-9.715003 -29.066132 -1.007160
-9.576262 -29.687141 -0.948936
-10.185430 -27.833229 -1.058899
-10.032653 -28.465008 -0.983562
-10.170701 -29.107191 -0.990723
-10.053041 -29.730082 -0.966660
-10.684104 -27.863266 -1.095150
-10.535401 -28.498529 -1.029453
-10.627913 -29.148987 -0.969154
-10.509107 -29.775057 -0.946018
-11.116004 -27.902729 -1.027916
-10.971650 -28.539843 -0.971554
-11.103936 -29.190235 -0.966862
-10.989722 -29.819609 -0.952881
-11.624549 -27.933729 -1.061111
-11.519544 -28.571148 -1.062862
-11.640332 -29.228125 -1.040039
-11.472306 -29.864990 -0.954159
-12.111934 -27.968399 -1.056133
-11.982396 -28.611774 -1.026630
-12.096948 -29.272720 -0.994049
-11.950889 -29.911465 -0.941753
-12.601174 -28.003901 -1.045502
-12.500295 -28.648300 -1.057194
-12.590672 -29.315668 -0.990871
-12.467071 -29.957216 -0.971867
-13.140622 -28.034924 -1.092644
-13.014651 -28.686298 -1.073593
-13.128760 -29.356798 -1.037495
-12.979678 -30.004154 -0.987812
-13.658431 -28.069567 -1.101707
-13.506860 -28.727270 -1.052265
-13.638999 -29.400789 -1.038105
-13.494555 -30.052011 -0.997623
-14.110377 -28.112165 -1.018463
-14.000741 -28.769066 -1.025177
-14.138892 -29.446392 -1.016960
-14.011636 -30.100786 -1.001263
-14.700616 -28.141617 -1.101242
-14.571187 -28.805817 -1.085827
-14.678119 -29.490768 -1.036613
-14.505816 -30.151308 -0.967487
-15.256478 -28.175943 -1.130249
-15.113233 -28.846062 -1.100677
-15.200795 -29.537134 -1.026489
-15.020497 -30.202066 -0.951126
-15.751105 -28.217339 -1.075737
-15.613025 -28.890553 -1.055103
-15.751069 -29.583132 -1.040771
-15.594546 -30.252068 -0.997795
-16.330952 -28.251846 -1.114403
-16.198040 -28.929970 -1.102840
-16.303787 -29.630138 -1.048271
-16.145752 -30.303860 -1.006718
-16.887619 -28.289774 -1.115585
-16.720982 -28.974932 -1.067463
-16.885010 -29.676968 -1.079197
-16.731945 -30.355867 -1.046722
-17.446602 -28.328712 -1.109901
-17.278484 -29.018635 -1.063389
-17.416248 -29.727180 -1.042759
-17.228855 -30.411055 -0.974003
-18.034431 -28.366440 -1.127102
-17.864803 -29.061680 -1.082272
-18.002491 -29.776121 -1.059471
-17.846565 -30.464611 -1.029778
-18.624935 -28.405270 -1.136898
-18.487350 -29.103802 -1.130787
-18.537544 -29.828247 -1.009644
-18.400398 -30.520611 -1.003513
-19.218025 -28.445202 -1.139252
-19.072498 -29.149504 -1.127209
-19.182835 -29.877306 -1.070633
-19.017193 -30.576599 -1.036530
-19.786228 -28.488308 -1.105034
-19.612160 -29.198944 -1.065247
-19.749329 -29.930492 -1.035896
-19.609600 -30.634174 -1.032436
-20.439255 -28.526340 -1.150291
-20.291241 -29.241924 -1.141277
-20.400753 -29.981993 -1.080681
-20.176773 -30.693190 -0.991886
-21.067722 -28.567640 -1.158405
-20.855793 -29.292345 -1.086437
-20.999611 -30.036474 -1.059681
-20.801510 -30.752613 -1.001614
-21.698925 -28.610132 -1.158421
-21.464115 -29.341677 -1.067238
-21.628860 -30.091253 -1.059433
-21.428963 -30.813229 -1.003242
-22.304375 -28.655693 -1.122169
-22.124321 -29.389805 -1.089600
-22.260715 -30.147221 -1.051033
-22.066128 -30.874981 -1.003777
-22.933353 -28.700972 -1.099102
-22.758987 -29.440495 -1.075336
-22.923752 -30.203676 -1.062321
-22.684479 -30.938055 -0.975037
-23.658478 -28.741631 -1.157722
-23.446552 -29.490225 -1.101311
-13.610713 -30.485552 8.479027
-23.524654 -30.262875 -1.002666
-23.377151 -31.002022 -1.007561
-24.307350 -28.788527 -1.131268
-24.093723 -29.543076 -1.076962
-13.913039 -30.533342 8.665976
-24.280277 -30.319984 -1.079159
-24.065838 -31.067381 -1.023945
-25.009941 -28.833687 -1.143826
-24.765251 -29.596287 -1.064564
-24.981258 -30.379768 -1.091019
-14.192555 -31.133148 8.768284
-24.735584 -31.134089 -1.010723
-25.708221 -28.880630 -1.140270
-25.498489 -29.648619 -1.097187
-25.685291 -30.440926 -1.093472
-25.444874 -31.202135 -1.022297
-26.387009 -28.930109 -1.107426
-15.531684 -30.072180 8.476124
-26.197968 -29.703709 -1.086487
-15.089065 -30.674263 8.999704
-26.134895 -31.271502 -1.004280
-14.465047 -29.623274 9.994066
-15.311263 -30.138226 9.144140
-15.448884 -30.722847 9.149090
-15.749587 -31.286272 8.776617
-15.310140 -29.641838 9.714222
-15.338504 -30.194914 9.583830
-15.467437 -30.775860 9.596470
-15.763562 -31.335941 9.233974
-15.277810 -29.704018 10.196510
-15.565953 -30.245043 9.847088
-15.938369 -30.823700 9.654461
-15.985219 -31.386694 9.508200
-15.677125 -29.745701 10.311790
-15.653005 -30.298952 10.227768
-16.118416 -30.874773 9.961718
-15.905108 -31.434532 10.034342
-15.852328 -29.797659 10.615604
-15.828418 -30.350115 10.531872
-16.179291 -30.926497 10.365099
-16.428787 -31.488344 10.055904
-16.273804 -29.839245 10.720175
-16.335377 -30.393322 10.567091
-16.726639 -30.975336 10.373083
-19.245121 -29.781385 8.816940
-16.843967 -30.437489 10.609213
-16.825615 -30.493160 11.069939
-28.330975 -31.058950 2.269196
-17.492496 -30.535498 10.999853
-28.413357 -31.127680 2.803070
-28.385593 -31.195633 3.413757
-28.147633 -31.942926 3.456512
-30.235123 -29.677715 2.615253
-28.538937 -30.479870 3.727203
-28.168217 -32.005402 4.021795
-22.384464 -29.994711 8.881546
-28.427555 -30.552916 4.386591
-28.093163 -32.065166 4.649570
-22.748421 -30.048864 9.113049
-25.253029 -30.660368 7.216181
-28.132683 -32.126682 5.186760
-28.551796 -29.957199 5.562769
-28.308315 -31.458673 5.752249
-28.026764 -32.184101 5.819649
-28.533031 -30.030869 6.131882
-28.473335 -30.761288 6.044415
-28.028561 -32.243378 6.369297
-28.590668 -30.101730 6.642748
-28.481441 -30.829178 6.589222
-28.015759 -32.301647 6.922340
-28.230705 -31.647224 7.442894
-27.996601 -32.359112 7.472992
-23.550255 -32.283859 10.886742
14.912721 -31.138241 35.836208
14.831111 -31.137882 35.797817
14.857985 -31.141039 35.811409
14.874598 -31.140612 35.822784
14.855411 -31.137867 35.816147
14.837973 -31.142534 35.806633
14.863641 -31.141670 35.822334
14.889242 -31.137415 35.837959
14.907513 -31.139881 35.846348
14.888352 -31.137712 35.839828
14.906697 -31.140152 35.848064
14.887479 -31.138008 35.841709
14.869690 -31.142221 35.832882
14.904823 -31.137657 35.851864
14.859674 -31.143003 35.830776
14.858375 -31.139608 35.833336
14.876974 -31.142389 35.841049
14.894430 -31.141724 35.851009