# This PCD file was generated using the MATLAB® pcwrite function
# from Computer Vision System Toolbox®.
# .PCD v.7 - Point Cloud Data file format
VERSION .7
FIELDS x y z
SIZE 4 4 4
TYPE F F F
COUNT 1 1 1
WIDTH 752
HEIGHT 1
VIEWPOINT 0 0 0 1 0 0 0
POINTS 752
DATA ascii
-28.703884 -15.485046 -0.926699
-27.779276 -15.626751 -0.828682
-28.228460 -15.210445 -0.955528
-27.309462 -15.349174 -0.848173
-27.707062 -14.911548 -0.932289
-26.834675 -15.069167 -0.853729
-27.242037 -14.643348 -0.952002
-26.348507 -14.783154 -0.838688
-26.805513 -14.390807 -0.990345
-25.890835 -14.513448 -0.842079
-26.290497 -14.096622 -0.943201
-25.513451 -14.288934 -0.917763
-25.857376 -13.846667 -0.967236
-25.058960 -14.021658 -0.907469
-25.399549 -13.583883 -0.957811
-24.651525 -13.780963 -0.937305
-24.995773 -13.350303 -0.995234
-24.232683 -13.534214 -0.947256
-24.567425 -13.103968 -0.999268
-23.834482 -13.299263 -0.971405
-24.089552 -12.831676 -0.941654
-23.437672 -13.065377 -0.989510
-23.715984 -12.615184 -0.987591
-23.017376 -12.818743 -0.973553
-23.324541 -12.389510 -1.006990
-22.648466 -12.600935 -1.007702
-22.928259 -12.161596 -1.013460
-22.231682 -12.356858 -0.979324
-22.527349 -11.931570 -1.006849
-21.865562 -12.141153 -1.002108
-22.109745 -11.693080 -0.972630
-21.476620 -11.913092 -0.990479
-21.718632 -11.468925 -0.961048
-21.143150 -11.715967 -1.038841
-21.377579 -11.271441 -1.002123
-20.757288 -11.490161 -1.016094
-20.995584 -11.052717 -0.986740
-20.396730 -11.278597 -1.017309
-20.633139 -10.844578 -0.987991
-20.060869 -11.080896 -1.043215
-20.295670 -10.649819 -1.013922
-19.726099 -10.884034 -1.064346
-19.906939 -10.428539 -0.967171
-19.369703 -10.675528 -1.050301
-19.577965 -10.238798 -0.990660
-19.009312 -10.465098 -1.023420
-19.244366 -10.046908 -1.001884
-18.661882 -10.262046 -1.006720
-18.889418 -9.844192 -0.977560
-18.354706 -10.081291 -1.039429
-18.575331 -9.662999 -1.002508
-18.048397 -9.901218 -1.067942
-18.273287 -9.488289 -1.038795
-17.678164 -9.686453 -0.997698
-17.900894 -9.277435 -0.968607
-17.374409 -9.508241 -1.017237
-17.617474 -9.112859 -1.019875
-17.687920 -8.620736 -1.001945
-17.906992 -8.214808 -0.970562
-17.092777 -9.342288 -1.064594
-17.313152 -8.937716 -1.035503
-17.361214 -8.437967 -0.983561
-17.584221 -8.037519 -0.960258
-16.769905 -9.154085 -1.043953
-16.993977 -8.755182 -1.022921
-17.057373 -8.266598 -0.992891
-17.262859 -7.861230 -0.945551
-16.448584 -8.966968 -1.018816
-16.686697 -8.579028 -1.022121
-16.733530 -8.085855 -0.965725
-16.974989 -7.700502 -0.975071
-16.149263 -8.792028 -1.021782
-16.365129 -8.395821 -0.992752
-16.452995 -7.926290 -0.999376
-16.661486 -7.528450 -0.960102
-15.871264 -8.628852 -1.053488
-16.086092 -8.234626 -1.024450
-16.152540 -7.757397 -0.996578
-16.375488 -7.369135 -0.981918
-15.574033 -8.455457 -1.048620
-15.787550 -8.063699 -1.019596
-15.853287 -7.589369 -0.989788
-16.074854 -7.203528 -0.975290
-15.278028 -8.282938 -1.039772
-15.515178 -7.906328 -1.052193
-15.555280 -7.422228 -0.979033
-15.775465 -7.038810 -0.964697
-15.002712 -8.121795 -1.060328
-15.194177 -7.724495 -0.997965
-15.278413 -7.265429 -0.997755
-15.502520 -6.886181 -0.991894
-14.709018 -7.950939 -1.043785
-14.938336 -7.575945 -1.048311
-14.987659 -7.102293 -0.987730
-15.205418 -6.723108 -0.973680
-14.435585 -7.791194 -1.057076
-14.644417 -7.408344 -1.028063
-14.707810 -6.944593 -0.990810
-14.948923 -6.578268 -1.019106
-14.149014 -7.624585 -1.041418
-14.375560 -7.253624 -1.046324
-14.414648 -6.780899 -0.964819
-14.654059 -6.416802 -0.993509
-13.877539 -7.466278 -1.047581
-14.084103 -7.087764 -1.018572
-14.165317 -6.638044 -1.011852
-14.360620 -6.256320 -0.964069
-13.606994 -7.308657 -1.050280
-13.817143 -6.934439 -1.029840
-13.888412 -6.482497 -1.004374
-14.106367 -6.113211 -0.999441
-13.332939 -7.149351 -1.040918
-13.555566 -6.784012 -1.046362
-13.617199 -6.329870 -1.002003
-13.829326 -5.960470 -0.988625
-13.086481 -7.004955 -1.080009
-13.290246 -6.631922 -1.050985
-13.369590 -6.188424 -1.039583
-13.562598 -5.812474 -0.991640
-12.831709 -6.856284 -1.098724
-13.034657 -6.484877 -1.069691
-13.100110 -6.037081 -1.030630
-13.310347 -5.670936 -1.017481
-12.513381 -6.674025 -0.983120
-12.736225 -6.316823 -0.997847
-12.831705 -5.886501 -1.018301
-13.040826 -5.522288 -1.005287
-12.286247 -6.540407 -1.047699
-12.486940 -6.173342 -1.018679
-12.564404 -5.736701 -1.002625
-12.754852 -5.367016 -0.954573
-12.054899 -6.404675 -1.100861
-12.255129 -6.038632 -1.071814
-12.332283 -5.603166 -1.054348
-12.522423 -5.234595 -1.006210
-11.790976 -6.251869 -1.080399
-12.006795 -5.895957 -1.086819
-12.066754 -5.454660 -1.032364
-12.273070 -5.095266 -1.019691
-11.524214 -6.097766 -1.047728
-11.742763 -5.745803 -1.063221
-11.818908 -5.314399 -1.042776
-12.024379 -4.956448 -1.030209
-11.298292 -5.965342 -1.101196
-11.496017 -5.604306 -1.072132
-11.555532 -5.167406 -1.014402
-11.759884 -4.811385 -1.001966
-11.068516 -5.831014 -1.143124
-11.265779 -5.471003 -1.114033
-11.325305 -5.035464 -1.054770
-11.529084 -4.680399 -1.042408
-10.808407 -5.680942 -1.110220
-11.020190 -5.330423 -1.117226
-11.079599 -4.896820 -1.056379
-11.266583 -4.536749 -1.008013
-10.538352 -5.525883 -1.046915
-10.763904 -5.184899 -1.090322
-10.834661 -4.758743 -1.055088
-11.036747 -4.406563 -1.042933
-10.321530 -5.398780 -1.107595
-10.516299 -5.043780 -1.078497
-10.590514 -4.621247 -1.050911
-10.776348 -4.264384 -1.002457
-10.093725 -5.266074 -1.138498
-10.288036 -4.912099 -1.109375
-10.347184 -4.484345 -1.043863
-10.547575 -4.135050 -1.031914
-9.837866 -5.118968 -1.093460
-10.045606 -4.773841 -1.101013
-10.133861 -4.360626 -1.107391
-10.333948 -4.011799 -1.095490
-9.611193 -4.987152 -1.118935
-9.804031 -4.636198 -1.089802
-9.877382 -4.218504 -1.058084
-10.079992 -3.873015 -1.055519
-9.357618 -4.841615 -1.067945
-9.566807 -4.500813 -1.084997
-9.639882 -4.084795 -1.051914
-9.838068 -3.739214 -1.040241
-9.132172 -4.710739 -1.088049
-9.323540 -4.362807 -1.058914
-9.410035 -3.954548 -1.061569
-9.611079 -3.611371 -1.059246
-8.920149 -4.586871 -1.142839
-9.111341 -4.239483 -1.113670
-9.170606 -3.820491 -1.040699
-9.381037 -3.482572 -1.066422
-8.672828 -4.445088 -1.092672
-8.863077 -4.099575 -1.063513
-8.961812 -3.699404 -1.101137
-9.144805 -3.351709 -1.052343
-8.461257 -4.321699 -1.142584
-8.651331 -3.976730 -1.113396
-8.720474 -3.565011 -1.065657
-8.919303 -3.225059 -1.063671
-8.225135 -4.185968 -1.115068
-8.423843 -3.846787 -1.114058
-8.486598 -3.433964 -1.046185
-8.681350 -3.094128 -1.034931
-8.001961 -4.056960 -1.122528
-8.190849 -3.714531 -1.093327
-8.259784 -3.306029 -1.042917
-8.469653 -2.972869 -1.078863
-7.779262 -3.928335 -1.127512
-7.967699 -3.586936 -1.098295
-8.051680 -3.185766 -1.093880
-8.245548 -2.847351 -1.082741
-7.557061 -3.800104 -1.130028
-7.753772 -3.463636 -1.129236
-7.828660 -3.059695 -1.095224
-8.021949 -2.722233 -1.084158
-7.324305 -3.666761 -1.092049
-7.511560 -3.327905 -1.062824
-7.617651 -2.938501 -1.132181
-7.810632 -2.601506 -1.121155
-7.111535 -3.543533 -1.118164
-7.312375 -3.211427 -1.136587
-7.395419 -2.813095 -1.128746
-7.587822 -2.477053 -1.117792
-6.893642 -3.417891 -1.122887
-7.091049 -3.085309 -1.131865
-7.173756 -2.688123 -1.122881
-7.365579 -2.353034 -1.111998
-6.683841 -3.296363 -1.153997
-6.870300 -2.959629 -1.124722
-6.952681 -2.563595 -1.114601
-7.143923 -2.229459 -1.103786
-6.474059 -3.174947 -1.182898
-6.660347 -2.838759 -1.153601
-6.729632 -2.438575 -1.094303
-6.933476 -2.109643 -1.131601
-6.252278 -3.047808 -1.161415
-6.438047 -2.712772 -1.132114
-6.519901 -2.318630 -1.119751
-6.710187 -1.986034 -1.109058
-6.024276 -2.917845 -1.108521
-6.209320 -2.584324 -1.079231
-6.302927 -2.196235 -1.114025
-6.490196 -1.863728 -1.093739
-5.826914 -2.802796 -1.178917
-6.012135 -2.469216 -1.149593
-6.093564 -2.076702 -1.135017
-6.283029 -1.745403 -1.124428
-5.609217 -2.678099 -1.160025
-5.803021 -2.349233 -1.169491
-5.882010 -1.956548 -1.144123
-6.064024 -1.623867 -1.104490
-5.390100 -2.552905 -1.129059
-5.583094 -2.225021 -1.138607
-5.666288 -1.835175 -1.131556
-5.854863 -1.505294 -1.121071
-5.190219 -2.436917 -1.183395
-5.374583 -2.105584 -1.154039
-5.448999 -1.713542 -1.106949
-5.636992 -1.384612 -1.096533
-4.966277 -2.309802 -1.118574
-5.160104 -1.983949 -1.138025
-5.240730 -1.595035 -1.119068
-5.428414 -1.266571 -1.108694
-4.768302 -2.194886 -1.178431
-4.952120 -1.865011 -1.149059
-5.024650 -1.474295 -1.089909
-5.211751 -1.146782 -1.079599
-4.560665 -2.075600 -1.187319
-4.742426 -1.745566 -1.148140
-4.815114 -1.355796 -1.087843
-5.003828 -1.029313 -1.087368
-4.358462 -1.958880 -1.223492
-4.542152 -1.629738 -1.194090
-4.609626 -1.238640 -1.103222
-4.796109 -0.912058 -1.092991
-4.130947 -1.830984 -1.110146
-4.313639 -1.503843 -1.080776
-4.400665 -1.120664 -1.096834
-4.588612 -0.795026 -1.096468
-3.932605 -1.716238 -1.161674
-4.122144 -1.391354 -1.171650
-4.195490 -1.003879 -1.107965
-4.388422 -0.679485 -1.137157
-3.730721 -1.599988 -1.191496
-3.915224 -1.273510 -1.171940
-3.988797 -0.886858 -1.107140
-4.181121 -0.562757 -1.136423
-3.519959 -1.480045 -1.160015
-3.708568 -1.155913 -1.170095
-3.782376 -0.770089 -1.104181
-3.974092 -0.446280 -1.133558
-3.312675 -1.361757 -1.146107
-3.502192 -1.038573 -1.166124
-3.582143 -0.654806 -1.138651
-3.767351 -0.330064 -1.128571
-3.107136 -1.244348 -1.139957
-3.301585 -0.923122 -1.199621
-3.376018 -0.538394 -1.131512
-3.560916 -0.214117 -1.121468
-2.906807 -1.129151 -1.171350
-3.089053 -0.804332 -1.141918
-3.164916 -0.421381 -1.082628
-3.354802 -0.098449 -1.112255
-2.702761 -1.012569 -1.170954
-2.884911 -0.688177 -1.141516
-2.964749 -0.306417 -1.110914
-3.154298 0.016707 -1.140591
-2.497837 -0.895794 -1.158543
-2.679821 -0.571952 -1.129107
-2.764336 -0.191406 -1.137188
-2.943605 0.132014 -1.087528
-2.296271 -0.780386 -1.173870
-2.479366 -0.456962 -1.154364
-2.554899 -0.075628 -1.081934
-2.743225 0.246913 -1.111755
-2.092785 -0.664405 -1.167255
-2.274717 -0.341175 -1.137806
-2.354641 0.039109 -1.104109
-2.542629 0.361843 -1.133965
-1.888696 -0.548389 -1.148619
-2.074131 -0.226297 -1.158997
-2.154183 0.153867 -1.124266
-2.337766 0.476327 -1.114368
-1.688107 -0.433602 -1.167774
-1.873352 -0.111402 -1.178169
-1.950050 0.268484 -1.102562
-2.133321 0.590479 -1.092699
-1.487341 -0.318806 -1.184914
-1.671629 0.003564 -1.185354
-1.749540 0.383087 -1.118668
-1.937104 0.706120 -1.158609
-1.283306 -0.203315 -1.150139
-1.465064 0.118567 -1.120680
-1.548875 0.497686 -1.132757
-1.728913 0.818738 -1.083036
-1.083156 -0.088840 -1.173203
-1.265094 0.233100 -1.143730
-1.345489 0.611598 -1.104921
-1.528376 0.933172 -1.095095
-0.881782 0.025810 -1.174280
-1.064303 0.347633 -1.154793
-1.144866 0.725990 -1.114964
-1.330271 1.048915 -1.145033
-0.681233 0.140328 -1.193321
-0.861544 0.461692 -1.123886
-0.944134 0.840351 -1.122992
-1.126948 1.161966 -1.113171
-0.477566 0.254595 -1.120396
-0.660840 0.575992 -1.130905
-0.743310 0.954673 -1.129007
-0.926086 1.276308 -1.119184
-0.278909 0.369356 -1.205370
-0.462543 0.691832 -1.215855
-0.542408 1.068946 -1.133005
-0.725148 1.390603 -1.123184
-0.077633 0.483797 -1.208364
-0.259898 0.805175 -1.168882
-0.341444 1.183164 -1.134987
-0.524147 1.504841 -1.125168
0.124151 0.597361 -1.159351
-0.058757 0.919447 -1.169859
-0.140433 1.297316 -1.134954
-0.323100 1.619014 -1.125134
0.325065 0.712485 -1.208302
0.142339 1.033977 -1.178810
0.060610 1.411394 -1.132908
-0.122021 1.733113 -1.123089
0.526153 0.825471 -1.155256
0.343651 1.146662 -1.135778
0.261668 1.525390 -1.128843
0.079075 1.847130 -1.119022
0.727312 0.939692 -1.160179
0.544569 1.260157 -1.120718
0.462728 1.639294 -1.122765
0.280203 1.960377 -1.102962
0.929891 1.055913 -1.223040
0.746765 1.378034 -1.203535
0.664224 1.755496 -1.154596
0.481428 2.077762 -1.144741
1.130626 1.168851 -1.183945
0.947230 1.489589 -1.144484
0.865543 1.869363 -1.144474
0.682784 2.191650 -1.134617
1.333418 1.284365 -1.212749
1.149854 1.606024 -1.183266
1.066817 1.983113 -1.132334
0.884877 2.308645 -1.162338
1.535004 1.398245 -1.199579
1.351328 1.719841 -1.170103
1.267690 2.096009 -1.108213
1.086430 2.422461 -1.148159
1.738585 1.514021 -1.224285
1.554522 1.836038 -1.194805
1.470833 2.213308 -1.141859
1.287908 2.536142 -1.131964
1.935588 1.623407 -1.127317
1.751962 1.944390 -1.097874
1.674151 2.330078 -1.163467
1.490986 2.653417 -1.153540
2.143962 1.743210 -1.217690
1.959468 2.065465 -1.188215
1.875698 2.443613 -1.143211
1.694065 2.769903 -1.163097
2.345713 1.856813 -1.196398
2.161107 2.179006 -1.166933
2.079695 2.560580 -1.160696
1.898051 2.887505 -1.180523
2.547334 1.970251 -1.173088
2.363366 2.293179 -1.153580
2.281285 2.673954 -1.136372
2.097953 2.997839 -1.126402
2.748810 2.083515 -1.147762
2.563980 2.405581 -1.118326
2.485105 2.790101 -1.139795
2.302329 3.115474 -1.139708
2.957886 2.202692 -1.199810
2.772393 2.525667 -1.170362
2.694432 2.912471 -1.200592
2.510344 3.237849 -1.190523
3.163810 2.319137 -1.210020
2.981839 2.646240 -1.220211
2.895476 3.024722 -1.160194
2.712370 3.351190 -1.160015
3.371268 2.436567 -1.228020
3.188091 2.763416 -1.228266
3.102296 3.143348 -1.177114
2.918004 3.469251 -1.167006
3.573290 2.549765 -1.194437
3.391356 2.877688 -1.204550
3.308558 3.261028 -1.182020
3.128134 3.592532 -1.211334
3.785260 2.670192 -1.237837
3.600561 2.997088 -1.228142
3.515190 3.378822 -1.184797
3.330417 3.705735 -1.174616
3.992808 2.787172 -1.239553
3.809151 3.115671 -1.239695
3.722177 3.496720 -1.185446
3.537163 3.824137 -1.175226
4.199280 2.903236 -1.229284
4.011473 3.228754 -1.199865
3.929502 3.614713 -1.183956
3.744247 3.942634 -1.173698
4.413415 3.024590 -1.266060
4.224948 3.351019 -1.236633
4.137148 3.732790 -1.180321
3.951652 4.061215 -1.170027
4.617460 3.138667 -1.231857
4.434826 3.470037 -1.241693
4.345098 3.850943 -1.174538
4.164969 4.185806 -1.203365
4.826292 3.255985 -1.224991
4.637262 3.582899 -1.195597
4.553336 3.969161 -1.166599
4.367358 4.298594 -1.156231
5.033681 3.372181 -1.206186
4.850945 3.704612 -1.215912
4.769949 4.094662 -1.205307
4.569420 4.411104 -1.107077
5.250160 3.494462 -1.234060
5.060157 3.822591 -1.204679
4.972304 4.207240 -1.153980
4.790650 4.542625 -1.172731
5.467481 3.617113 -1.259611
5.276819 3.946154 -1.230228
5.186687 4.330220 -1.168694
4.999706 4.661648 -1.158176
5.670070 3.729677 -1.205048
5.486801 4.064367 -1.214569
5.403580 4.455044 -1.190811
5.216079 4.787459 -1.180231
5.890440 3.854056 -1.235779
5.698944 4.184070 -1.206423
5.613596 4.573769 -1.171854
5.424004 4.904956 -1.151556
6.107558 3.976079 -1.244747
5.915475 4.306884 -1.215401
5.831764 4.699106 -1.189344
5.643500 5.033011 -1.178650
6.327462 4.099776 -1.261049
6.136820 4.433045 -1.241356
6.042428 4.817995 -1.165911
5.853921 5.152403 -1.155178
6.541395 4.219379 -1.246061
6.348204 4.551646 -1.216732
6.253241 4.936868 -1.140274
6.064492 5.271780 -1.129503
6.750988 4.336022 -1.209595
6.566463 4.675123 -1.218718
6.473035 5.062811 -1.150793
6.283766 5.398709 -1.139950
6.972487 4.460308 -1.218901
6.778330 4.793794 -1.189600
6.711815 5.203556 -1.235420
6.512605 5.533667 -1.186218
7.197137 4.586466 -1.235350
7.011821 4.927840 -1.244286
6.924141 5.322968 -1.202749
6.733552 5.661323 -1.191736
7.420071 4.711343 -1.239784
7.234393 5.053792 -1.248623
7.146271 5.449902 -1.205902
6.952798 5.787227 -1.185312
7.641050 4.834807 -1.232269
7.455078 5.178211 -1.241013
7.369042 5.577088 -1.206612
7.167670 5.909191 -1.157537
7.867870 4.961861 -1.241318
7.671030 5.299128 -1.212049
7.582127 5.696616 -1.167025
7.390249 6.037444 -1.155827
8.092695 5.087477 -1.238394
7.895203 5.425659 -1.209137
7.805830 5.824112 -1.162916
7.621168 6.172331 -1.179914
8.315289 5.211525 -1.223570
8.117212 5.550501 -1.194328
8.030113 5.951825 -1.156334
7.834539 6.292449 -1.135597
8.544095 5.339365 -1.225107
8.356604 5.687189 -1.233442
8.266129 6.088116 -1.184742
8.069682 6.430170 -1.163937
8.782493 5.473092 -1.252186
8.582774 5.814510 -1.222952
8.488936 6.214252 -1.163706
8.294759 6.559384 -1.152197
9.009843 5.599682 -1.239172
8.806504 5.939986 -1.200624
8.717991 6.344833 -1.158836
8.520353 6.688776 -1.137945
9.209720 5.708910 -1.139912
9.009315 6.051066 -1.110743
8.956708 6.482292 -1.179214
8.749383 6.820670 -1.130444
9.466042 5.853368 -1.205566
9.261262 6.195429 -1.167116
9.181078 6.608970 -1.150574
8.988059 6.959908 -1.148054
9.720856 5.996649 -1.258856
9.517994 6.342710 -1.229660
9.424656 6.749441 -1.174721
9.227756 7.099598 -1.162853
9.950672 6.124166 -1.235428
9.743909 6.468959 -1.197048
9.666153 6.888102 -1.186792
9.468450 7.239726 -1.174822
10.150383 6.232877 -1.126907
9.960134 6.588579 -1.134445
9.882306 7.008264 -1.122881
9.697235 7.370332 -1.147409
10.421931 6.385975 -1.208263
10.233891 6.746473 -1.224762
10.138605 7.157063 -1.165956
9.939570 7.511137 -1.153811
10.670814 6.524830 -1.222488
10.478673 6.884746 -1.229721
10.396388 7.306562 -1.205870
10.196271 7.662586 -1.193590
10.902741 6.653061 -1.188450
10.710233 7.014049 -1.195555
10.638132 7.444346 -1.197422
10.440709 7.804317 -1.194075
11.160696 6.797146 -1.214972
10.967343 7.160058 -1.221926
10.869907 7.574871 -1.159147
10.672026 7.935860 -1.155685
11.408707 6.934936 -1.211390
11.218387 7.301820 -1.227186
11.116529 7.715659 -1.154079
10.928614 8.086177 -1.177332
11.657556 7.073068 -1.204874
11.466662 7.441545 -1.220484
11.363976 7.856783 -1.146070
11.175528 8.228914 -1.169064
11.895585 7.204425 -1.168674
11.696705 7.569155 -1.166302
11.627316 8.008738 -1.170620
11.423240 8.371969 -1.157829
12.157660 7.350293 -1.182964
11.961743 7.719434 -1.189337
11.880449 8.153296 -1.165356
11.686814 8.526472 -1.178951
12.428931 7.501558 -1.211681
12.228087 7.870303 -1.209063
12.157927 8.314426 -1.209806
11.951677 8.681555 -1.196751
12.697531 7.650991 -1.228203
12.479652 8.011349 -1.190323
12.409225 8.457170 -1.189371
12.202166 8.825764 -1.176210
12.946633 7.788413 -1.197647
12.748243 8.163197 -1.203533
12.661211 8.600168 -1.165907
12.453346 8.970226 -1.152643
13.200493 7.928556 -1.172848
13.001461 8.304896 -1.178577
12.950871 8.768702 -1.217449
12.737525 9.138377 -1.195353
13.489262 8.089615 -1.214273
13.272185 8.457656 -1.185190
13.200581 8.909637 -1.178869
13.006971 9.295456 -1.199823
13.740581 8.227870 -1.174398
13.548345 8.613659 -1.197002
13.471989 9.065117 -1.180223
13.265034 9.444017 -1.175138
14.018848 8.382190 -1.182957
13.817068 8.764658 -1.188160
13.744507 9.221069 -1.178133
13.549249 9.611065 -1.198462
14.311784 8.545121 -1.213551
14.108812 8.930118 -1.218555
14.018101 9.377476 -1.172575
13.822015 9.769557 -1.192589
14.588121 8.697869 -1.206383
14.384233 9.084908 -1.211205
14.292740 9.534315 -1.163525
14.078339 9.916049 -1.149467
14.865487 8.851042 -1.195715
14.642509 9.228587 -1.166641
14.586418 9.703661 -1.184572
14.370647 10.087823 -1.170351
15.125150 8.993438 -1.147991
14.919695 9.384069 -1.152462
14.863312 9.861452 -1.168303
14.646449 10.247560 -1.153948
15.461098 9.181233 -1.230520
15.235220 9.563558 -1.201420
15.159694 10.031984 -1.181700
14.959719 10.433365 -1.200375
15.727459 9.327246 -1.183992
15.533761 9.732015 -1.212904
15.457500 10.203146 -1.191141
15.237893 10.594107 -1.176466
16.018675 9.487895 -1.175379
15.814511 9.889008 -1.187475
15.718598 10.349644 -1.130951
15.498176 10.742065 -1.116169
16.320869 9.654871 -1.179354
16.091263 10.043272 -1.150255
16.057245 10.547268 -1.198050
15.815869 10.929830 -1.150455
16.644371 9.834286 -1.211874
16.413050 10.225568 -1.182749
16.339556 10.707281 -1.163042
16.116108 11.105039 -1.147913
16.954506 10.005521 -1.215677
16.716684 10.396198 -1.178452
16.617691 10.864311 -1.116331
16.412741 11.277409 -1.133265
17.276258 10.183416 -1.231382
17.046827 10.583127 -1.210258
16.966623 11.067614 -1.178097
16.740147 11.470705 -1.162613
17.584059 10.352818 -1.218727
17.348139 10.751771 -1.189558
17.267128 11.238758 -1.155313
17.039343 11.644153 -1.139681
17.893040 10.522703 -1.201950
17.655678 10.924050 -1.172773
17.594343 11.427090 -1.167994
17.364904 11.835392 -1.152170
18.203163 10.693047 -1.181034
17.985296 11.109794 -1.183353
17.923172 11.616128 -1.176088
17.692076 12.027337 -1.160080
18.557291 10.889117 -1.218559
18.295324 11.283097 -1.158049
18.253563 11.805843 -1.179575
18.020809 12.219958 -1.163380
18.891750 11.073334 -1.219940
18.649256 11.483333 -1.190697
18.542942 11.968594 -1.116552
18.330078 12.398942 -1.131132
19.205772 11.245291 -1.185804
18.961843 11.657687 -1.156551
18.897358 12.173271 -1.141890
18.682793 12.607133 -1.156033
19.565115 11.443657 -1.208715
19.319208 11.859426 -1.179422
19.253681 12.378797 -1.162088
19.015949 12.801629 -1.145330
19.859119 11.603415 -1.135223
19.634182 12.034730 -1.136341
19.589886 12.570959 -1.146851
19.372190 13.011360 -1.160143
20.244112 11.816317 -1.178658
19.994793 12.237861 -1.149323
19.949638 12.777970 -1.156900
19.708305 13.207095 -1.139738
20.602760 12.013498 -1.178965
20.357185 12.441767 -1.157078
20.288706 12.971315 -1.131905
20.067873 13.418251 -1.144337
20.974577 12.218121 -1.188999
20.721308 12.646417 -1.159588
20.629017 13.165148 -1.102108
20.406754 13.615108 -1.114120
21.319019 12.406476 -1.156771
21.040991 12.823543 -1.097864
21.016329 13.388768 -1.126152
20.792072 13.842716 -1.137690
21.729433 12.633089 -1.200150
21.454550 13.057827 -1.148718
21.428827 13.628075 -1.173491
21.156597 14.055963 -1.126383
22.076794 12.822628 -1.157555
21.823559 13.264524 -1.135283
21.797070 13.838688 -1.156792
21.545742 14.285225 -1.138544
22.503263 13.058001 -1.203581
22.241573 13.500786 -1.173985
22.166807 14.049903 -1.134701
21.931005 14.511447 -1.137680
22.920088 13.287428 -1.228842
22.631990 13.719861 -1.170664
22.585575 14.291946 -1.163923
22.353313 14.761827 -1.173540
23.271845 13.478725 -1.170019
23.006016 13.928638 -1.140333
22.982594 14.519739 -1.158587
22.718653 14.973945 -1.132599
23.741713 13.738359 -1.239401
23.454603 14.182374 -1.188601
23.357141 14.732907 -1.119394
23.145094 15.226101 -1.155912
23.844248 14.399959 -1.160444
23.757410 14.962013 -1.102310
23.537525 15.455306 -1.131191
24.208652 15.222927 -1.133924
23.937584 15.689126 -1.107388
24.662329 15.484899 -1.158436
24.388412 15.955899 -1.131676
25.043104 15.700510 -1.095238
24.785791 16.187073 -1.088455
25.197025 16.426928 -1.052509
0.507037 0.258092 25.185707
0.550503 0.281304 25.151028
0.515762 0.263437 25.182434
0.530086 0.272545 25.171654
0.526321 0.265960 25.179316
0.537939 0.277446 25.167265
0.513922 0.258132 25.193066
0.545874 0.282386 25.163025
0.555856 0.283992 25.158751
0.540397 0.278677 25.170874
0.529706 0.267654 25.184330
0.514435 0.261811 25.196285
0.558445 0.285283 25.162687
0.542801 0.279876 25.174530
0.538854 0.273038 25.181965
0.550867 0.284875 25.170618
0.525979 0.264965 25.195133
0.503575 0.254430 25.212341
0.518409 0.263783 25.202551