# This PCD file was generated using the MATLAB® pcwrite function
# from Computer Vision System Toolbox®.
# .PCD v.7 - Point Cloud Data file format
VERSION .7
FIELDS x y z
SIZE 4 4 4
TYPE F F F
COUNT 1 1 1
WIDTH 968
HEIGHT 1
VIEWPOINT 0 0 0 1 0 0 0
POINTS 968
DATA ascii
32.323685 3.875657 0.210762
31.779127 4.369219 0.257250
31.781599 3.806516 0.298538
31.266638 4.299430 0.321304
31.294960 3.746901 0.333349
30.827669 4.244164 0.308765
30.881506 3.700251 0.291014
30.447447 4.200650 0.232986
30.443933 3.648796 0.284216
29.980209 4.138671 0.269218
29.989378 3.593772 0.305906
29.627052 4.100153 0.172026
29.574409 3.545718 0.286798
29.163822 4.038089 0.219086
29.148720 3.495271 0.288309
28.788116 3.994148 0.162098
28.767450 3.452866 0.240002
28.383307 3.943648 0.148941
28.369154 3.406904 0.219843
27.980083 3.893086 0.140610
27.960438 3.358581 0.220329
27.578497 3.842470 0.137074
27.559372 3.311357 0.217690
27.201721 3.796899 0.106060
27.183189 3.268624 0.187534
26.803286 3.746176 0.111826
26.785284 3.221295 0.194178
26.451748 3.705514 0.057001
26.457043 3.187411 0.107479
26.100912 3.664736 0.006062
26.017254 3.131022 0.188660
25.728832 3.618850 -0.007969
25.668703 3.092493 0.142965
25.276766 3.554244 0.106878
25.320946 3.053864 0.101107
24.838987 3.492241 0.210661
24.995485 3.019536 0.029602
24.409840 3.431582 0.311443
24.675606 2.986165 -0.046894
24.067217 3.390651 0.282276
24.288036 2.938504 -0.010098
23.740948 3.353302 0.231359
23.861418 2.882207 0.099245
23.379841 3.307347 0.243696
23.392519 2.816354 0.290743
23.045273 3.267412 0.217159
23.033333 2.773200 0.307686
22.667480 3.216592 0.271900
22.675831 2.730036 0.328663
22.364462 3.183740 0.200888
22.378212 2.699546 0.249449
22.052029 3.148370 0.150351
22.061457 2.664703 0.208086
21.914257 2.167419 0.243834
22.131407 1.723345 -0.080454
21.735344 3.111707 0.111776
21.749975 2.630804 0.161245
21.594215 2.133251 0.216644
21.747616 1.680837 0.005400
21.382458 3.065549 0.146881
21.392778 2.586432 0.205675
21.247387 2.093637 0.245817
21.325096 1.631617 0.175257
21.085745 3.033429 0.079811
21.096649 2.555482 0.139051
20.952009 2.063800 0.181152
20.956652 1.590864 0.252527
20.753515 2.991878 0.086710
20.764875 2.516208 0.146463
20.621187 2.026777 0.190723
20.621958 1.555391 0.271526
20.457575 2.959538 0.025793
20.451981 2.480974 0.121700
20.296083 1.990607 0.194866
20.297539 1.521382 0.276201
20.144587 2.922476 0.003618
20.139835 2.445665 0.100145
20.002213 1.960478 0.139481
20.021658 1.495359 0.185307
19.836590 2.886483 -0.024349
19.845390 2.414294 0.045763
19.674858 1.923341 0.159222
19.694662 1.460496 0.205418
19.558187 2.858343 -0.112442
19.534521 2.378819 0.030434
19.365477 1.889611 0.146151
19.369129 1.425626 0.228983
19.242853 2.819887 -0.116312
19.224491 2.343281 0.018270
19.073151 1.859205 0.099810
19.077606 1.396414 0.183107
18.948431 2.786983 -0.162477
18.903355 2.304742 0.036602
18.781086 1.828687 0.056316
18.786343 1.367090 0.140070
18.654268 2.753965 -0.205776
18.626654 2.276903 -0.042372
18.469854 1.793901 0.061539
18.479750 1.334886 0.136583
18.360395 2.720837 -0.246222
18.353447 2.249864 -0.127968
18.182596 1.764028 0.014681
18.189411 1.305377 0.099339
18.021986 2.674436 -0.173294
18.042215 2.213056 -0.118881
17.880596 1.730771 0.007545
17.884434 1.273055 0.101894
17.744368 2.645547 -0.244621
17.790918 2.191444 -0.254656
17.572149 1.695843 0.021965
17.595131 1.243376 0.070396
17.452169 2.612170 -0.276279
17.469954 2.151634 -0.211929
17.297020 1.668108 -0.044254
17.306223 1.213603 0.041689
17.104437 2.561505 -0.156206
17.136635 2.108106 -0.128613
17.021666 1.640220 -0.107935
17.021244 1.184395 0.006422
16.841679 2.536599 -0.256451
16.877743 2.084169 -0.238039
16.759731 1.615327 -0.206556
16.733130 1.154436 -0.016758
16.524744 2.494536 -0.204494
16.570950 2.047117 -0.213940
16.457069 1.580885 -0.190096
16.445490 1.124393 -0.037172
16.274624 2.473539 -0.337244
16.298132 2.019186 -0.280836
16.168530 1.549505 -0.208342
16.158354 1.094269 -0.054834
15.946978 2.427230 -0.241669
15.980404 1.978426 -0.213154
15.893156 1.521097 -0.261654
15.897150 1.069058 -0.145447
15.686668 2.402779 -0.341211
15.711241 1.951188 -0.284157
15.593046 1.486514 -0.236568
15.619717 1.040567 -0.186317
15.386374 2.364753 -0.315222
15.420504 1.917557 -0.286314
15.306154 1.454910 -0.246569
15.333332 1.010134 -0.196072
15.099012 2.330799 -0.324318
15.145210 1.888278 -0.333263
15.019863 1.423237 -0.253843
15.047550 0.979633 -0.203104
14.820778 2.299811 -0.359285
14.847019 1.851883 -0.301344
14.734198 1.391500 -0.258404
14.773775 0.951433 -0.245707
14.512365 2.257677 -0.286524
14.550133 1.815491 -0.266506
14.449183 1.359702 -0.260260
14.477892 0.918442 -0.209059
14.262072 2.236505 -0.411940
14.286840 1.789381 -0.343891
14.175495 1.330701 -0.297874
14.204781 0.890059 -0.246466
13.976635 2.202236 -0.410372
13.999451 1.755450 -0.332413
13.881207 1.295936 -0.255905
13.921322 0.859288 -0.242823
13.689400 2.166936 -0.396481
13.730593 1.727360 -0.385685
13.608276 1.266763 -0.288353
13.638591 0.828467 -0.236513
13.407911 2.133541 -0.399176
13.444397 1.693300 -0.368919
13.335426 1.237474 -0.318317
13.376025 0.801997 -0.305033
13.134026 2.102966 -0.428276
13.170900 1.663324 -0.397867
13.053366 1.205354 -0.307003
13.094147 0.771017 -0.293600
12.860249 2.072279 -0.454887
12.897512 1.633236 -0.424332
12.790047 1.178563 -0.370821
12.824358 0.742659 -0.328165
12.586603 2.041482 -0.479019
12.617702 1.600623 -0.419146
12.508930 1.146294 -0.354397
12.541503 0.711033 -0.301826
12.313108 2.010580 -0.500673
12.353255 1.573534 -0.479580
12.236953 1.116607 -0.374403
12.278465 0.684028 -0.360727
12.031796 1.975867 -0.480835
12.072185 1.539967 -0.459589
11.957211 1.084238 -0.352829
12.000909 0.653305 -0.348835
11.759016 1.944794 -0.497473
11.797783 1.508707 -0.466331
11.695492 1.057567 -0.416834
11.729832 0.624031 -0.363789
11.495602 1.918168 -0.560596
11.527462 1.478908 -0.490179
11.416790 1.025065 -0.390242
11.449821 0.592217 -0.327211
11.214138 1.882357 -0.523367
11.248414 1.445188 -0.462532
11.152891 0.997490 -0.439709
11.179661 0.562799 -0.337204
10.937108 1.848325 -0.503170
10.968639 1.410695 -0.422480
10.873755 0.964266 -0.398262
10.909779 0.533291 -0.344767
10.671888 1.820432 -0.549288
10.712255 1.386614 -0.517670
10.609835 0.936450 -0.442966
10.646507 0.505543 -0.389362
10.398855 1.788015 -0.543833
10.441107 1.355672 -0.521952
10.339642 0.906110 -0.445866
10.376904 0.475827 -0.392136
10.133330 1.759851 -0.585230
10.175959 1.327548 -0.563290
10.075354 0.878018 -0.485886
10.113268 0.447804 -0.432058
9.867470 1.731532 -0.624298
9.903816 1.295687 -0.552877
9.805521 0.847480 -0.483997
9.850629 0.420064 -0.479568
9.591454 1.696296 -0.581932
9.628479 1.261645 -0.510328
9.542168 0.819686 -0.529243
9.581343 0.390027 -0.475218
9.331388 1.671930 -0.665741
9.368144 1.235976 -0.584169
9.277225 0.791169 -0.562267
9.317055 0.361581 -0.508162
9.059610 1.639053 -0.648228
9.102551 1.207330 -0.616096
9.006786 0.759779 -0.543318
9.048255 0.331363 -0.499048
8.789412 1.606940 -0.638201
8.832752 1.175822 -0.605982
8.742728 0.731555 -0.581587
8.783806 0.302664 -0.527317
8.523209 1.577993 -0.665478
8.567917 1.147595 -0.643148
8.473906 0.700538 -0.567810
8.514688 0.271885 -0.503502
8.256793 1.548904 -0.690422
8.297808 1.115246 -0.618332
8.208722 0.671525 -0.591467
8.251049 0.243332 -0.537054
7.990897 1.520467 -0.722969
8.034925 1.088712 -0.680677
7.943356 0.642376 -0.612797
7.982757 0.212410 -0.508493
7.723403 1.490313 -0.733295
7.766684 1.057475 -0.671032
7.674755 0.610601 -0.581955
7.718948 0.183605 -0.537392
7.452152 1.454652 -0.671576
7.498255 1.025529 -0.649052
7.409517 0.581231 -0.598600
7.456456 0.155698 -0.593920
7.189855 1.431945 -0.776768
7.234137 0.998507 -0.704454
7.144159 0.551732 -0.612921
7.189494 0.124863 -0.568289
6.920757 1.398419 -0.740191
6.967685 0.968828 -0.717663
6.878699 0.522105 -0.624912
6.924235 0.094969 -0.570271
6.652715 1.365604 -0.711203
6.698779 0.934197 -0.648712
6.613158 0.492352 -0.634577
6.659637 0.065611 -0.589899
6.387610 1.341522 -0.799507
6.434529 0.909089 -0.737064
6.347557 0.462475 -0.641911
6.394608 0.035799 -0.597218
6.120218 1.311386 -0.805719
6.168231 0.880785 -0.773205
6.081915 0.432478 -0.646915
6.129427 0.005564 -0.592218
5.852795 1.281129 -0.809584
5.901169 0.848860 -0.747114
5.816253 0.402362 -0.649590
5.864518 -0.023311 -0.634865
5.585361 1.250753 -0.811102
5.634516 0.818003 -0.738644
5.550591 0.372129 -0.649935
5.599420 -0.054635 -0.595228
5.317324 1.223031 -0.850174
5.367356 0.789820 -0.777754
5.283625 0.345065 -0.727869
5.333089 -0.082461 -0.683205
5.049585 1.192385 -0.846996
5.099308 0.761988 -0.824503
5.018086 0.313325 -0.693575
5.068548 -0.114243 -0.628916
4.782877 1.159611 -0.811556
4.833558 0.728604 -0.769079
4.749741 0.285440 -0.756824
4.801704 -0.143517 -0.672235
4.512211 1.134074 -0.883446
4.563571 0.702024 -0.841057
4.483241 0.254644 -0.747812
4.532845 -0.172272 -0.743162
4.242252 1.105661 -0.913073
4.296167 0.671065 -0.830839
4.216843 0.223743 -0.736465
4.267169 -0.203379 -0.721840
3.976407 1.071923 -0.860620
4.031159 0.637985 -0.778395
3.945179 0.195982 -0.812555
4.001204 -0.234347 -0.708168
3.703307 1.045751 -0.925339
3.758427 0.611304 -0.853201
3.678266 0.164786 -0.796488
3.732705 -0.264569 -0.732067
3.432015 1.016828 -0.947813
3.488011 0.581923 -0.875765
3.412287 0.133151 -0.768114
3.462920 -0.294769 -0.763554
3.156822 0.990174 -1.007668
3.217076 0.552362 -0.895929
3.138085 0.104740 -0.836988
3.196664 -0.326123 -0.742830
2.884171 0.960854 -1.025299
2.942894 0.524015 -0.943533
2.867253 0.074452 -0.853640
2.919470 -0.355398 -0.839228
2.611046 0.931359 -1.040504
2.669724 0.494526 -0.968800
2.595956 0.043992 -0.867882
2.652606 -0.387060 -0.813734
2.337467 0.901691 -1.053284
2.397018 0.464400 -0.981695
2.319746 0.014556 -0.919441
2.385987 -0.418811 -0.785896
2.058692 0.874136 -1.103277
2.123879 0.434103 -0.992161
2.052048 -0.017442 -0.889114
2.110137 -0.449446 -0.835146
1.783927 0.844087 -1.111137
1.845281 0.405327 -1.039835
1.774325 -0.047297 -0.935740
1.833196 -0.480331 -0.881891
1.508773 0.813871 -1.116545
1.576387 0.373006 -1.005779
1.501034 -0.078472 -0.940231
1.566059 -0.512501 -0.846861
1.244846 0.779168 -1.040455
1.309247 0.340202 -0.959475
1.228846 -0.110069 -0.932390
1.293469 -0.544273 -0.849070
0.957388 0.752946 -1.119974
1.021346 0.312816 -1.049105
0.947214 -0.140320 -0.981379
1.009830 -0.575444 -0.918007
0.676339 0.723800 -1.147545
0.739604 0.283180 -1.086725
0.679099 -0.172968 -0.939013
0.742452 -0.608003 -0.875753
0.406417 0.690871 -1.103674
0.472090 0.249968 -1.033123
0.397636 -0.203877 -0.973082
0.460153 -0.639842 -0.919838
0.113613 0.664349 -1.185169
0.189167 0.219944 -1.065697
0.108008 -0.234158 -1.043898
0.178514 -0.672017 -0.951473
-0.179106 0.636998 -1.254087
-0.104002 0.191431 -1.144760
-0.168127 -0.266405 -1.033436
-0.104054 -0.704428 -0.980509
-0.465573 0.607417 -1.281073
-0.387261 0.160543 -1.162230
-0.460272 -0.297241 -1.098902
-0.387530 -0.737074 -1.006935
-0.742697 0.575267 -1.256525
-0.675304 0.130100 -1.196669
-0.735456 -0.330055 -1.073536
-0.671889 -0.769951 -1.030731
0.186527 0.284643 4.294413
-1.030495 0.545273 -1.278294
0.169804 -0.071016 4.007433
-0.953804 0.097815 -1.179581
-1.023506 -0.361948 -1.104303
-0.948601 -0.803200 -1.012806
-0.020546 0.253759 4.410938
-1.319135 0.515050 -1.297388
-1.241274 0.066615 -1.198977
-0.154437 -0.479136 3.936310
-1.310332 -0.394255 -1.122623
-1.234313 -0.836492 -1.031387
-1.601690 0.483294 -1.284637
-0.263586 -0.129248 4.175209
-1.536418 0.036078 -1.244890
-0.321988 -0.511222 4.231564
-1.604901 -0.426328 -1.167456
-0.295133 -0.877686 4.150120
-1.520838 -0.870010 -1.047302
-0.351118 0.178279 4.969200
-1.879762 0.450527 -1.249901
0.017689 -0.218287 6.296301
-0.572307 -0.147018 3.878260
-1.835232 0.005538 -1.297709
-0.695684 -0.530296 3.673506
-1.883990 -0.459685 -1.141527
-1.810527 -0.903747 -1.070253
-0.683831 0.170416 4.567238
-2.162699 0.418471 -1.232031
-0.177520 -0.245246 6.385283
-0.582363 -0.199770 4.786366
-2.113406 -0.027789 -1.260445
-0.471932 -0.583027 5.493294
-2.183003 -0.492125 -1.190561
-2.106073 -0.937741 -1.109858
-0.485310 0.076377 6.207493
-0.995874 0.157075 4.275446
-2.473958 0.390697 -1.317835
-0.597445 -0.248575 5.615343
-2.404172 -0.059906 -1.269024
-0.758078 -0.606375 5.267860
-2.473167 -0.525353 -1.198053
-0.790364 -0.960957 4.974535
-2.395216 -0.971965 -1.117619
-0.390645 0.005431 7.360533
-0.709668 0.052967 6.194315
-2.774092 0.360570 -1.352367
-0.627460 -0.292919 6.336590
-0.915802 -0.264941 5.275421
-2.698279 -0.091986 -1.284523
-1.003576 -0.632255 5.209507
-2.764040 -0.558798 -1.202816
-1.051206 -0.988944 4.868523
-2.692962 -1.006490 -1.151604
-1.130554 0.056891 5.490959
-3.045498 0.325959 -1.278254
-1.056580 -0.298786 5.593660
-2.979722 -0.125523 -1.249117
-1.272408 -0.657627 5.076630
-3.066518 -0.592059 -1.243322
-1.235644 -1.016204 5.044304
-2.972894 -1.041022 -1.115351
-3.324647 0.292420 -1.230528
-1.273190 -0.325332 5.634087
-3.286261 -0.157090 -1.297554
-1.476496 -0.685599 5.176882
-3.370321 -0.625618 -1.280884
-1.490281 -1.044527 4.971802
-3.277997 -1.076126 -1.162949
-1.360767 -0.021609 6.253687
-3.620927 0.260941 -1.237690
-1.311574 -0.365737 6.270193
-3.565562 -0.191199 -1.247223
-1.690954 -0.713202 5.240543
-3.678317 -0.659393 -1.325054
-3.581684 -1.111487 -1.197971
-1.679033 -0.034793 5.953039
-3.903144 0.227481 -1.194317
-3.883054 -0.222659 -1.318535
-3.960927 -0.694094 -1.280291
-3.886643 -1.147141 -1.230026
-1.481115 -0.106865 7.283516
-4.163925 0.191523 -1.081745
-4.144761 -0.258315 -1.205664
-4.255702 -0.728685 -1.271013
-4.205025 -1.183411 -1.297186
-2.530183 -0.042969 4.765194
-4.354498 0.148365 -0.758179
-4.427052 -0.292607 -1.157070
-4.551030 -0.763480 -1.258940
-4.525279 -1.220057 -1.361124
-2.021457 -0.143307 6.976034
-4.633474 0.114936 -0.708044
-2.083900 -0.474214 6.661089
-4.750847 -0.324682 -1.229025
-4.846884 -0.798475 -1.244051
-4.821687 -1.256250 -1.346046
-2.190862 -0.172132 7.128731
-4.889228 0.079242 -0.589302
-5.010961 -0.360525 -1.108788
-5.169708 -0.833470 -1.301834
-5.105424 -1.292187 -1.290373
-2.199309 -0.214722 7.724770
-5.150444 0.044182 -0.487213
-2.392406 -0.531453 7.063803
-5.303417 -0.394748 -1.080511
-2.514215 -0.881236 6.913076
-5.457016 -0.868987 -1.252840
-5.402475 -1.328731 -1.269747
-2.374572 -0.241548 7.841017
-5.590687 0.023984 -0.870481
-2.676726 -0.553903 6.900520
-5.561702 -0.430616 -0.955599
-2.401063 -0.907871 7.829874
-5.737338 -0.904639 -1.182415
-2.863238 -1.254472 6.457281
-5.682694 -1.364792 -1.199356
-2.938146 -0.238021 6.930458
-5.832867 -0.013284 -0.706230
-2.470547 -0.596021 8.050320
-5.769247 -0.468351 -0.697523
-2.894398 -0.933878 7.107111
-6.091874 -0.940530 -1.305742
-6.015564 -1.403125 -1.266708
-3.152054 -0.263462 6.969006
-6.435436 -0.023986 -1.471714
-6.243827 -0.496303 -1.137543
-3.375396 -0.961598 6.456537
-6.449388 -0.976952 -1.425209
-3.076991 -1.300045 7.105471
-6.368530 -1.442644 -1.377186
-2.902847 -0.320695 8.170176
-3.699357 -0.266179 6.173903
-6.874281 -0.048875 -1.783327
-3.561158 -0.624212 6.402437
-6.760074 -0.524483 -1.655220
-3.370591 -0.987132 7.056808
-6.690990 -1.012979 -1.243668
-6.683598 -1.480830 -1.381641
-3.674390 -0.308562 6.820786
-5.956789 -0.162152 1.241348
-7.168012 -0.084456 -1.719549
-3.602839 -0.655982 6.882292
-7.097657 -0.559329 -1.703150
-3.712750 -1.015198 6.785515
-6.778578 -1.047257 -0.690180
-3.539152 -1.356028 7.096680
-6.999639 -1.519284 -1.382940
-3.901750 -0.333859 6.838507
-6.298151 -0.189996 1.122166
-7.546597 -0.115048 -1.855864
-6.855619 -0.608669 -0.354036
-7.317635 -0.597449 -1.461470
-3.808444 -1.040809 7.117716
-6.904010 -1.081114 -0.248146
-3.894783 -1.390368 6.800606
-7.158455 -1.550255 -1.002884
-4.145276 -0.358427 6.821712
-7.502435 -0.170126 -0.995842
-4.170342 -0.706090 6.652618
-7.679785 -0.632213 -1.558544
-4.041436 -1.068046 7.119181
-7.370675 -1.119588 -0.614502
-4.079030 -1.416605 6.922602
-7.603018 -1.595389 -1.302485
-4.502485 -0.377341 6.551170
-7.681807 -0.211043 -0.678923
-4.375919 -0.733319 6.730412
-8.168869 -0.665245 -1.935640
-4.287210 -1.095694 7.095554
-8.094671 -1.163646 -1.542276
-7.937224 -1.635389 -1.331114
-8.000296 -0.244496 -0.680290
-8.493740 -0.702011 -1.923283
-4.488880 -1.122690 7.174774
-8.683510 -1.207097 -2.122429
-4.983982 -1.498033 5.967167
-8.256529 -1.674847 -1.319759
-4.915210 -0.432048 6.713808
-8.353254 -0.276716 -0.751051
-9.009911 -0.247048 -2.176819
-4.631014 -0.789706 7.227844
-5.135292 -0.783605 6.127947
-8.644384 -0.741150 -1.525862
-4.648011 -1.148769 7.346588
-9.044498 -1.246873 -2.177139
-5.237028 -1.528912 5.962048
-8.793728 -1.726628 -1.777542
-5.291045 -0.452302 6.436096
-8.682880 -0.310452 -0.763691
-9.309263 -0.284256 -2.093300
-5.422008 -0.811084 6.051336
-8.712774 -0.780353 -0.965244
-9.373344 -1.286238 -2.155613
-5.516476 -1.561480 5.905270
-9.318600 -1.778566 -2.183010
-5.490217 -0.480464 6.541521
-9.057158 -0.342829 -0.862961
-9.664665 -0.319387 -2.124065
-5.537878 -0.840122 6.338604
-8.967133 -0.817214 -0.811541
-5.768296 -1.221730 6.018511
-6.668256 -1.245546 4.154535
-9.733343 -1.326657 -2.193783
-5.841030 -1.596943 5.761484
-9.565701 -1.815027 -1.987015
-9.990789 -0.355991 -2.088253
-9.277132 -0.853765 -0.772442
-9.847298 -1.360428 -1.725946
-6.076313 -1.627426 5.809988
-9.806126 -1.851062 -1.780142
-10.335407 -0.392235 -2.084881
-9.690580 -0.890348 -0.935865
-9.972326 -1.393933 -1.294249
-9.878128 -1.876730 -1.240952
-6.671411 -0.547330 5.720884
-10.644548 -0.429866 -2.006760
-6.639938 -0.925047 5.679461
-10.103403 -0.927621 -1.085480
-10.237612 -1.431425 -1.147182
-10.019554 -1.906272 -0.854099
-10.818121 -1.956296 -2.410469
-11.060450 -0.464765 -2.129265
-7.067546 -0.955032 5.371567
-10.714584 -0.966156 -1.602379
-7.106827 -1.353646 5.452513
-10.440985 -1.466820 -0.882803
-10.378181 -1.949429 -0.892092
-11.097374 -1.995400 -2.264366
-7.051868 -0.606809 6.010206
-11.550558 -0.498580 -2.379101
-7.345939 -0.985189 5.360411
-11.302889 -1.006085 -2.049187
-10.707237 -1.504254 -0.740509
-11.516825 -2.043700 -2.380199
-7.806328 -0.624244 5.122133
-11.983805 -0.534674 -2.508770
-7.563242 -1.015164 5.466410
-11.837902 -1.046964 -2.373947
-11.063604 -1.545073 -0.762430
-11.929230 -1.577389 -2.340290
-11.436327 -2.059220 -1.570127
-12.342529 -0.572901 -2.493649
-12.214453 -1.087397 -2.394672
-11.436220 -1.586840 -0.806593
-12.300812 -1.620515 -2.350693
-11.450235 -2.080334 -0.955973
-12.219374 -2.132281 -2.335148
-12.677532 -0.611845 -2.431259
-8.222397 -1.077732 5.284254
-12.597599 -1.128284 -2.419945
-12.663956 -1.663613 -2.339664
-11.741531 -2.119970 -0.847763
-8.155706 -0.719389 5.984367
-13.123409 -0.649432 -2.555622
-13.017601 -1.170058 -2.501514
-8.461626 -1.515051 5.509445
-13.083633 -1.709366 -2.419720
-8.273674 -1.897387 5.736589
-12.042273 -2.160378 -0.754066
-8.291466 -0.749901 6.226274
-13.465637 -0.688948 -2.494038
-8.342241 -1.133775 6.047562
-13.399664 -1.211766 -2.509308
-13.444736 -1.753009 -2.391739
-12.322327 -2.199454 -0.623022
-13.340847 -2.271629 -2.342735
-8.827883 -0.776227 5.801428
-13.870319 -0.728085 -2.531590
-8.331892 -1.159718 6.530777
-13.741949 -1.253145 -2.444347
-13.848225 -1.798815 -2.428257
-12.730606 -2.247841 -0.703232
-13.784616 -2.323638 -2.448204
-10.727423 -0.793886 3.188486
-14.313824 -0.767417 -2.624081
-8.434669 -1.187027 6.816084
-14.184015 -1.296632 -2.537712
-14.274788 -1.846060 -2.494160
-14.147772 -2.370167 -2.412182
-8.919432 -0.838182 6.574379
-14.771023 -0.807305 -2.728207
-14.660992 -1.341394 -2.676613
-14.719934 -1.894615 -2.580399
-14.575518 -2.421702 -2.473785
-8.954115 -0.868137 6.963556
-11.280474 -0.860616 3.335320
-15.172131 -0.848035 -2.734192
-8.833136 -1.244924 7.066538
-15.018036 -1.384105 -2.615807
-11.726027 -1.774966 2.696043
-15.108608 -1.940861 -2.568768
-10.529491 -2.138458 4.462982
-14.941162 -2.468936 -2.429333
-9.530190 -0.896711 6.514477
-11.658131 -0.894059 3.258102
-15.607676 -0.889137 -2.785858
-9.232565 -1.278691 6.884336
-11.780317 -1.340225 2.971016
-15.451916 -1.428903 -2.668522
-9.184774 -1.669668 7.089603
-15.580740 -1.991609 -2.678226
-15.504076 -2.531362 -2.682167
-9.583019 -0.926344 6.872774
-12.005123 -0.928004 3.235422
-16.029032 -0.930761 -2.807407
-9.520130 -1.310211 6.882372
-12.217735 -1.379694 2.816351
-15.926935 -1.475234 -2.774426
-9.454073 -1.702408 7.112820
-16.061850 -2.043325 -2.790169
-11.172209 -2.218506 4.444099
-15.785255 -2.572744 -2.494915
-12.505384 -0.962731 2.993370
-16.463564 -0.972882 -2.840599
-9.803240 -1.341873 6.891987
-12.636717 -1.419284 2.700443
-16.371754 -1.521325 -2.824768
-9.757797 -1.737159 7.089436
-12.741890 -1.894780 2.700077
-16.394733 -2.087725 -2.672955
-9.621464 -2.113423 7.207066
-16.199251 -2.624510 -2.503708
-12.419804 -0.995822 3.613562
-16.832050 -1.015208 -2.769962
-10.115669 -1.374624 6.863642
-12.951275 -1.456409 2.746283
-16.762327 -1.566329 -2.787445
-10.068741 -1.772572 7.061436
-11.861406 -1.869408 4.473103
-13.545942 -1.960402 2.040890
-16.620672 -2.677161 -2.515900
-13.476244 -1.034781 2.594925
-17.350634 -1.058704 -2.907932
-12.738117 -1.477751 3.548607
-17.205576 -1.613231 -2.819424
-12.323046 -1.915514 4.284874
-17.209059 -2.185154 -2.640778
-12.264166 -2.350488 4.276264
-17.072653 -2.732552 -2.564011
-13.572598 -1.068975 2.957979
-17.774200 -1.102208 -2.901157
-14.116842 -1.548360 2.099920
-17.610352 -1.659357 -2.789165
-12.841722 -1.965403 4.029768
-17.694094 -2.238725 -2.723175
-12.659746 -2.397617 4.191364
-17.509674 -2.787099 -2.582272
-13.180502 -1.097956 3.982868
-14.253864 -1.108261 2.513109
-18.240643 -1.146536 -2.945984
-13.162851 -1.544795 3.915085
-18.075129 -1.707800 -2.835129
-12.522133 -1.967822 4.935167
-18.135029 -2.290241 -2.735004
-11.616257 -2.328321 6.088802
-17.966356 -2.843568 -2.619522
-12.443945 -1.120950 5.440226
-13.339039 -1.131019 4.236605
-18.649920 -1.190763 -2.904892
-13.566000 -1.584828 3.839865
-18.554337 -1.757226 -2.891491
-13.525955 -2.046538 4.037958
-18.559988 -2.341192 -2.717525
-18.389673 -2.897656 -2.603092
-12.136379 -1.146322 6.284885
-12.237535 -1.563153 6.068150
-13.676771 -1.614828 4.160786
-18.927879 -1.803366 -2.798286
-13.954607 -2.092674 3.936666
-18.718090 -2.944186 -2.454224
-12.108639 -1.174054 6.742208
-12.822956 -1.184359 5.815636
-12.674931 -1.603103 5.924570
-14.045340 -1.654106 4.140787
-19.246799 -1.847692 -2.629662
-11.893900 -1.988299 7.067524
-13.127945 -2.063133 5.470049
-14.019880 -2.117220 4.315437
-12.380888 -2.434002 6.355524
-19.106651 -2.995882 -2.381184
-12.889246 -1.213931 6.158947
-14.049885 -1.232453 4.680101
-13.073021 -1.642121 5.841969
-19.718611 -1.897978 -2.654781
-13.079380 -2.079444 5.965853
-19.726086 -2.489288 -2.485828
-12.725649 -2.477062 6.334507
-19.526569 -3.050457 -2.343063
-13.475266 -1.252104 5.845373
-14.867109 -1.276397 4.103222
-20.278440 -1.370847 -2.670067
-12.446463 -1.640868 7.054958
-14.526241 -1.723548 4.442816
-20.149115 -1.947082 -2.619350
-12.742657 -2.077200 6.809986
-20.099098 -2.538156 -2.379066
-14.355057 -2.629666 4.709740
-19.997498 -3.109652 -2.362465
-20.610315 -1.415220 -2.504669
-14.437691 -1.744833 5.001085
-20.530540 -1.994521 -2.516712
-13.131300 -2.120071 6.740147
-20.535276 -2.591252 -2.345665
-13.470600 -2.568723 6.243324
-20.520990 -3.173711 -2.438034
-21.119778 -1.463286 -2.551601
-14.296495 -1.763142 5.609873
-20.943916 -2.043530 -2.448395
-13.286503 -2.148242 6.959923
-14.957712 -2.256199 4.945028
-21.017443 -2.647645 -2.360889
-13.750887 -2.607021 6.320316
-20.907734 -3.226362 -2.337536
-14.275105 -1.352056 6.141026
-21.503157 -1.509189 -2.439129
-13.497120 -1.752066 6.987532
-14.448400 -1.793307 5.854498
-21.448046 -2.096767 -2.482464
-14.251371 -2.229411 6.218727
-21.611378 -2.711770 -2.499874
-13.883436 -2.632588 6.576164
-21.358974 -3.284863 -2.309093
-15.209341 -1.401036 5.465952
-22.068806 -1.559520 -2.534939
-13.662510 -1.781589 7.194267
-14.474199 -1.817712 6.244345
-21.896292 -2.148015 -2.441757
-21.968796 -2.760783 -2.350494
-14.967569 -2.741806 5.717781
-21.707800 -3.334670 -2.153828
-22.717001 -1.612569 -2.713707
-14.396393 -1.836965 6.745972
-22.568855 -2.209857 -2.652084
-15.085812 -2.322221 6.083204
-22.641302 -2.831187 -2.558296
-14.723389 -2.734540 6.419596
-22.390455 -3.414239 -2.378712
-14.388605 -1.435397 7.232533
-23.157904 -1.661178 -2.644333
-14.708881 -1.873820 6.795345
-23.207338 -2.270954 -2.808170
-15.530245 -2.371080 5.997623
-22.947571 -2.877320 -2.338799
-22.860437 -3.475433 -2.347553
-23.767286 -1.714682 -2.755177
-14.654148 -1.893347 7.256939
-23.596447 -2.320880 -2.673290
-14.636778 -2.327895 7.399036
-23.513641 -2.941483 -2.405167
-16.323473 -2.906300 5.455597
-23.318592 -3.535890 -2.295761
-24.096510 -1.761020 -2.548687
-15.180429 -1.940715 7.074762
-23.998877 -2.371664 -2.548798
-14.580355 -2.341421 7.850008
-24.123587 -3.009233 -2.508121
-14.427628 -2.749021 7.943735
-23.831982 -3.601664 -2.297165
-18.871473 -1.643524 3.597061
-24.943447 -1.822682 -2.893787
-24.462673 -2.425741 -2.485500
-24.737463 -3.077845 -2.602810
-17.131207 -3.009053 5.430605
-24.272589 -3.661170 -2.211761
-25.460777 -1.875518 -2.871693
-25.147694 -2.491438 -2.648521
-25.155249 -3.132986 -2.479591
-24.968361 -3.744422 -2.388660
-26.167786 -1.934886 -3.036926
-20.611231 -2.286799 2.611942
-25.664228 -2.549176 -2.622250
-25.684469 -3.196451 -2.466167
-25.641636 -3.826192 -2.527061
-26.767670 -1.991625 -3.078331
-26.168589 -2.606712 -2.575123
-26.826283 -3.305216 -3.064075
-26.557575 -3.931148 -2.897850
-27.533432 -2.054679 -3.274090
-27.289028 -2.697845 -3.136509
-27.393158 -3.372794 -3.059746
-27.178551 -4.009285 -2.951859
-28.105061 -2.111881 -3.263016
-27.887123 -2.761913 -3.155281
-28.019474 -3.445283 -3.103817
-27.774353 -4.085531 -2.969479
-21.306705 -1.901545 3.857359
-28.815746 -2.174692 -3.376213
-20.807117 -2.398538 4.256687
-28.567013 -2.831101 -3.242443
-28.677795 -3.520739 -3.167061
-28.430347 -4.167949 -3.034512
-29.458290 -2.235788 -3.410755
-29.258129 -2.901624 -3.327065
-29.368725 -3.599272 -3.248665
-29.118893 -4.253997 -3.117939
-30.067387 -2.296269 -3.402515
-29.924015 -2.971401 -3.374813
-30.034332 -3.676480 -3.293472
-29.723793 -4.332548 -3.110180
-30.767460 -2.360938 -3.467083
-30.541771 -3.039011 -3.366127
-30.725426 -3.756250 -3.349289
-30.448868 -4.423179 -3.202023
-31.508465 -2.428027 -3.555305
-31.251053 -3.112601 -3.429386
-31.405251 -3.835744 -3.382149
-31.111393 -4.508303 -3.223587
-32.156273 -2.492073 -3.547085
-31.919231 -3.184416 -3.442993
-32.110798 -3.917860 -3.425385
-31.821796 -4.598620 -3.275631
-32.897278 -2.560708 -3.608643
-32.658184 -3.261165 -3.506424
-32.759457 -3.996042 -3.406487
-32.528278 -4.689107 -3.311150
-33.642143 -2.630304 -3.659771
-33.309914 -3.333244 -3.481506
-33.433384 -4.076787 -3.398117
-33.230553 -4.779723 -3.330276
-34.321781 -2.697787 -3.642616
-34.086395 -3.413706 -3.550510
-34.148304 -4.161416 -3.412430
-33.974178 -4.874993 -3.371597
-35.042606 -2.767785 -3.647861
-34.828426 -3.492742 -3.576626
-34.958916 -4.254488 -3.492687
-34.721394 -4.971200 -3.402351
-35.859730 -2.842949 -3.718418
-35.581596 -3.573186 -3.598549
-35.711704 -4.343504 -3.511124
-35.417801 -5.062871 -3.378586
-36.681072 -2.919181 -3.777206
-36.377190 -3.657085 -3.640915
-36.499088 -4.436037 -3.543640
-36.163605 -5.160059 -3.382301
-37.474972 -2.994955 -3.799572
-37.129372 -3.738882 -3.634937
-37.258583 -4.526904 -3.540348
-37.014648 -5.268515 -3.455158
-38.240654 -3.070144 -3.786266
-37.924129 -3.824187 -3.648724
-38.052837 -4.621339 -3.550480
-37.775105 -5.368387 -3.442787
-39.105091 -3.150982 -3.834206
-38.762123 -3.913128 -3.681202
-38.914261 -4.722159 -3.597103
-38.538490 -5.469135 -3.419556
-39.933418 -3.230879 -3.839859
-39.587849 -4.002016 -3.689625
-39.811829 -4.826823 -3.654808
-39.496986 -5.590598 -3.527626
-40.805561 -3.313839 -3.862904
-40.513851 -4.098547 -3.756630
-40.745987 -4.935427 -3.722675
-40.388020 -5.705832 -3.568657
-41.811638 -3.404670 -3.966007
-41.549911 -4.203606 -3.885426
-41.684650 -5.045237 -3.776669
-41.291183 -5.823028 -3.602333
-42.798347 -3.495542 -4.036861
-42.379120 -4.295181 -3.849476
-42.529491 -5.147641 -3.748238
-42.133007 -5.934504 -3.576946
-43.541912 -5.265513 -3.820210
-43.174931 -6.067672 -3.674660
-44.559105 -5.384691 -3.876945
-44.056835 -6.184760 -3.645206
-45.572556 -5.504413 -3.912872
-45.099667 -6.319607 -3.707195
-46.030239 -6.443306 -3.677456
5.570152 -0.939898 29.828732
5.558805 -0.937558 29.827827
5.559276 -0.941295 29.827667
5.584126 -0.938670 29.844416
5.547811 -0.938844 29.827112
5.530888 -0.944642 29.817295
5.564646 -0.941018 29.838583
5.545531 -0.939319 29.831408
5.528446 -0.945150 29.821898
5.579799 -0.936161 29.851923
5.597874 -0.937510 29.860968
5.543327 -0.939787 29.835745
5.526084 -0.945651 29.826544
5.604709 -0.933966 29.868954
5.551648 -0.942890 29.842196
5.550158 -0.939375 29.844473
5.568516 -0.941089 29.853029
5.549633 -0.943331 29.846430