# This PCD file was generated using the MATLAB® pcwrite function
# from Computer Vision System Toolbox®.
# .PCD v.7 - Point Cloud Data file format
VERSION .7
FIELDS x y z
SIZE 4 4 4
TYPE F F F
COUNT 1 1 1
WIDTH 752
HEIGHT 1
VIEWPOINT 0 0 0 1 0 0 0
POINTS 752
DATA ascii
33.499428 10.420872 1.011471
32.913933 10.825007 0.938465
33.073120 10.269273 0.951767
32.496346 10.672671 0.876808
32.570122 10.085504 0.983059
32.067158 10.514898 0.835005
32.172794 9.945257 0.906712
31.626789 10.351822 0.813393
31.629747 9.743933 1.001827
31.156870 10.175263 0.834156
31.336634 9.646579 0.820419
30.739033 10.021317 0.802671
30.917522 9.496321 0.789211
30.298159 9.856750 0.806332
30.431850 9.317751 0.845037
29.841131 9.684530 0.838337
29.992039 9.158022 0.855366
29.452831 9.542569 0.793911
29.602911 9.019306 0.811415
29.041922 9.390132 0.784763
29.214996 8.880810 0.772432
28.632780 9.238094 0.781015
28.780834 8.722372 0.799513
28.248777 9.097008 0.751886
28.419518 8.594544 0.740070
27.866140 8.956199 0.727655
28.012566 8.446978 0.747078
27.484924 8.815686 0.708290
27.653524 8.319558 0.696955
27.105181 8.675490 0.693764
27.272709 8.182530 0.682673
26.749226 8.545826 0.652431
26.870951 8.036163 0.704853
26.372303 8.406234 0.647297
26.493490 7.899910 0.700382
25.997000 8.267013 0.646919
26.139585 7.773533 0.668591
25.623358 8.128181 0.651274
25.765150 7.637959 0.673393
25.293846 8.009467 0.595421
25.456623 7.530785 0.585445
24.965010 7.890827 0.543432
25.105982 7.405027 0.566322
24.574905 7.743248 0.593855
24.735752 7.270386 0.584328
24.268755 7.634659 0.517082
24.413681 7.156600 0.532515
23.942738 7.516513 0.476974
24.061813 7.029428 0.534327
23.617550 7.398501 0.440657
23.736507 6.913723 0.498573
23.234568 7.252690 0.508997
23.357771 6.773990 0.559141
22.883089 7.121429 0.531488
23.035025 6.658851 0.531424
23.041597 6.147296 0.490824
23.191210 5.685905 0.493910
22.542900 6.995188 0.541269
22.751600 6.561106 0.439373
22.695431 6.024466 0.511406
22.858828 5.571536 0.489077
22.124739 6.830915 0.700377
22.430225 6.446152 0.418720
22.374666 5.911996 0.493235
22.518173 5.453753 0.505291
21.807335 6.714791 0.684669
22.123838 6.337720 0.375973
22.073608 5.807590 0.444237
22.235672 5.358334 0.421989
21.468323 6.587830 0.715784
21.827246 6.233528 0.319347
21.777651 5.705159 0.389879
21.920626 5.250119 0.402351
21.189157 6.489795 0.638165
21.526514 6.127273 0.274630
21.441387 5.585501 0.417130
21.510620 5.104663 0.569281
20.874846 6.374311 0.633228
21.137554 5.980397 0.407745
21.142450 5.481411 0.378305
21.230534 5.009661 0.496313
20.561710 6.259091 0.631884
20.804472 5.858665 0.440599
20.844114 5.377397 0.342749
20.937208 4.909340 0.452654
20.215816 6.127217 0.704536
20.421650 5.713575 0.583099
20.563625 5.280835 0.275095
20.670473 4.819319 0.359110
19.955786 6.037865 0.604513
20.126816 5.608775 0.553440
20.270523 5.178723 0.236979
20.356335 4.710512 0.365915
19.662477 5.931688 0.578123
19.816078 5.496334 0.562555
19.936398 5.058741 0.291178
20.043482 4.602012 0.376257
19.353786 5.817458 0.590618
19.490360 5.376562 0.610909
19.551252 4.916338 0.465719
19.748465 4.500376 0.354269
19.062241 5.711629 0.570755
19.214561 5.279962 0.555428
19.306416 4.834432 0.339333
19.454206 4.398874 0.335463
18.802486 5.621887 0.482056
18.935022 5.181443 0.511803
18.977972 4.715989 0.404871
19.164715 4.299104 0.310789
18.527138 5.524025 0.432051
18.663542 5.086600 0.453014
18.670988 4.606619 0.428883
18.899321 4.208808 0.234755
18.192396 5.395037 0.530073
18.339308 4.966303 0.524134
18.350321 4.490949 0.492737
18.622231 4.113716 0.188677
17.907795 5.291759 0.513653
18.039490 4.857356 0.544313
18.072531 4.393931 0.459728
18.364182 4.026152 0.099716
17.663269 5.209431 0.399664
17.809866 4.782208 0.393904
17.784300 4.292103 0.457127
18.057852 3.919008 0.132576
17.372351 5.102420 0.407267
17.507790 4.671730 0.429211
17.511230 4.196840 0.420761
17.756660 3.813727 0.159594
17.103075 5.006712 0.362730
17.235043 4.575341 0.394093
17.224600 4.095323 0.424160
17.435724 3.700207 0.245382
16.813929 4.900072 0.376398
16.952480 4.473912 0.389532
16.925348 3.987871 0.467707
17.124056 3.590188 0.316261
16.519402 4.790133 0.411734
16.650862 4.362712 0.443661
16.667652 3.899024 0.402842
16.821224 3.483529 0.372004
16.274269 4.707034 0.310621
16.406145 4.279752 0.342718
16.396774 3.804054 0.377838
16.549870 3.389577 0.346991
16.000301 4.607924 0.295845
16.135328 4.183569 0.318830
16.113667 3.703285 0.393066
16.250010 3.283704 0.409092
15.733030 4.512336 0.265141
15.852633 4.081117 0.335207
15.856417 3.614258 0.336071
15.992853 3.195298 0.352221
15.463135 4.415068 0.246521
15.598129 3.992910 0.269880
15.577934 3.515225 0.347574
15.711081 3.096534 0.373306
15.193754 4.317865 0.230635
15.314058 3.889241 0.301369
15.309267 3.420568 0.333595
15.442404 3.003053 0.359488
14.894058 4.202800 0.321518
15.022751 3.781417 0.364262
15.038294 3.324638 0.331806
15.174282 2.909655 0.348375
14.659363 4.125299 0.197533
14.788746 3.703562 0.240421
14.781965 3.235493 0.285208
14.932192 2.827115 0.254301
14.388947 4.026745 0.199270
14.523796 3.609252 0.223356
14.514799 3.141027 0.279238
14.664543 2.733665 0.248325
14.142422 3.942299 0.117899
14.264534 3.517829 0.189831
14.250883 3.047943 0.266376
14.386841 2.635752 0.283300
13.865385 3.839253 0.153574
13.997821 3.422179 0.187550
13.995092 2.958662 0.227362
14.120785 2.542635 0.282768
13.611338 3.750007 0.105818
13.744060 3.333472 0.139948
13.729477 2.864411 0.229265
13.875498 2.458348 0.207939
13.343187 3.651805 0.118164
13.468773 3.232586 0.181351
13.462170 2.769101 0.243450
13.600444 2.361030 0.251076
13.096170 3.566764 0.046482
13.213226 3.142535 0.148436
13.218806 2.685637 0.163713
13.343216 2.271306 0.229376
12.850775 3.482843 -0.032579
12.966647 3.057542 0.079309
12.952478 2.590456 0.183018
13.088523 2.182575 0.200478
12.594227 3.391649 -0.060997
12.708841 2.965986 0.060900
12.708542 2.506586 0.107950
12.844921 2.098674 0.125479
12.329760 3.294962 -0.048153
12.445147 2.870747 0.074104
12.435015 2.407239 0.171246
12.571077 2.001136 0.188898
12.081540 3.209089 -0.110460
12.198083 2.785274 0.012087
12.188919 2.322049 0.110666
12.327303 1.916969 0.118641
11.816181 3.111224 -0.082813
11.941053 2.693676 0.001091
11.934742 2.232493 0.091410
12.073149 1.828012 0.099449
11.555363 3.016151 -0.072050
11.678923 2.598669 0.021866
11.689896 2.147897 0.025673
11.819201 1.739024 0.082678
11.307076 2.929945 -0.127180
11.440247 2.518360 -0.081982
11.428769 2.054265 0.050364
11.565479 1.650012 0.068327
11.051937 2.838617 -0.140842
11.193721 2.433175 -0.144510
11.168535 1.960842 0.077610
11.305162 1.557742 0.095661
10.797050 2.747276 -0.152073
10.938759 2.342398 -0.155687
10.915545 1.871291 0.068069
11.050650 1.468037 0.096027
10.535198 2.650116 -0.111752
10.684072 2.251614 -0.164444
10.668850 1.785282 0.021542
10.798134 1.379142 0.088972
10.286755 2.563446 -0.157429
10.428267 2.159828 -0.160934
10.421812 1.699052 -0.022707
10.551794 1.293156 0.044847
10.028976 2.468818 -0.131824
10.170271 2.066159 -0.135258
10.174450 1.612609 -0.064674
10.306517 1.207654 -0.006878
9.770817 2.373300 -0.093864
9.911850 1.971730 -0.097216
9.926785 1.525959 -0.104351
10.052948 1.117876 0.003002
9.521523 2.285374 -0.122576
9.668473 1.888563 -0.175344
9.674129 1.436021 -0.102140
9.806023 1.031385 -0.034231
9.273157 2.198328 -0.158859
9.419814 1.801414 -0.211672
9.426236 1.349091 -0.137192
9.550844 0.940419 0.000227
9.025494 2.112083 -0.202751
9.166872 1.710634 -0.206055
9.182146 1.264831 -0.209642
9.308215 0.856081 -0.072073
8.776550 2.024633 -0.234451
8.918042 1.623224 -0.237740
8.929728 1.174675 -0.200415
9.056885 0.766899 -0.062674
8.523406 1.932336 -0.214228
8.668993 1.535637 -0.267124
8.681149 1.087204 -0.228584
8.809582 0.679877 -0.090698
8.274450 1.844682 -0.241280
8.415938 1.444010 -0.244499
8.432379 0.999565 -0.254454
8.562089 0.592688 -0.116434
8.020256 1.749853 -0.186493
8.162162 1.351017 -0.199593
8.183437 0.911766 -0.278025
8.318085 0.507678 -0.189692
7.773813 1.665498 -0.248672
7.915343 1.265433 -0.251842
7.931931 0.821532 -0.259428
8.071808 0.421347 -0.240793
7.524697 1.577488 -0.268784
7.666859 1.178151 -0.281910
7.683030 0.733548 -0.278366
7.825473 0.335106 -0.299610
7.273913 1.486177 -0.246744
7.415920 1.087377 -0.259838
7.434015 0.645424 -0.295002
7.574482 0.245448 -0.276323
7.026416 1.401804 -0.312057
7.168340 1.001730 -0.315210
7.183477 0.555234 -0.269403
7.325665 0.157295 -0.290636
6.775793 1.309698 -0.275400
6.917597 0.910321 -0.278509
6.934617 0.466966 -0.281414
7.076772 0.069015 -0.302649
6.527320 1.224780 -0.336143
6.669476 0.824788 -0.339287
6.685507 0.378154 -0.281132
6.827821 -0.019385 -0.312357
6.277690 1.136089 -0.344725
6.419960 0.736138 -0.347862
6.436633 0.289682 -0.288532
6.578831 -0.107898 -0.319761
6.028153 1.044071 -0.301098
6.170305 0.644818 -0.304193
6.187879 0.202936 -0.343597
6.330121 -0.195578 -0.364853
5.778466 0.957770 -0.344971
5.920862 0.558516 -0.358084
5.938572 0.114112 -0.346397
6.080781 -0.284414 -0.367651
5.528886 0.868799 -0.346619
5.671457 0.469103 -0.349743
5.689284 0.025195 -0.346888
5.831459 -0.373343 -0.368143
5.279063 0.780294 -0.355936
5.421796 0.380508 -0.359068
5.440032 -0.063809 -0.345072
5.582173 -0.462358 -0.366325
5.029828 0.690594 -0.342981
5.171098 0.292956 -0.396046
5.189634 -0.151896 -0.380917
5.332944 -0.551452 -0.362202
4.778210 0.603859 -0.387587
4.921751 0.203265 -0.380768
4.938653 -0.240290 -0.414440
5.082446 -0.640267 -0.395744
4.526373 0.516293 -0.419884
4.669828 0.115581 -0.423086
4.689435 -0.329937 -0.395689
4.833057 -0.729618 -0.386993
4.276981 0.426238 -0.399981
4.417740 0.027232 -0.453077
4.439946 -0.419423 -0.384617
4.581781 -0.818911 -0.415882
4.027195 0.336595 -0.387735
4.167659 -0.062517 -0.440821
4.187444 -0.508306 -0.421137
4.329981 -0.908492 -0.442429
3.774496 0.248420 -0.413036
3.917720 -0.152315 -0.426247
3.934985 -0.597631 -0.445316
4.080333 -0.998236 -0.426710
3.520456 0.160316 -0.445934
3.664746 -0.241281 -0.449221
3.682833 -0.687302 -0.457169
3.827871 -1.088255 -0.448565
3.270415 0.070281 -0.426697
3.412178 -0.330708 -0.459871
3.435629 -0.777440 -0.406898
3.581565 -1.177833 -0.388338
3.021583 -0.020074 -0.395199
3.161243 -0.420660 -0.448257
3.178601 -0.867279 -0.463852
3.325208 -1.268618 -0.445347
2.763313 -0.108039 -0.450832
2.903053 -0.509783 -0.503925
2.924648 -0.957544 -0.478580
3.071736 -1.359302 -0.460123
2.502801 -0.196260 -0.513947
2.648297 -0.599794 -0.517395
2.671408 -1.048011 -0.480988
2.813567 -1.450943 -0.512276
2.247350 -0.286032 -0.524981
2.393147 -0.690050 -0.528473
2.415542 -1.138810 -0.500874
2.558977 -1.542233 -0.522234
1.991523 -0.376041 -0.533611
2.137621 -0.780543 -0.537149
2.160430 -1.229797 -0.508423
2.304022 -1.633758 -0.529795
1.736758 -0.466423 -0.529940
1.881740 -0.871266 -0.543421
1.906338 -1.320877 -0.503660
2.050038 -1.725244 -0.525040
1.478825 -0.556742 -0.543646
1.631330 -0.962143 -0.507700
1.649191 -1.412445 -0.516294
1.793095 -1.817481 -0.537687
1.221994 -0.647421 -0.545036
1.370526 -1.053329 -0.538832
1.400738 -1.503126 -0.467203
1.543082 -1.908366 -0.498468
0.966531 -0.738364 -0.534136
1.112168 -1.144749 -0.547724
1.144771 -1.594831 -0.465153
1.287191 -2.000638 -0.496416
0.709214 -0.829426 -0.530674
0.855070 -1.236324 -0.544300
0.873343 -1.689006 -0.549355
1.019546 -2.095795 -0.560936
0.444355 -0.920698 -0.564110
0.590615 -1.328637 -0.577799
0.609064 -1.782494 -0.581663
0.753971 -2.190729 -0.603123
0.176715 -1.012429 -0.604794
0.325282 -1.421373 -0.608734
0.351317 -1.875158 -0.572111
0.503593 -2.282160 -0.554276
-0.097891 -1.104823 -0.672266
0.061031 -1.514332 -0.627277
0.085648 -1.969362 -0.599327
0.238592 -2.377308 -0.581583
-0.349206 -1.196752 -0.619600
-0.199858 -1.607193 -0.623678
-0.180844 -2.063970 -0.623949
-0.025269 -2.472360 -0.596500
-0.597902 -1.288491 -0.554836
-0.448488 -1.698759 -0.558929
-0.448136 -2.158977 -0.645960
-0.293857 -2.568812 -0.628399
-0.865963 -1.381456 -0.575514
-0.718244 -1.793017 -0.589449
-0.696667 -2.250516 -0.577578
-0.552764 -2.662914 -0.608860
-1.155528 -1.476431 -0.681129
-0.993442 -1.888344 -0.636780
-0.985029 -2.350153 -0.682096
-0.827211 -2.761289 -0.654997
-1.413896 -1.569376 -0.647814
-1.265187 -1.983544 -0.661917
-1.254583 -2.446308 -0.696196
-1.098302 -2.858977 -0.678934
-1.684504 -1.663594 -0.660492
-1.525724 -2.077320 -0.635872
-1.512794 -2.540246 -0.659172
-1.367898 -2.956443 -0.690475
-1.968523 -1.759517 -0.718836
-1.803798 -2.174024 -0.675058
-1.775875 -2.635344 -0.639030
-1.618642 -3.048852 -0.621956
-2.248761 -1.855492 -0.754986
-2.085597 -2.271688 -0.721088
-2.067395 -2.736943 -0.722460
-1.896513 -3.148914 -0.657270
-2.511212 -1.949702 -0.720942
-2.360713 -2.368559 -0.735348
-2.315812 -2.829081 -0.639210
-2.170295 -3.248024 -0.670498
-2.773656 -2.044019 -0.684376
-2.620206 -2.462903 -0.689215
-2.612493 -2.932429 -0.726486
-2.463601 -3.352880 -0.748201
-3.084667 -2.144977 -0.808056
-2.916076 -2.564000 -0.765173
-2.883132 -3.030005 -0.714844
-2.733938 -3.451386 -0.736572
-3.345427 -2.239563 -0.756456
-3.190649 -2.661522 -0.761541
-3.168592 -3.131299 -0.748266
-3.007516 -3.550976 -0.731817
-3.645151 -2.339931 -0.826181
-3.477649 -2.761657 -0.793293
-3.443375 -3.230255 -0.740637
-3.281637 -3.650876 -0.724312
-3.921902 -2.437293 -0.816742
-3.756659 -2.860520 -0.793562
-3.733865 -3.333259 -0.777735
-3.571227 -3.755481 -0.761557
-4.199153 -2.534953 -0.804525
-4.030076 -2.958473 -0.772049
-4.019390 -3.435290 -0.792847
-3.855946 -3.858851 -0.776810
-4.502865 -2.637140 -0.865068
-4.332633 -3.062610 -0.832859
-4.296259 -3.535358 -0.776680
-4.147889 -3.964556 -0.808002
-4.798287 -2.738393 -0.894114
-4.640154 -3.168177 -0.899845
-4.599737 -3.642390 -0.833014
-4.447486 -4.072759 -0.854944
-5.088094 -2.839030 -0.901285
-4.919281 -3.268067 -0.878962
-4.894812 -3.747555 -0.857918
-4.741973 -4.179642 -0.879889
-5.385718 -2.941334 -0.924162
-5.198803 -3.368219 -0.855251
-5.201315 -3.855946 -0.907753
-5.034234 -4.286044 -0.892345
-5.677365 -3.042889 -0.925245
-5.520812 -3.477938 -0.940689
-5.481392 -3.957671 -0.879679
-5.313653 -4.388715 -0.864418
-5.987970 -3.148226 -0.969753
-5.812724 -3.581347 -0.938828
-5.790415 -4.067238 -0.923077
-5.621637 -4.500278 -0.907990
-6.270444 -3.248643 -0.936800
-6.098083 -3.683496 -0.915377
-6.053472 -4.164771 -0.842745
-5.902300 -4.603650 -0.874098
-6.583477 -3.355126 -0.974794
-6.406310 -3.791099 -0.944395
-6.379432 -4.279362 -0.916677
-6.194283 -4.710660 -0.865011
-6.886399 -3.460005 -0.981785
-6.704417 -3.896647 -0.942459
-6.692237 -4.390706 -0.950161
-6.520774 -4.828552 -0.935593
-7.202110 -3.567734 -1.013014
-7.018914 -4.006303 -0.974030
-6.990951 -4.498452 -0.943571
-6.803320 -4.932990 -0.892534
-7.519225 -3.676114 -1.040775
-7.322927 -4.113770 -0.974731
-7.306270 -4.610984 -0.970266
-7.117304 -5.047406 -0.919565
-7.817291 -3.780919 -1.019596
-7.639977 -4.224632 -0.999453
-7.590725 -4.715193 -0.920794
-7.432648 -5.162457 -0.943104
-8.107635 -3.884330 -0.977158
-7.925475 -4.328104 -0.948175
-7.908133 -4.828761 -0.940769
-7.733102 -5.273016 -0.926924
-8.419407 -3.992461 -0.976778
-8.240393 -4.438958 -0.957125
-8.243534 -4.947645 -0.993246
-8.067278 -5.394421 -0.979616
-8.779510 -4.111280 -1.071754
-8.573473 -4.554597 -0.998533
-8.563784 -5.062538 -1.005970
-8.369690 -5.505972 -0.956633
-9.102764 -4.222605 -1.082003
-8.934223 -4.677515 -1.089821
-8.889576 -5.179253 -1.024038
-8.689837 -5.623342 -0.966131
-9.445023 -4.338441 -1.124249
-9.262247 -4.792605 -1.105543
-9.225489 -5.299120 -1.056204
-9.028559 -5.746851 -1.007612
-9.752834 -4.446992 -1.091658
-9.564716 -4.901475 -1.064346
-9.549585 -5.415860 -1.057940
-9.369013 -5.871149 -1.045147
-10.079580 -4.560031 -1.091019
-9.908543 -5.021150 -1.099352
-9.874800 -5.533155 -1.056011
-9.693195 -5.990440 -1.043438
-10.444761 -4.682136 -1.156946
-10.249416 -5.140396 -1.121574
-10.219532 -5.656359 -1.085497
-10.036709 -6.116166 -1.073153
-10.755272 -4.792110 -1.113657
-10.563618 -5.253001 -1.087383
-10.565876 -5.780311 -1.110947
-10.381836 -6.242640 -1.098837
-11.123957 -4.915820 -1.171328
-10.930822 -5.379726 -1.145456
-10.913795 -5.905000 -1.132332
-10.705009 -6.362216 -1.077007
-11.475233 -5.035891 -1.189966
-11.275969 -5.501008 -1.155811
-11.258421 -6.028988 -1.140980
-11.076767 -6.497785 -1.137991
-11.828016 -5.156676 -1.204493
-11.632296 -5.625561 -1.179375
-11.589714 -6.149282 -1.119801
-11.387720 -6.613780 -1.082581
-12.197327 -5.281763 -1.240568
-12.005157 -5.754865 -1.224424
-11.966574 -6.283348 -1.171820
-11.753084 -6.747727 -1.117886
-12.558300 -5.405244 -1.255171
-12.380003 -5.885072 -1.264950
-12.300234 -6.404831 -1.142637
-12.110302 -6.879248 -1.131723
-12.931108 -5.531958 -1.282429
-12.736322 -6.010624 -1.266996
-12.675531 -6.539011 -1.177322
-12.484190 -7.016475 -1.166677
-13.316133 -5.662053 -1.322041
-13.114719 -6.142484 -1.298555
-13.073383 -6.680284 -1.241074
-12.859951 -7.154569 -1.197037
-13.671343 -5.785214 -1.306654
-13.447687 -6.262254 -1.250011
-13.452650 -6.816286 -1.266342
-13.237543 -7.293513 -1.222767
-14.054499 -5.915620 -1.328749
-13.855713 -6.402900 -1.314413
-13.812462 -6.946685 -1.253662
-13.616909 -7.433292 -1.243834
-14.466572 -6.053647 -1.387564
-14.217672 -6.531214 -1.299032
-14.216465 -7.090778 -1.302849
-14.019320 -7.580959 -1.293318
-14.848005 -6.184431 -1.391769
-14.640806 -6.676819 -1.369987
-14.600914 -7.229237 -1.314022
-14.402367 -7.722466 -1.304773
-15.236523 -6.317368 -1.399498
-15.005779 -6.806606 -1.345385
-15.003523 -7.373545 -1.344955
-14.787046 -7.864759 -1.311474
-15.649178 -6.456831 -1.434988
-15.444485 -6.957363 -1.422251
-15.396957 -7.515351 -1.354551
-15.173304 -8.007823 -1.313381
-16.069613 -6.598722 -1.473337
-15.829378 -7.093395 -1.412472
-15.803333 -7.661440 -1.375366
-15.583471 -8.159122 -1.342775
-16.463364 -6.734169 -1.466166
-16.244244 -7.238222 -1.438160
-16.222996 -7.811949 -1.407051
-15.989983 -8.309466 -1.358885
-16.905216 -6.882455 -1.517952
-16.637934 -7.377396 -1.426605
-16.638964 -7.961641 -1.425365
-16.404037 -8.462605 -1.377773
-17.343599 -7.030317 -1.556067
-17.056425 -7.523965 -1.441887
-17.056824 -8.112238 -1.438343
-16.796829 -8.608862 -1.359657
-17.742496 -7.168267 -1.533375
-17.500439 -7.678216 -1.483337
-17.476513 -8.263720 -1.445948
-17.220209 -8.765663 -1.375923
-18.166773 -7.313249 -1.536993
-17.904909 -7.821489 -1.464170
-17.915873 -8.421665 -1.471567
-17.663246 -8.929373 -1.410118
-18.671946 -7.480083 -1.636143
-18.371172 -7.982937 -1.517635
-18.315136 -8.567372 -1.437147
-18.084593 -9.086043 -1.407415
-19.075855 -7.620517 -1.597298
-18.797262 -8.133168 -1.510843
-18.819094 -8.746274 -1.528543
-18.549900 -9.257869 -1.453152
-19.555452 -7.781545 -1.645260
-19.274328 -8.298588 -1.559853
-19.270901 -8.909163 -1.544214
-19.005474 -9.426706 -1.477316
-19.993668 -7.931934 -1.633595
-19.729031 -8.457913 -1.572010
-19.743382 -9.078929 -1.576635
-19.475542 -9.600769 -1.510553
-20.395477 -8.072865 -1.570982
-20.217190 -8.627438 -1.615900
-20.199371 -9.243836 -1.580105
-19.960407 -9.780181 -1.552486
-20.887697 -8.238639 -1.608135
-20.720600 -8.801895 -1.668140
-20.707954 -9.425787 -1.637251
-20.435209 -9.956488 -1.572830
-21.375929 -8.403821 -1.631195
-21.239550 -8.981404 -1.728348
-21.193752 -9.600893 -1.657721
-20.924910 -10.138193 -1.601549
-21.833839 -8.561168 -1.610802
-21.703112 -9.144991 -1.714983
-21.681793 -9.777084 -1.671560
-21.404156 -10.316649 -1.608822
-22.220984 -8.699441 -1.503952
-22.220667 -9.324991 -1.753971
-22.198069 -9.962678 -1.707914
-21.917807 -10.507200 -1.646049
-22.794247 -8.889345 -1.595339
-22.688080 -9.490506 -1.727743
-22.697189 -10.143170 -1.715389
-22.407921 -10.690022 -1.647156
-23.317411 -9.065984 -1.621050
-23.150427 -9.654865 -1.688065
-23.244888 -10.339646 -1.766211
-22.959332 -10.894222 -1.706116
-23.843031 -9.243812 -1.639521
-23.600758 -9.815967 -1.627956
-23.795458 -10.537481 -1.809271
-23.480522 -11.088400 -1.721626
-24.398275 -9.430414 -1.678968
-24.207838 -10.024532 -1.724636
-24.321819 -10.727936 -1.816319
-24.030849 -11.292962 -1.758036
-24.612768 -9.522001 -1.360266
-24.770817 -10.220377 -1.763403
-24.850430 -10.919507 -1.816004
-24.556856 -11.489500 -1.758629
-25.018211 -9.667178 -1.234358
-25.260880 -10.394662 -1.717707
-25.346889 -11.101048 -1.773649
-25.105469 -11.694195 -1.772614
-25.779903 -9.913208 -1.454264
-25.641399 -10.536087 -1.555122
-25.914053 -11.305895 -1.793108
-25.718334 -11.921490 -1.840576
-26.357309 -10.107927 -1.478477
-26.091444 -10.698836 -1.456112
-26.448904 -11.500655 -1.770451
-26.306829 -12.140759 -1.872318
-27.135962 -10.360425 -1.683548
-26.901583 -10.971674 -1.695961
-27.041895 -11.714756 -1.794140
-26.919054 -12.368662 -1.915720
-27.391283 -10.464519 -1.381676
-27.355650 -11.136515 -1.581730
-27.410948 -11.856153 -1.595785
-27.513189 -12.590693 -1.930099
-28.032965 -10.679131 -1.435144
-28.017744 -11.365397 -1.653790
-28.064611 -12.090870 -1.657141
-28.060305 -12.796757 -1.889563
-29.359846 -11.091130 -2.095760
-28.813143 -11.635836 -1.834202
-28.779161 -12.346070 -1.761068
-28.659159 -13.021199 -1.887037
-29.647440 -11.205606 -1.799440
-29.388723 -11.839357 -1.800825
-29.613680 -12.641266 -1.957705
-29.317961 -13.266954 -1.927580
-29.645712 -11.236465 -1.249519
-29.863829 -12.012308 -1.669128
-30.213144 -12.859819 -1.929880
-29.784273 -13.445907 -1.785168
-29.919298 -11.346582 -0.943569
-30.633997 -12.276862 -1.785702
-30.557615 -12.994736 -1.671474
-30.564592 -13.734979 -1.909229
-30.197943 -11.458128 -0.641150
-31.505011 -12.573417 -1.972342
-31.233339 -13.239190 -1.691244
-31.195158 -13.972150 -1.889366
-30.609499 -11.608387 -0.447899
-31.664656 -12.649654 -1.547085
-31.539660 -13.361938 -1.390717
-31.717051 -14.171624 -1.767042
-34.409107 -12.749132 -3.007366
-32.098301 -12.811109 -1.349239
-32.900787 -13.834359 -1.951801
-32.574795 -14.489351 -1.913637
-33.609585 -14.091490 -1.956329
-33.122700 -14.698758 -1.791725
-34.351589 -14.360197 -1.974091
-33.920429 -14.996442 -1.860004
-34.844501 -14.546499 -1.784937
-34.744816 -15.304077 -1.933605
5.899407 -0.980024 29.821014
5.889195 -0.983818 29.819374
5.919855 -0.972998 29.842775
5.877519 -0.984002 29.818199
5.862876 -0.993365 29.807507
5.885739 -0.985309 29.825354
5.875181 -0.985016 29.822369
5.860371 -0.994451 29.811974
5.906727 -0.974426 29.844679
5.924139 -0.971760 29.854681
5.872912 -0.986007 29.826582
5.857941 -0.995512 29.816486
5.863552 -0.989301 29.823803
5.881365 -0.987220 29.833479
5.912169 -0.972853 29.854961
5.896800 -0.981773 29.845194
5.920685 -0.973280 29.861366