# This PCD file was generated using the MATLAB® pcwrite function
# from Computer Vision System Toolbox®.
# .PCD v.7 - Point Cloud Data file format
VERSION .7
FIELDS x y z
SIZE 4 4 4
TYPE F F F
COUNT 1 1 1
WIDTH 762
HEIGHT 1
VIEWPOINT 0 0 0 1 0 0 0
POINTS 762
DATA ascii
64.638084 -72.605782 0.390366
63.912971 -72.679001 0.518997
63.427437 -71.908882 0.327637
63.359856 -72.718277 0.434742
62.744942 -71.982346 0.423500
62.731339 -72.773911 0.460529
62.142342 -72.038475 0.423542
62.129204 -72.825043 0.461723
61.548103 -72.093643 0.422615
61.558456 -72.870453 0.429573
60.950745 -72.150551 0.436760
60.961288 -72.922371 0.444656
60.378536 -72.202408 0.425217
60.366894 -72.974655 0.466736
59.808598 -72.254631 0.420246
59.775345 -73.027306 0.495773
59.197369 -72.318069 0.487980
59.164856 -73.085175 0.564865
58.600479 -72.379128 0.546326
58.665798 -73.119080 0.474533
58.018532 -73.187332 0.624161
57.615707 -72.450958 0.364269
57.460106 -73.236488 0.646843
57.077896 -72.499573 0.357136
57.049095 -73.252144 0.438606
56.526909 -72.552559 0.381485
56.539780 -73.291161 0.396000
55.988533 -72.603188 0.394936
55.981636 -73.342560 0.444492
55.477196 -72.647430 0.371387
55.470982 -73.383453 0.421844
54.909210 -72.708054 0.456997
54.961994 -73.424675 0.404690
52.072968 -73.403114 4.672119
54.358833 -73.490158 0.566872
51.571964 -73.456383 4.747036
53.840729 -73.535561 0.587673
50.972198 -73.539139 5.020412
53.334213 -73.578873 0.596550
50.583836 -73.562286 4.905003
50.679859 -74.182343 4.764015
52.806931 -73.628418 0.654957
50.159321 -73.596367 4.864052
50.308235 -74.200005 4.616596
52.331894 -73.665192 0.621738
49.792904 -73.613564 4.711948
50.001808 -74.200287 4.339111
51.822823 -73.711739 0.664589
49.762318 -73.528290 3.867214
48.141594 -74.623436 7.262901
50.922791 -73.070328 0.475136
47.844017 -74.627052 7.030472
50.973930 -73.760902 0.425697
50.477005 -73.103134 0.406536
47.305904 -74.697975 7.313972
50.440422 -73.816551 0.546547
44.699692 -74.845642 12.141090
50.023529 -73.138893 0.360367
44.513943 -75.415001 12.598392
44.182480 -74.932205 12.527256
46.916718 -74.040527 6.332275
44.165066 -75.445633 12.614880
44.014980 -75.958672 12.618916
44.022442 -74.902786 12.109570
43.837322 -75.470634 12.589382
43.699692 -75.979164 12.567951
43.487228 -74.998558 12.569607
43.517982 -75.493530 12.548817
43.399940 -75.995819 12.483280
43.348625 -76.508110 12.659218
43.262287 -74.990562 12.302582
43.146191 -75.532852 12.639969
43.054848 -76.024933 12.511951
42.975220 -76.541931 12.762653
42.893806 -75.032059 12.386852
42.873138 -75.542328 12.495392
42.960564 -75.985374 11.915230
42.621525 -75.040199 12.234829
42.663658 -75.531433 12.186543
42.555801 -76.031227 12.097260
41.776958 -76.721230 14.170851
42.284248 -75.071777 12.251934
42.326157 -75.561066 12.203812
41.402153 -76.293129 14.285988
41.468380 -76.743614 14.169117
41.934544 -75.108650 12.309624
42.038296 -75.574905 12.094040
41.156864 -76.299187 14.119255
41.037170 -76.797211 14.507122
41.781570 -75.071671 11.829624
41.698967 -75.606102 12.126972
40.715885 -76.363373 14.498087
40.756836 -76.813820 14.446827
41.467201 -75.095078 11.789780
40.411182 -75.964981 14.872982
41.420361 -75.617050 11.994541
40.399704 -76.391670 14.543776
40.283527 -76.881020 14.944422
40.258987 -75.473640 14.382450
40.377586 -75.897057 14.102831
40.097889 -76.416161 14.554932
40.007732 -76.897835 14.890932
39.896702 -75.525375 14.573036
39.856705 -76.000992 14.764763
39.753815 -76.454590 14.701448
39.679077 -76.929245 15.000927
39.584019 -75.558228 14.625912
39.570183 -76.022690 14.742828
39.452244 -76.480324 14.728331
39.395432 -76.948952 14.981413
39.223007 -75.612534 14.842978
39.278160 -76.046822 14.742556
39.078773 -76.530594 14.995968
39.238518 -76.932892 14.555101
40.046219 -76.702873 11.936474
38.926693 -75.640556 14.864534
38.969673 -76.077797 14.802147
38.963802 -76.494377 14.418934
38.646835 -77.042183 15.561424
38.628738 -75.669975 14.898481
38.635082 -76.119965 14.960196
38.475178 -76.586433 15.103909
38.428093 -77.044792 15.350426
38.361755 -75.685883 14.830280
38.290462 -76.167656 15.169605
38.119698 -76.634720 15.363670
38.209053 -77.046951 15.131393
38.183075 -75.659996 14.438931
38.104973 -76.150543 14.817089
37.870548 -76.645607 15.252542
38.012894 -77.041313 14.817713
37.962833 -75.651917 14.182716
37.781963 -76.190796 14.965254
37.562428 -76.678665 15.365065
37.688496 -77.076004 14.977697
37.741219 -75.643044 13.918373
37.609501 -76.165779 14.538792
37.302975 -76.693794 15.297237
37.345638 -77.117973 15.228029
37.402405 -75.693253 14.118271
37.302208 -76.199860 14.634357
37.049973 -76.706329 15.202644
37.068882 -77.138977 15.230202
37.047279 -75.754387 14.408678
36.981216 -76.241562 14.800694
36.827480 -76.706017 14.974432
36.831272 -77.146576 15.069906
36.728516 -75.798424 14.567396
36.886047 -76.174889 13.991062
36.701382 -76.663254 14.300827
36.650314 -77.133102 14.648851
36.463631 -75.813515 14.496515
36.461979 -76.268356 14.628284
36.324318 -76.727936 14.746782
36.376640 -77.152550 14.628260
36.161720 -75.850471 14.602888
36.179626 -76.293304 14.647610
36.047592 -76.749924 14.748270
36.087070 -77.178452 14.688244
35.895100 -75.867157 14.546656
35.991554 -76.267654 14.201460
35.932220 -76.695160 13.931417
35.762501 -77.219223 14.936825
35.642803 -75.874557 14.414707
35.710609 -76.291061 14.205624
35.667728 -76.708847 13.838629
35.521881 -77.226707 14.767406
35.337559 -75.916641 14.568203
35.414265 -76.324059 14.300404
35.386421 -76.730957 13.836334
35.268253 -77.239151 14.658781
35.072395 -75.932785 14.509378
35.158916 -76.333176 14.172583
35.108868 -76.751450 13.816923
35.011524 -77.252655 14.562103
35.260117 -77.139343 13.097363
34.860786 -75.909256 14.119560
34.938671 -76.318817 13.821095
34.856575 -76.757843 13.642616
34.745632 -77.270218 14.516817
35.247314 -77.030945 11.395927
34.615677 -75.907387 13.907780
34.667187 -76.335922 13.765989
34.568985 -76.784149 13.687008
34.599102 -77.228081 13.685135
34.392838 -75.885025 13.520960
34.456718 -76.309250 13.289948
34.335770 -76.777069 13.359261
34.314323 -77.252502 13.722414
34.160954 -75.865608 13.155308
35.891167 -74.365875 0.389019
34.144142 -76.354576 13.505136
34.067005 -76.790718 13.260298
34.030586 -77.277061 13.762280
33.844440 -75.919296 13.412130
33.849567 -76.388695 13.614815
33.737980 -76.846436 13.638145
33.762768 -77.292984 13.685959
33.582737 -75.923645 13.247818
33.601849 -76.384636 13.351797
33.503757 -76.835335 13.257256
33.489361 -77.312073 13.651558
33.315273 -75.931793 13.115276
33.339001 -76.391083 13.189596
33.240013 -76.843758 13.096004
33.230595 -77.321320 13.480703
33.037907 -75.949356 13.064054
33.068638 -76.402893 13.079058
32.960213 -76.864502 13.075760
33.013199 -77.298882 12.865284
32.777985 -75.944641 12.817329
32.827698 -76.381447 12.633896
32.720001 -76.847404 12.611332
32.869225 -77.210953 11.317356
32.518921 -75.933716 12.513260
32.556934 -76.387245 12.458244
32.494198 -76.807587 11.870529
32.602650 -77.208542 10.952675
32.238033 -75.948982 12.439182
32.281883 -76.395409 12.304691
32.210407 -76.822220 11.767334
32.306255 -77.229713 10.918423
31.962509 -75.953468 12.268345
32.007652 -76.399132 12.103786
31.910145 -76.857025 11.905270
31.970312 -77.293762 11.504040
31.708645 -75.909950 11.663166
31.745991 -76.376373 11.626911
31.641350 -76.847565 11.508522
31.660614 -77.337502 11.804043
31.442986 -75.870712 11.089664
31.474758 -76.357307 11.181896
31.338980 -76.887642 11.711330
31.367342 -77.364861 11.867695
31.146109 -75.893333 11.074474
31.171972 -76.396919 11.345818
31.048250 -76.909897 11.697731
31.085377 -77.374298 11.664730
30.846773 -75.924828 11.141380
30.877716 -76.419556 11.333340
30.760984 -76.921982 11.557129
30.797174 -77.390823 11.563900
30.546465 -75.968246 11.320259
30.581411 -76.450836 11.413006
30.474932 -76.919388 11.229633
30.508327 -77.404419 11.415680
30.254829 -75.963623 11.054413
30.289515 -76.461792 11.276257
30.182470 -76.923744 10.984322
30.217772 -77.413902 11.200108
29.957291 -76.001984 11.188797
29.995186 -76.475914 11.171898
30.004244 -76.289742 9.160519
29.885674 -76.937233 10.851192
29.890833 -76.616074 6.743725
29.924204 -77.405945 10.707611
29.661535 -76.027733 11.206467
29.603703 -74.885017 0.416962
29.699694 -76.503197 11.209511
29.690676 -76.307449 9.078503
29.653975 -75.510750 0.405098
29.591152 -76.998245 11.328804
29.510139 -76.157745 0.481617
29.621542 -77.393196 10.127853
29.560480 -76.781685 0.497440
29.364172 -76.039024 11.087494
29.339766 -75.856987 9.357216
29.213387 -74.914383 0.397552
29.405167 -76.532455 11.269619
29.375210 -76.321877 8.959393
29.264038 -75.540367 0.385654
29.121449 -76.188454 0.473820
29.313622 -77.401535 9.870090
29.171947 -76.810608 0.459694
29.067026 -76.061096 11.070564
29.022263 -75.856392 9.111732
28.823900 -74.949257 0.431259
29.108906 -76.550148 11.202854
28.874878 -75.574799 0.419399
28.732891 -76.220222 0.479382
28.784674 -76.844826 0.505154
28.432493 -74.976112 0.388828
28.485401 -75.606781 0.426670
28.597940 -76.820175 8.022705
28.640617 -77.337318 8.016018
28.348347 -75.790344 7.983185
28.392412 -76.312607 8.001629
28.275295 -76.847038 8.032955
28.319939 -77.366577 8.066151
28.024605 -75.817413 7.994881
28.069216 -76.339630 8.013309
27.952770 -76.874123 8.046024
27.995596 -77.390617 8.029339
27.699848 -75.842697 7.989540
27.743334 -76.362534 7.978085
27.627411 -76.897797 8.012123
27.671114 -77.415558 8.005344
27.372915 -75.865227 7.957260
27.418043 -76.387459 7.965603
27.304768 -76.925377 8.030834
27.348795 -77.443108 8.024044
27.045300 -75.888054 7.927856
27.094625 -76.415230 7.985779
26.976933 -76.948181 7.982754
27.020603 -77.466286 7.965919
26.718695 -75.913162 7.921169
26.764824 -76.436424 7.929340
26.649815 -76.972725 7.957451
26.698849 -77.494911 8.000237
26.390881 -75.937553 7.907448
26.436600 -76.460487 7.905605
26.327732 -77.001762 7.994629
26.372854 -77.520943 7.987656
26.066666 -75.966118 7.936214
26.112755 -76.489021 7.934338
25.996828 -77.024780 7.945301
26.046434 -77.547249 7.977947
25.737259 -75.990074 7.918354
25.785940 -76.515289 7.936180
25.673761 -77.053604 7.978245
25.722933 -77.575470 8.000900
25.404934 -76.012405 7.883640
25.457745 -76.541000 7.931007
25.345003 -77.079269 7.964481
25.391239 -77.600159 7.957275
25.075535 -76.037918 7.881512
25.124161 -76.563744 7.889183
25.011860 -77.103210 7.923954
25.064894 -77.627831 7.966152
24.751219 -76.067467 7.921753
24.800301 -76.593254 7.929371
24.684578 -77.130798 7.935837
24.737038 -77.655243 7.968018
24.421526 -76.093491 7.925423
24.471106 -76.619789 7.932922
24.361557 -77.160591 7.980228
24.408884 -77.682922 7.972790
24.091553 -76.119781 7.932007
24.134054 -76.642662 7.890125
24.026581 -77.185440 7.948563
24.078926 -77.710373 7.970608
23.754879 -76.142677 7.902229
23.803892 -76.669777 7.899586
23.697205 -77.213165 7.959312
23.743689 -77.736603 7.941807
23.417290 -76.165909 7.875484
23.468441 -76.694855 7.882507
23.360741 -77.238647 7.933666
23.407551 -77.763176 7.916046
23.078812 -76.189468 7.851803
23.137592 -76.722527 7.897884
23.016182 -77.261978 7.871811
23.079498 -77.792480 7.942463
22.754427 -76.220505 7.909458
22.806568 -76.750473 7.916210
22.692766 -77.293045 7.930748
22.727037 -77.815880 7.844250
22.416897 -76.245544 7.901573
22.452072 -76.769722 7.820118
22.322502 -77.309822 7.757690
22.395950 -77.845322 7.866909
22.035904 -76.252480 7.691986
22.089321 -76.787216 7.698097
22.014639 -77.346245 7.900822
22.072948 -77.876846 7.931633
21.744213 -76.298294 7.914459
21.795790 -76.830032 7.910942
21.691574 -77.378021 7.968498
21.742010 -77.906776 7.960144
21.393990 -76.319946 7.867180
21.454851 -76.856201 7.902336
21.351295 -77.405373 7.961151
21.411015 -77.936958 7.991608
21.049248 -76.344543 7.852268
21.115475 -76.883400 7.906563
21.001049 -77.430756 7.918083
21.061562 -77.963943 7.948265
20.717922 -76.374542 7.898590
20.770840 -76.909500 7.894501
20.659042 -77.458778 7.917072
20.720303 -77.993011 7.947021
20.374464 -76.400604 7.899586
20.427826 -76.936638 7.895302
20.326323 -77.489334 7.957897
20.378395 -78.022400 7.948921
20.030373 -76.426987 7.903748
20.084177 -76.964088 7.899265
19.983383 -77.517967 7.963120
20.046089 -78.053726 7.992615
19.696203 -76.456955 7.949539
19.739925 -76.991859 7.906403
19.639853 -77.546913 7.971500
19.692741 -78.082130 7.962200
19.340408 -76.480705 7.921608
19.395098 -77.019951 7.916718
19.295757 -77.576172 7.983067
19.359949 -78.114021 8.012058
18.980602 -76.504044 7.887497
19.049725 -77.048355 7.930237
18.951130 -77.605751 7.997826
19.016064 -78.144646 8.026558
18.633854 -76.531738 7.904549
18.703835 -77.077080 7.946953
18.594391 -77.633606 7.977566
18.660110 -78.174095 8.005985
18.289591 -76.560524 7.934338
18.345638 -77.103539 7.928757
18.236515 -77.661842 7.960716
18.303019 -78.203926 7.988827
17.941990 -76.588837 7.957817
17.986324 -77.130379 7.914001
17.889803 -77.692421 7.985321
17.957043 -78.235550 8.013145
17.684767 -76.639633 8.259064
17.654005 -77.163239 7.988010
17.567883 -77.727180 8.088993
17.698544 -78.277115 8.306381
17.242332 -76.645630 8.005074
17.354149 -77.202484 8.159523
17.259834 -77.763992 8.233273
17.328308 -78.306427 8.260727
16.946201 -76.686821 8.188923
17.020256 -77.235077 8.229786
16.900360 -77.793457 8.229374
16.969612 -78.337486 8.256481
16.571293 -76.710327 8.149929
16.642906 -77.260117 8.180916
16.526316 -77.821472 8.191372
16.609936 -78.368919 8.255718
16.222446 -76.740105 8.189507
16.284470 -77.289162 8.192039
16.178501 -77.853516 8.232021
16.235439 -78.399498 8.220943
15.844998 -76.764435 8.157772
15.907616 -77.315659 8.159931
15.816184 -77.884102 8.238613
15.873572 -78.431717 8.227299
15.494987 -76.794884 8.204163
15.558112 -77.347176 8.206051
15.452989 -77.915062 8.248737
15.510824 -78.464310 8.237186
15.115139 -76.820030 8.179756
15.193626 -77.376732 8.218372
15.074059 -77.944710 8.225319
15.132390 -78.496147 8.213493
14.722472 -76.843544 8.131481
14.786807 -77.400581 8.132568
14.678464 -77.973167 8.168770
14.737337 -78.527336 8.156616
14.351075 -76.871651 8.142437
14.431382 -77.432617 8.180019
14.203156 -77.994118 7.932194
14.293776 -78.555908 7.993248
13.872272 -76.881958 7.909618
13.941931 -77.446777 7.918819
13.833588 -78.026924 7.957947
13.909490 -78.589256 7.981754
13.500959 -76.911751 7.937984
13.603350 -77.482384 8.019958
13.467369 -78.060478 7.996487
13.523870 -78.623039 7.974171
13.075632 -76.933395 7.851765
13.167130 -77.505806 7.905579
13.059431 -78.090645 7.947571
13.136955 -78.657265 7.970516
12.710348 -76.965332 7.906033
12.777802 -77.535980 7.904869
12.653652 -78.121712 7.912033
12.748785 -78.691933 7.970810
12.319212 -76.993774 7.909710
12.399998 -77.568085 7.935257
12.267424 -78.155052 7.925919
12.342329 -78.726173 7.938911
11.909533 -77.020149 7.881435
11.995495 -77.597641 7.915405
11.836603 -78.185371 7.853798
11.934071 -78.760925 7.911297
11.493656 -77.046417 7.848530
11.580555 -77.626732 7.881870
11.478651 -78.221992 7.938633
11.541746 -78.796967 7.923882
11.084890 -77.074425 7.837879
11.150272 -77.654945 7.825985
11.048641 -78.253677 7.884220
11.130325 -78.832695 7.904789
10.688316 -77.104721 7.858139
10.758749 -77.687874 7.854755
10.653067 -78.288483 7.905521
10.740128 -78.869820 7.934517
10.309320 -77.137794 7.917828
10.380280 -77.722565 7.914078
10.242483 -78.322792 7.904408
10.325796 -78.906517 7.924011
9.835409 -77.159653 7.805450
9.944832 -77.752327 7.871506
9.692886 -78.348984 7.652508
9.777378 -78.939293 7.671303
9.305265 -77.175987 7.602226
9.377785 -77.771049 7.597046
9.388161 -78.391144 7.862717
9.487629 -78.981270 7.907532
8.989729 -77.218437 7.797382
9.086971 -77.815277 7.835632
8.982777 -78.427521 7.892418
9.049078 -79.018929 7.875534
8.586874 -77.251068 7.839180
8.665266 -77.848389 7.842056
8.541599 -78.462463 7.865669
8.648165 -79.058197 7.917839
8.168121 -77.282509 7.859306
8.262234 -77.883598 7.887573
8.098431 -78.497986 7.843815
8.206177 -79.096931 7.895229
7.722624 -77.311768 7.841000
7.817669 -77.916100 7.868546
7.673809 -78.535080 7.861217
7.782682 -79.136681 7.911911
7.275219 -77.341606 7.827629
7.386700 -77.950325 7.880104
7.273878 -78.573853 7.925919
7.363077 -79.177025 7.941727
6.867996 -77.376106 7.887184
6.943829 -77.984314 7.879353
6.826002 -78.610970 7.918335
6.916077 -79.217392 7.933544
6.396206 -77.405006 7.849651
6.488655 -78.018127 7.866589
6.376341 -78.648651 7.915756
6.467287 -79.258324 7.930363
5.943680 -77.436523 7.851128
6.063932 -78.054657 7.909435
8.611975 -78.790451 12.086040
5.924948 -78.686905 7.918217
6.016760 -79.299835 7.932213
5.489456 -77.468605 7.857666
8.343416 -78.261185 12.098831
5.567192 -78.087189 7.848099
8.293823 -78.827957 12.220600
7.142197 -79.359238 10.348515
5.564550 -79.341904 7.939129
5.011400 -77.499367 7.836079
8.057932 -78.300072 12.285480
5.089790 -78.121788 7.825886
7.965315 -78.865280 12.341606
7.341927 -79.404755 11.295040
4.576139 -77.534462 7.886066
4.671928 -78.160576 7.900185
7.642956 -78.903023 12.474133
4.549631 -78.804710 7.939621
8.371578 -79.454430 13.434603
6.949160 -79.444214 11.342346
6.530348 -77.759636 11.389000
5.596941 -77.685608 10.042576
4.083000 -77.565529 7.858734
6.656784 -78.332092 11.457424
4.219444 -78.197906 7.929615
8.131531 -78.964989 13.775709
5.689377 -78.892601 10.261593
8.041618 -79.492050 13.539581
6.595421 -79.484322 11.451511
6.607227 -77.828606 12.113327
8.212484 -78.469879 14.282627
6.394621 -78.374184 11.699642
7.728239 -78.999199 13.776926
5.382759 -78.934563 10.463593
7.417894 -79.528900 13.231213
3.711159 -79.515724 7.977180
7.529171 -77.958076 13.993631
7.625790 -78.491226 14.023651
6.140778 -78.416534 11.952026
7.428629 -79.036613 13.928810
7.744240 -79.568748 14.263172
6.917484 -77.971786 13.719574
6.879772 -78.506371 13.562664
7.206959 -79.075996 14.188337
7.791498 -79.606590 14.883558
6.347189 -77.990005 13.517879
6.064493 -78.520470 13.032093
4.501938 -78.448967 10.930256
7.030045 -79.116196 14.505451
7.387760 -79.644150 14.883381
6.104095 -78.031372 13.761381
6.734627 -78.601654 14.490005
6.620737 -79.151497 14.513042
6.940090 -79.682388 14.832214
5.283895 -79.687729 12.649422
6.670343 -78.124374 15.050163
5.527309 -78.051163 13.571985
6.604437 -78.645607 14.864944
6.338524 -79.189621 14.691442
6.526571 -79.721130 14.834070
4.967674 -79.728653 12.816082
6.459848 -78.165466 15.313923
5.198915 -78.087646 13.712179
6.219854 -78.678970 14.909531
6.224930 -79.230545 15.084425
4.553625 -79.770386 12.860062
3.342022 -79.778137 11.319420
2.513681 -79.783440 10.266129
5.733543 -78.175629 14.931860
5.703314 -78.707901 14.794512
5.665548 -79.264618 14.915785
4.325502 -79.245552 13.247400
5.813379 -79.799316 15.000969
3.426067 -79.818268 12.018894
5.295782 -78.204323 14.924135
5.454237 -78.747284 15.019766
5.392664 -79.303337 15.110752
5.680624 -79.836830 15.365555
3.065426 -79.861534 12.156231
4.868874 -78.234337 14.937141
5.200912 -78.786461 15.239393
3.432775 -79.323936 13.278961
5.392801 -79.875732 15.537771
5.220905 -78.306198 15.878988
5.728914 -78.850166 16.386465
5.614296 -79.387970 16.408617
5.577044 -79.908943 16.270594
5.567875 -78.375191 16.789747
5.526676 -78.889313 16.649162
5.471563 -79.426613 16.740736
5.667881 -79.942261 16.876631
1.575747 -79.998741 12.113270
4.895378 -78.391960 16.511480
5.287773 -78.927254 16.868029
5.148151 -79.463890 16.862701
4.971025 -79.986664 16.568020
4.674957 -78.431534 16.757801
4.792000 -78.958496 16.797312
5.404390 -79.503922 17.637236
4.945015 -80.021255 17.031467
3.523960 -78.429237 15.976324
5.479521 -79.019234 18.046385
4.199772 -79.538437 16.784071
4.697004 -80.059303 17.241199
3.245283 -78.467789 16.175329
4.048571 -79.029144 16.955193
4.376810 -79.577591 17.462669
4.430460 -80.097778 17.431095
3.494802 -78.528038 16.938280
3.641981 -79.064377 17.004160
3.652540 -79.615761 17.167194
4.445711 -80.130600 17.922661
3.334480 -78.570335 17.253721
3.551439 -79.106178 17.391285
3.425991 -79.654518 17.409704
4.301947 -80.166306 18.238235
3.280590 -80.188606 17.167377
3.449348 -78.622559 17.849483
3.382193 -79.146088 17.691690
3.494694 -79.692314 17.955004
3.792702 -80.210289 18.173998
2.813568 -78.646751 17.673342
3.482891 -79.190048 18.263645
2.156477 -79.168983 16.917437
3.233059 -79.730789 18.156038
3.519337 -80.249283 18.358532
2.318027 -80.278519 17.141937
2.300406 -78.676437 17.633089
3.258789 -79.228279 18.499903
2.830976 -79.770195 18.218748
3.240156 -80.288589 18.538769
2.463844 -78.728745 18.263472
3.065395 -79.266869 18.766056
2.556902 -79.809158 18.412111
1.518738 -79.816788 17.399862
3.012180 -80.326706 18.770821
2.153040 -78.765213 18.425003
2.132933 -79.297020 18.318968
2.082024 -79.850006 18.414522
2.137590 -80.382965 18.381241
1.937534 -78.804634 18.679148
1.909622 -79.336182 18.566809
1.597904 -79.891609 18.416357
1.683084 -80.428566 18.410067
1.511810 -78.838226 18.737871
1.703196 -79.375443 18.830164
1.574120 -79.928696 18.852560
1.139135 -80.477455 18.363190
1.742668 -78.889206 19.401493
1.742781 -79.416298 19.317846
1.341265 -79.967911 19.092058
0.924629 -80.516769 18.627066
1.111595 -78.917976 19.278589
1.089594 -79.452637 19.174538
-1.476486 -80.043030 17.021236
0.340433 -80.568153 18.558966
-0.671909 -78.922020 18.153910
0.679216 -79.491135 19.259129
-0.004747 -80.059784 18.798653
-0.014549 -80.612671 18.703979
-1.198996 -78.957092 18.163815
0.064276 -79.529587 19.171953
-0.359196 -80.102211 18.947588
0.053986 -80.642838 19.219681
-1.094645 -80.682716 18.224964
-1.377710 -78.999779 18.478762
-0.622791 -79.568993 19.035152
-0.637007 -80.143623 19.165413
-0.038284 -80.678185 19.589699
-2.435820 -79.026382 18.057693
-1.084455 -79.609612 19.101061
-0.767336 -80.182426 19.507761
-2.986780 -80.818596 17.567780
-4.817564 -79.033348 16.574718
-1.153494 -79.650307 19.497223
-1.953892 -80.242073 18.982643
-3.408335 -80.271049 17.791782
-3.840441 -80.885399 17.346613
-1.785887 -79.128510 19.517962
-5.125460 -79.077820 16.825605
-1.793314 -79.692093 19.427277
-2.224600 -80.284683 19.222059
-3.837317 -80.318687 17.924799
-4.809187 -80.958031 17.050400
-6.893751 -81.039207 15.368023
-3.981409 -79.142410 18.228249
-5.651060 -79.119400 16.905891
-2.342661 -79.734573 19.441212
-5.646544 -79.747505 16.815834
-5.482386 -80.393822 17.102398
-5.198072 -81.009048 17.234758
-7.422392 -81.097954 15.471212
-6.919718 -79.152466 16.416035
-8.663927 -79.130829 15.059063
-8.411974 -79.806404 15.155584
-7.009794 -80.469437 16.410875
-4.088095 -80.999031 18.590670
-28.777822 -78.960686 0.220722
-28.603662 -79.983253 0.203960
-7.200033 -80.515213 16.774406
-4.521204 -81.051163 18.728844
-29.564707 -80.062019 0.279377
-30.649332 -80.143234 0.278992
-31.778765 -80.226524 0.264771
-32.782600 -80.310127 0.359764
-33.879425 -80.396278 0.405815
-35.153084 -80.486412 0.348701
-36.473831 -80.579208 0.282475
-36.958366 -80.660896 0.793400
-39.082436 -80.770393 0.241806
-40.478851 -80.870605 0.196819
29.529497 -79.623039 44.861454
29.610384 -79.622925 44.901138
29.562973 -79.621986 44.884068
29.626459 -79.622284 44.913795
29.598438 -79.624260 44.903034
29.588024 -79.621231 44.901337
29.570219 -79.626289 44.892754
29.614441 -79.620117 44.915699
29.633003 -79.622375 44.923542
29.586079 -79.621765 44.905788
29.604750 -79.624428 44.913437
29.621939 -79.620110 44.923576
29.640625 -79.622200 44.931110
29.584213 -79.622299 44.910271
29.566133 -79.627434 44.902325
29.611107 -79.621063 44.923706
29.592924 -79.625801 44.915955
29.591721 -79.622314 44.918434
29.610641 -79.624763 44.925449
29.628500 -79.623688 44.934631