# This PCD file was generated using the MATLAB® pcwrite function
# from Computer Vision System Toolbox®.
# .PCD v.7 - Point Cloud Data file format
VERSION .7
FIELDS x y z
SIZE 4 4 4
TYPE F F F
COUNT 1 1 1
WIDTH 763
HEIGHT 1
VIEWPOINT 0 0 0 1 0 0 0
POINTS 763
DATA ascii
-23.230541 -10.695380 -0.374105
-22.586637 -10.853219 -0.398893
-22.872614 -10.485361 -0.406622
-22.197786 -10.624146 -0.392702
-22.439278 -10.240588 -0.362976
-21.844513 -10.413415 -0.412750
-22.118254 -10.049543 -0.415993
-21.478745 -10.197306 -0.414135
-21.756742 -9.840218 -0.424847
-21.168133 -10.008916 -0.462749
-21.430443 -9.648081 -0.461115
-20.797977 -9.792169 -0.446453
-21.064419 -9.438200 -0.452351
-20.442614 -9.583415 -0.437824
-20.672989 -9.217421 -0.410912
-20.082052 -9.372930 -0.416832
-20.310062 -9.010688 -0.390499
-19.755732 -9.179728 -0.424597
-20.027988 -8.841820 -0.446854
-19.469463 -9.006416 -0.469038
-19.726656 -8.664709 -0.478308
-19.145123 -8.815476 -0.467237
-19.413069 -8.482652 -0.491316
-18.809216 -8.619735 -0.446381
-19.087568 -8.295887 -0.485531
-18.538166 -8.455471 -0.491657
-18.776150 -8.116191 -0.489069
-18.236176 -8.277121 -0.497091
-18.503981 -7.954753 -0.531029
-17.935236 -8.099903 -0.498043
-18.194513 -7.777223 -0.525690
-17.660135 -7.935414 -0.523771
-17.898752 -7.606465 -0.530359
-17.379627 -7.768950 -0.538172
-17.622627 -7.445019 -0.552771
-17.087833 -7.597829 -0.533670
-17.322678 -7.273680 -0.541597
-16.809216 -7.433417 -0.539871
-17.048334 -7.114209 -0.555914
-16.519611 -7.264538 -0.526987
-16.774834 -6.955681 -0.566334
-16.266712 -7.113085 -0.555466
-16.502214 -6.798115 -0.572880
-16.002687 -6.957054 -0.565128
-16.254236 -6.651724 -0.606129
-15.756930 -6.809839 -0.594202
-15.983278 -6.495991 -0.605213
-15.488734 -6.652973 -0.588861
-15.713320 -6.341279 -0.600489
-15.221576 -6.497148 -0.579746
-15.450158 -6.190040 -0.599783
-14.978035 -6.352439 -0.598347
-15.222185 -6.054144 -0.642563
-15.278316 -5.656855 -0.604654
-15.494381 -5.344868 -0.609190
-14.740726 -6.210972 -0.621565
-14.954991 -5.902297 -0.626984
-15.044382 -5.521215 -0.635082
-15.264939 -5.212803 -0.648035
-14.492953 -6.065338 -0.625647
-14.688944 -5.751544 -0.607685
-14.822176 -5.390560 -0.678379
-15.001668 -5.068967 -0.636156
-14.256941 -5.925376 -0.642406
-14.446207 -5.611010 -0.616755
-14.577952 -5.251851 -0.686716
-14.762032 -4.934231 -0.652731
-13.989146 -5.772006 -0.607552
-14.226112 -5.480239 -0.654829
-14.290396 -5.097190 -0.627195
-14.523041 -4.800237 -0.666159
-13.797543 -5.652311 -0.682753
-13.984676 -5.341193 -0.657614
-14.053658 -4.962514 -0.636772
-14.273685 -4.663130 -0.660229
-13.552842 -5.509969 -0.673859
-13.770826 -5.213781 -0.698006
-13.833810 -4.834662 -0.667768
-14.058038 -4.538328 -0.699947
-13.298658 -5.364092 -0.645216
-13.504280 -5.065656 -0.653543
-13.614342 -4.707360 -0.695967
-13.815646 -4.404716 -0.695919
-13.076702 -5.232522 -0.662762
-13.286320 -4.937506 -0.679787
-13.374192 -4.572874 -0.688286
-13.574141 -4.271986 -0.688713
-12.824671 -5.088656 -0.627495
-13.053264 -4.803814 -0.678320
-13.134961 -4.439286 -0.677454
-13.333554 -4.140155 -0.678352
-12.644542 -4.975584 -0.706017
-12.856809 -4.684928 -0.732327
-12.917285 -4.314037 -0.696962
-13.114789 -4.016176 -0.698263
-12.409242 -4.839698 -0.689852
-12.599729 -4.542839 -0.683090
-12.684832 -4.183945 -0.688488
-12.896510 -3.892799 -0.715435
-12.194616 -4.712893 -0.704445
-12.404008 -4.424999 -0.731812
-12.483423 -4.065362 -0.727779
-12.678744 -3.770038 -0.729879
-11.980523 -4.586713 -0.716333
-12.203391 -4.305581 -0.769684
-12.267288 -3.941962 -0.739115
-12.461516 -3.647907 -0.741611
-11.766986 -4.461171 -0.725523
-11.973770 -4.175550 -0.753868
-12.056623 -3.820897 -0.756302
-12.244851 -3.526417 -0.750643
-11.554030 -4.336277 -0.732033
-11.740303 -4.044623 -0.726513
-11.817391 -3.690497 -0.719332
-12.028776 -3.405581 -0.756992
-11.346350 -4.213919 -0.744518
-11.545850 -3.928700 -0.765181
-11.603285 -3.569227 -0.722452
-11.798788 -3.280945 -0.734808
-11.139174 -4.092152 -0.754440
-11.337497 -3.807989 -0.775520
-11.408663 -3.454913 -0.757647
-11.598493 -3.165922 -0.761703
-10.909827 -3.962045 -0.718168
-11.120449 -3.684545 -0.765873
-11.214196 -3.340960 -0.790546
-11.389050 -3.048530 -0.768799
-10.713006 -3.845202 -0.740334
-10.913301 -3.565137 -0.771030
-10.987828 -3.216978 -0.759811
-11.170866 -2.929029 -0.755863
-10.520916 -3.730525 -0.768951
-10.697765 -3.443185 -0.756065
-10.776116 -3.098294 -0.752642
-10.981035 -2.818263 -0.792969
-10.333381 -3.617901 -0.804157
-10.509583 -3.331300 -0.791460
-10.578498 -2.984544 -0.769419
-10.768690 -2.701402 -0.783747
-10.141665 -3.503970 -0.828299
-10.312798 -3.216727 -0.806919
-10.390020 -2.874001 -0.801628
-10.574922 -2.590235 -0.807421
-9.916476 -3.377809 -0.778753
-10.086402 -3.092432 -0.757633
-10.180070 -2.757200 -0.787060
-10.363858 -2.474694 -0.793219
-9.725808 -3.265044 -0.798098
-9.895079 -2.980568 -0.777138
-10.009212 -2.652640 -0.850592
-10.188175 -2.369151 -0.848026
-9.535430 -3.152709 -0.815224
-9.704048 -2.869135 -0.794416
-9.779368 -2.530828 -0.786310
-9.978215 -2.254806 -0.829060
-9.345364 -3.040815 -0.830132
-9.517413 -2.759475 -0.818508
-9.588128 -2.420940 -0.800459
-9.769108 -2.141245 -0.807575
-9.135885 -2.922319 -0.797441
-9.326958 -2.648890 -0.831404
-9.401279 -2.312656 -0.821474
-9.581480 -2.033613 -0.828867
-8.946838 -2.811548 -0.807775
-9.136851 -2.538766 -0.842100
-9.222628 -2.206962 -0.858578
-9.402182 -1.928330 -0.866209
-8.761974 -2.702573 -0.825075
-8.943231 -2.427907 -0.841476
-9.020441 -2.095110 -0.838869
-9.214881 -1.821382 -0.883326
-8.573621 -2.592711 -0.831091
-8.742506 -2.315289 -0.820265
-8.842156 -1.990118 -0.871822
-9.020005 -1.713033 -0.880024
-8.381999 -2.482099 -0.825727
-8.568825 -2.211251 -0.861118
-8.637411 -1.878524 -0.838371
-8.829530 -1.606120 -0.883677
-8.208986 -2.378055 -0.864399
-8.380311 -2.103065 -0.863136
-8.463349 -1.775250 -0.876417
-8.639486 -1.499709 -0.885172
-8.025251 -2.270716 -0.873344
-8.206680 -1.999521 -0.900085
-8.289190 -1.672145 -0.912577
-8.464742 -1.396892 -0.921543
-7.834902 -2.161587 -0.861597
-8.018801 -1.892189 -0.897953
-8.086356 -1.562434 -0.872446
-8.260777 -1.288435 -0.881750
-7.662181 -2.058409 -0.894388
-7.827932 -1.784437 -0.884367
-7.912607 -1.460037 -0.904604
-8.100728 -1.189060 -0.951368
-7.466085 -1.948251 -0.859699
-7.654710 -1.681826 -0.915415
-7.738807 -1.357834 -0.934893
-7.912050 -1.084409 -0.944595
-7.306806 -1.849691 -0.926161
-7.471454 -1.576832 -0.916426
-7.551517 -1.252962 -0.925756
-7.723896 -0.980306 -0.935720
-7.130987 -1.746302 -0.943846
-7.295115 -1.473941 -0.934240
-7.348299 -1.145274 -0.867445
-7.522835 -0.874545 -0.887148
-6.945937 -1.640533 -0.931242
-7.112529 -1.369805 -0.931253
-7.178586 -1.044901 -0.901236
-7.349235 -0.773783 -0.911707
-6.761459 -1.535336 -0.916574
-6.936613 -1.267613 -0.945196
-6.992983 -0.941730 -0.885870
-7.162764 -0.671380 -0.896595
-6.577572 -1.430719 -0.899857
-6.751715 -1.163681 -0.928745
-6.820307 -0.841321 -0.906450
-6.989491 -0.571256 -0.917356
-6.394294 -1.326691 -0.881096
-6.579334 -1.062910 -0.948347
-6.647677 -0.741156 -0.925192
-6.803949 -0.469856 -0.898254
-6.220153 -1.225421 -0.888990
-6.392477 -0.959389 -0.918369
-6.463352 -0.639416 -0.903912
-6.631068 -0.370403 -0.915243
-6.051756 -1.125849 -0.914188
-6.220578 -0.859342 -0.934189
-6.294014 -0.540353 -0.928474
-6.458262 -0.271210 -0.930407
-5.883303 -1.026455 -0.937622
-6.048763 -0.759560 -0.948187
-6.119033 -0.440731 -0.932074
-6.274094 -0.171290 -0.905436
-5.691212 -0.921941 -0.872597
-5.850141 -0.655362 -0.864170
-5.936133 -0.340495 -0.904964
-6.104565 -0.073022 -0.926468
-5.528435 -0.824410 -0.911610
-5.700211 -0.559971 -0.951456
-5.764538 -0.242023 -0.914425
-5.932294 0.025211 -0.936115
-5.357924 -0.725399 -0.919926
-5.516154 -0.459210 -0.911667
-5.603393 -0.144797 -0.960720
-5.757513 0.123269 -0.934313
-5.187558 -0.626684 -0.926447
-5.337915 -0.359859 -0.889240
-5.431795 -0.046742 -0.966665
-5.585601 0.220867 -0.940334
-5.024347 -0.529516 -0.960327
-5.181878 -0.263718 -0.952232
-5.250632 0.051611 -0.932020
-5.423859 0.318036 -0.983290
-4.849580 -0.430544 -0.943869
-5.020483 -0.166862 -0.994225
-5.089111 0.148440 -0.973181
-5.251999 0.415186 -0.985804
-4.675295 -0.332065 -0.925556
-4.842912 -0.068532 -0.966398
-4.920339 0.245487 -0.983496
-5.070915 0.511785 -0.947657
-4.507842 -0.234937 -0.934711
-4.670344 0.028884 -0.956205
-4.747204 0.342331 -0.972567
-4.899751 0.608108 -0.946535
-4.344535 -0.138533 -0.961710
-4.500247 0.125761 -0.953983
-4.576579 0.438774 -0.969603
-4.737641 0.704673 -0.982656
-4.175126 -0.041622 -0.957638
-4.338517 0.221998 -0.989162
-4.406191 0.534872 -0.964874
-4.577311 0.801433 -1.026905
-4.013525 0.054336 -0.991083
-4.168602 0.318360 -0.983482
-4.238046 0.630730 -0.968189
-4.406193 0.897116 -1.020626
-3.838874 0.151041 -0.954065
-3.998946 0.414366 -0.976049
-4.075771 0.726784 -0.999220
-4.233355 0.992163 -1.002794
-3.677140 0.246674 -0.984146
-3.836809 0.510238 -1.006205
-3.913182 0.822822 -1.028610
-4.072412 1.088679 -1.042044
-3.510094 0.342348 -0.983017
-3.669153 0.605787 -1.005184
-3.743217 0.917863 -1.017008
-3.892647 1.181616 -0.981447
-3.346388 0.437779 -0.999922
-3.501649 0.701046 -1.002449
-3.573558 1.012522 -1.003664
-3.731560 1.277814 -1.017342
-3.176474 0.532818 -0.975637
-3.337487 0.796385 -1.017752
-3.410698 1.108118 -1.028040
-3.568359 1.373610 -1.041767
-3.009925 0.627600 -0.969398
-3.167150 0.890666 -0.991863
-3.233671 1.200293 -0.961924
-3.398442 1.467379 -1.025126
-2.847680 0.722538 -0.991179
-3.005938 0.986117 -1.023594
-3.076851 1.297073 -1.022461
-3.235024 1.562902 -1.046227
-2.683896 0.817222 -1.001415
-2.836148 1.079681 -0.994295
-2.913614 1.392294 -1.041866
-3.069905 1.657783 -1.055807
-2.521251 0.911998 -1.019920
-2.673321 1.174563 -1.012821
-2.744871 1.485422 -1.020035
-2.088349 1.383916 4.747648
-2.894992 1.748122 -0.994545
-2.354954 1.005844 -1.007002
-2.510276 1.269374 -1.029713
-2.582740 1.580877 -1.046036
-1.981735 1.460182 4.636945
-2.738139 1.846405 -1.060097
-2.192110 1.100341 -1.022215
-2.347025 1.364109 -1.044966
-2.413241 1.672777 -1.010927
-2.574143 1.941472 -1.074587
-2.028079 1.194381 -1.025852
-2.180390 1.457275 -1.028784
-2.246497 1.765427 -0.993958
-2.409959 2.036451 -1.087433
-1.864936 1.288659 -1.037790
-2.019952 1.553317 -1.070551
-2.086142 1.861804 -1.034863
-1.735721 1.755530 3.548401
-2.245600 2.131334 -1.098629
-1.701625 1.382839 -1.048092
-1.853420 1.646031 -1.051062
-1.919513 1.953995 -1.014584
-2.081076 2.226115 -1.108179
-1.535855 1.475400 -1.026886
-1.689695 1.740254 -1.059742
-1.755789 2.048119 -1.022440
-1.912658 2.317232 -1.076416
-1.371779 1.568683 -1.023943
-1.522020 1.831020 -1.017036
-1.591137 2.141315 -1.018723
-1.751591 2.415337 -1.122334
-1.205874 1.659985 -0.989471
-1.355657 1.921944 -0.982620
-1.430807 2.239427 -1.072983
-1.211541 2.043735 3.615480
-1.582729 2.504891 -1.077328
-1.046947 1.758429 -1.072929
-1.195268 2.019193 -1.036127
-1.263845 2.329761 -1.036169
-1.090496 2.128546 3.504026
-1.421602 2.604062 -1.129889
-0.882980 1.852008 -1.075043
-1.033480 2.115942 -1.078054
-1.099647 2.423375 -1.037464
-1.253285 2.692912 -1.081573
-0.717753 1.943283 -1.045618
-0.867329 2.206160 -1.038713
-0.937316 2.520780 -1.076876
-1.091211 2.792231 -1.130842
-0.554780 2.038735 -1.074352
-0.704761 2.302964 -1.077362
-0.772239 2.613242 -1.064947
-0.923489 2.880351 -1.079235
-0.390808 2.132675 -1.081514
-0.541210 2.399028 -1.104410
-0.609274 2.711879 -1.111000
-0.760519 2.979787 -1.125198
-0.227112 2.229089 -1.116917
-0.375766 2.489362 -1.070105
-0.443932 2.804099 -1.095778
-0.595091 3.073317 -1.119900
-0.062424 2.322104 -1.110825
-0.211815 2.586365 -1.103804
-0.278890 2.897216 -1.088848
-0.429626 3.166673 -1.112953
0.102296 2.414941 -1.103086
-0.046832 2.678249 -1.086115
-0.114260 2.994946 -1.119986
-0.263958 3.258527 -1.094446
0.266704 2.502702 -1.043953
0.118024 2.766566 -1.036976
0.051123 3.087864 -1.109749
-0.099040 3.358279 -1.133739
0.431779 2.600056 -1.082693
0.282941 2.864627 -1.075644
0.216506 3.180586 -1.097864
0.066766 3.451238 -1.121824
0.596518 2.692319 -1.070040
0.449059 2.966470 -1.142401
0.381876 3.273105 -1.084337
0.232760 3.549782 -1.147842
0.762120 2.787694 -1.085545
0.615472 3.063878 -1.167725
0.548000 3.370890 -1.108780
0.398831 3.642497 -1.132603
0.928885 2.885408 -1.119226
0.782159 3.160141 -1.181429
0.714693 3.468796 -1.131519
0.564865 3.734994 -1.115713
1.094582 2.978562 -1.111511
0.948125 3.252503 -1.163719
0.882289 3.568269 -1.162432
0.731959 3.833562 -1.136658
1.261939 3.075271 -1.131866
1.113128 3.341928 -1.124567
1.048469 3.660453 -1.142214
0.897829 3.924155 -1.106573
1.429236 3.170807 -1.140608
1.280403 3.437929 -1.133244
1.214572 3.752398 -1.120348
1.067765 4.031003 -1.173382
1.594885 3.262402 -1.117975
1.446236 3.529626 -1.110588
1.380587 3.844097 -1.096834
1.233924 4.121361 -1.139933
1.760439 3.353748 -1.093699
1.611974 3.621074 -1.086283
1.548449 3.940406 -1.101213
1.403316 4.221830 -1.163837
1.926711 3.446239 -1.077648
1.782899 3.722914 -1.129318
1.718103 4.040030 -1.123545
1.570066 4.313538 -1.136881
2.098418 3.547200 -1.119062
1.948939 3.814132 -1.101645
1.890790 4.144914 -1.173567
1.738887 4.410452 -1.137690
2.267144 3.642538 -1.119287
2.122107 3.917914 -1.150959
2.057532 4.236220 -1.143265
1.905596 4.501740 -1.107393
2.433024 3.733272 -1.088306
2.293388 4.017142 -1.168961
2.226979 4.332604 -1.140688
2.076570 4.602282 -1.124331
2.599872 3.825287 -1.065500
2.459972 4.108062 -1.136169
2.398767 4.432600 -1.155933
2.250050 4.706841 -1.158993
2.779928 3.934767 -1.148787
2.630920 4.205600 -1.140869
2.565614 4.523364 -1.120567
2.421303 4.805709 -1.162550
2.956496 4.038339 -1.190922
2.802285 4.303164 -1.143797
2.740519 4.627192 -1.151764
2.594076 4.906628 -1.174049
3.123245 4.128747 -1.153040
2.979193 4.407985 -1.183947
2.912512 4.725427 -1.151890
2.766211 5.005570 -1.174013
3.291211 4.220570 -1.123255
3.147574 4.500190 -1.154037
3.086215 4.825657 -1.159935
2.938728 5.104517 -1.172184
3.469625 4.324537 -1.159882
3.324489 4.603497 -1.180731
3.259034 4.923933 -1.156452
3.115617 5.209914 -1.197573
3.641112 4.419771 -1.146025
3.496177 4.699313 -1.166731
3.432207 5.022196 -1.151165
3.289081 5.308963 -1.192072
3.801226 4.501958 -1.062592
3.658556 4.783205 -1.092911
3.616594 5.135223 -1.211622
3.462884 5.407990 -1.184755
3.981211 4.606162 -1.093681
3.830178 4.878579 -1.075499
3.784446 5.225107 -1.164047
3.637013 5.506986 -1.175621
4.167521 4.716443 -1.151731
4.031448 5.008710 -1.220072
3.965632 5.332167 -1.191679
3.811453 5.605941 -1.164658
4.343919 4.815421 -1.149916
4.201048 5.100344 -1.179523
4.142380 5.432802 -1.188547
3.993021 5.714255 -1.190138
4.518806 4.912416 -1.136631
4.368610 5.189557 -1.127689
4.315857 5.528917 -1.164413
4.168338 5.813262 -1.175417
4.710171 5.025743 -1.198122
4.559336 5.304432 -1.188974
4.499080 5.636438 -1.186172
4.353201 5.924355 -1.206457
4.877792 5.114571 -1.142771
4.743385 5.411030 -1.209875
4.675152 5.734800 -1.167835
4.535197 6.030824 -1.216408
5.064626 5.222152 -1.171513
4.919852 5.508868 -1.190674
4.861826 5.845020 -1.195084
4.719877 6.139950 -1.233818
5.247936 5.325702 -1.179148
5.103086 5.613478 -1.198080
5.045167 5.950678 -1.201290
4.897058 6.239102 -1.211380
5.434225 5.431592 -1.194244
5.282473 5.713571 -1.184547
5.222497 6.049069 -1.177170
5.074446 6.338150 -1.187075
5.623696 5.539927 -1.216707
5.478485 5.830184 -1.235132
5.420659 6.169884 -1.235832
5.278715 6.468575 -1.273571
5.809152 5.643967 -1.218185
5.656666 5.928072 -1.208151
5.596652 6.265842 -1.198336
5.448160 6.557195 -1.207727
5.990136 5.743471 -1.198835
5.844903 6.035597 -1.216801
5.797051 6.387397 -1.252499
5.636142 6.666982 -1.214884
6.187098 5.857059 -1.233709
6.036422 6.145769 -1.232681
5.986347 6.496400 -1.257645
5.834622 6.787883 -1.257122
6.369102 5.956661 -1.210299
6.223571 6.251139 -1.227737
6.173768 6.602896 -1.251360
6.014270 6.887026 -1.222803
6.545861 6.051317 -1.166332
6.392451 6.338702 -1.155703
6.367051 6.714843 -1.261499
6.214732 7.008515 -1.260500
6.745222 6.165495 -1.194672
6.607810 6.469853 -1.239361
6.544777 6.810606 -1.214066
6.405806 7.119026 -1.258949
6.951487 6.285036 -1.239130
6.796796 6.575512 -1.228046
6.747650 6.931025 -1.247509
6.597534 7.229651 -1.255219
7.144252 6.392336 -1.235083
7.003721 6.697201 -1.269766
6.951735 7.051843 -1.278505
6.792704 7.343303 -1.258440
7.352875 6.512642 -1.274691
7.194129 6.803144 -1.254023
7.145236 7.161680 -1.270535
7.005885 7.474888 -1.314047
7.534774 6.609842 -1.229551
7.388054 6.911838 -1.245268
7.339339 7.271597 -1.260355
7.188257 7.574087 -1.267147
7.739013 6.725404 -1.246178
7.598171 7.034482 -1.279739
7.534025 7.381583 -1.247953
7.382710 7.685197 -1.254459
7.960546 6.854698 -1.305691
7.803191 7.151928 -1.293530
7.741903 7.503423 -1.269398
7.590077 7.808642 -1.275545
8.160461 6.965536 -1.299204
8.002669 7.263947 -1.286839
7.950891 7.625594 -1.288309
7.798553 7.932417 -1.294094
8.340652 7.059914 -1.236460
8.182831 7.358777 -1.223963
8.147775 7.735997 -1.268890
8.008116 8.056506 -1.310089
8.565770 7.190325 -1.288212
8.424043 7.505807 -1.320120
8.372110 7.870870 -1.318455
8.218742 8.180895 -1.323511
8.781885 7.312818 -1.310350
8.622436 7.615372 -1.297300
8.570543 7.981578 -1.294186
8.416936 8.292723 -1.298943
8.963078 7.406990 -1.241079
8.821306 7.724937 -1.272202
8.783472 8.104785 -1.302942
8.643099 8.430515 -1.342569
9.210256 7.553038 -1.328938
9.049520 7.858676 -1.315388
9.011707 8.240893 -1.344227
8.856785 8.555716 -1.348171
9.392203 7.647104 -1.255159
9.264556 7.980712 -1.320501
9.212306 8.351956 -1.312582
9.071444 8.681157 -1.351131
9.642585 7.794263 -1.337030
9.491805 8.112260 -1.349197
9.428164 8.475892 -1.313431
9.290699 8.810174 -1.360125
9.844632 7.903196 -1.302263
9.712774 8.237981 -1.357582
9.660085 8.613094 -1.346264
9.503592 8.932700 -1.349068
10.078685 8.036373 -1.334507
9.927026 8.357654 -1.345905
9.862649 8.724384 -1.307117
9.721034 9.058772 -1.344011
10.294070 8.154651 -1.320595
10.149944 8.483836 -1.348841
10.108660 8.872226 -1.359949
9.954754 9.198828 -1.370491
10.534728 8.291668 -1.355555
10.381913 8.616714 -1.366121
10.316611 8.987060 -1.324133
10.174204 9.325377 -1.359833
10.739500 8.400931 -1.310524
10.574245 8.717349 -1.295172
10.569584 9.139212 -1.379210
10.410420 9.466141 -1.380325
10.995242 8.548130 -1.365019
10.824642 8.863765 -1.340820
10.791472 9.264584 -1.363279
10.615571 9.578902 -1.330296
11.235692 8.683165 -1.382252
11.068327 9.004114 -1.366213
11.030891 9.403921 -1.378166
10.870382 9.734504 -1.378422
11.477446 8.818568 -1.396347
11.304873 9.138183 -1.371603
11.254586 9.529639 -1.356506
11.110275 9.876265 -1.389688
11.698360 8.937982 -1.365520
11.551273 9.279317 -1.390602
11.513569 9.683652 -1.398455
11.347178 10.014718 -1.389494
11.946798 9.077209 -1.381819
11.772525 9.400319 -1.356575
11.734842 9.806219 -1.362553
11.576546 10.146071 -1.369720
12.173816 9.200157 -1.353542
12.016775 9.538582 -1.361044
11.978915 9.946720 -1.364944
11.833007 10.299791 -1.396154
12.433839 9.346688 -1.379887
12.262212 9.677139 -1.362293
12.246739 10.105605 -1.404875
12.077692 10.442760 -1.394638
12.681359 9.483501 -1.378225
12.527276 9.830033 -1.392885
12.470555 10.228554 -1.360003
12.328028 10.589761 -1.397953
12.930011 9.620571 -1.373308
12.775266 9.969246 -1.387432
12.759858 10.402983 -1.425125
12.611625 10.763677 -1.454161
13.179764 9.757878 -1.365110
13.043330 10.122997 -1.410873
13.023149 10.555911 -1.438013
12.855578 10.903814 -1.434364
13.411084 9.881463 -1.321596
13.255273 10.233932 -1.334698
13.254467 10.683029 -1.391611
13.086345 11.032505 -1.387541
13.721969 10.061243 -1.402431
13.564676 10.417306 -1.414831
13.544315 10.855352 -1.437088
13.374804 11.207840 -1.432398
13.970345 10.195836 -1.375967
13.817382 10.557580 -1.395720
13.796979 10.997903 -1.415592
13.626633 11.352441 -1.410414
14.270222 10.366262 -1.424725
14.111041 10.727569 -1.435919
14.070435 11.155915 -1.421892
13.918533 11.528783 -1.447266
14.526017 10.504926 -1.399000
14.386397 10.883260 -1.440760
14.345310 11.314281 -1.424368
14.192540 11.689793 -1.448967
14.824238 10.672753 -1.431791
14.658037 11.035541 -1.434042
14.621569 11.472978 -1.422997
14.442857 11.831092 -1.408474
15.056059 10.793552 -1.360401
14.915371 11.176741 -1.400557
14.919755 11.647644 -1.448265
14.764956 12.028913 -1.471237
15.357167 10.962087 -1.385302
15.215498 11.348485 -1.424559
15.198914 11.807041 -1.438900
15.043234 12.190946 -1.461082
15.686917 11.149695 -1.443712
15.496185 11.505376 -1.413973
15.500407 11.982581 -1.455681
15.364350 12.385964 -1.507010
15.970120 11.304363 -1.429550
15.804953 11.681839 -1.436975
15.803617 12.158576 -1.468065
15.645606 12.548700 -1.488533
16.271017 11.470566 -1.433813
16.131811 11.870475 -1.477789
16.086952 12.318889 -1.446413
15.949313 12.728225 -1.495625
16.551243 11.621941 -1.404160
16.411442 12.024469 -1.447218
16.393223 12.495598 -1.450146
16.233145 12.891453 -1.468946
16.888601 11.811678 -1.444046
16.725348 12.202255 -1.456739
16.739609 12.701233 -1.500397
16.583296 13.105228 -1.525478
17.199772 11.982789 -1.442448
17.029737 12.372511 -1.447115
17.010481 12.850100 -1.444153
16.842548 13.247928 -1.453989
17.535376 12.169737 -1.465227
17.363834 12.563031 -1.469141
17.360723 13.056756 -1.484524
17.202156 13.466997 -1.507730
17.849785 12.341587 -1.454340
17.699871 12.754061 -1.486143
17.673481 13.234958 -1.469759
17.513779 13.648315 -1.492020
18.188997 12.529420 -1.467295
18.014700 12.929370 -1.469734
18.010586 13.430144 -1.478580
17.843798 13.842794 -1.492802
18.506458 12.701891 -1.447006
18.330917 13.104921 -1.448730
18.349504 13.625758 -1.482302
18.204126 14.059283 -1.523436
18.866959 12.902421 -1.470949
18.689693 13.309381 -1.471867
18.690191 13.821767 -1.480888
18.543552 14.258952 -1.520811
19.211502 13.091473 -1.468636
19.056494 13.518492 -1.496391
19.079819 14.052186 -1.529177
18.884686 14.458980 -1.513021
19.425430 13.728145 -1.515236
19.424320 14.249076 -1.516903
19.274588 14.694532 -1.554268
19.794487 14.463476 -1.526333
19.613476 14.890943 -1.528831
20.160576 14.673997 -1.523327
20.007790 15.127585 -1.558126
20.559097 14.906633 -1.547668
20.325785 15.306709 -1.495478
20.947573 15.131080 -1.552582
20.785114 15.589129 -1.578165
21.300701 15.329578 -1.512543
0.346792 0.541444 20.272211
0.262251 0.486094 20.354092
0.298458 0.506887 20.326048
0.277320 0.496256 20.344831
0.297921 0.510672 20.328318
0.307735 0.512520 20.323761
0.286227 0.501888 20.342146
0.274324 0.493016 20.355709
0.310469 0.513613 20.327662
0.301895 0.512266 20.333939
0.284888 0.495742 20.352787
0.269884 0.489177 20.364708
0.340264 0.533144 20.308737
0.324604 0.527500 20.320639
0.273505 0.487354 20.367489
0.305746 0.513777 20.339670
0.281401 0.492405 20.363489
0.259381 0.480834 20.380526
0.280847 0.495565 20.365501