# This PCD file was generated using the MATLAB® pcwrite function
# from Computer Vision System Toolbox®.
# .PCD v.7 - Point Cloud Data file format
VERSION .7
FIELDS x y z
SIZE 4 4 4
TYPE F F F
COUNT 1 1 1
WIDTH 773
HEIGHT 1
VIEWPOINT 0 0 0 1 0 0 0
POINTS 773
DATA ascii
-0.225897 -0.435721 -0.233360
-0.278504 -0.437277 -0.270776
-0.257922 -0.452642 -0.283466
-0.290514 -0.442544 -0.301801
-0.262886 -0.454457 -0.308066
-0.235422 -0.412072 -0.267661
-0.202035 -0.419720 -0.266647
-0.247160 -0.417183 -0.298646
-0.167889 -0.399875 -0.250836
-0.205908 -0.394169 -0.276510
-0.140506 -0.383819 -0.241174
-0.223808 -0.402514 -0.314325
-0.100523 -0.360837 -0.217416
-0.189402 -0.383190 -0.298113
-0.099102 -0.359188 -0.234200
-0.200308 -0.387798 -0.329395
-0.034436 -0.322695 -0.181632
-0.121537 -0.345207 -0.263901
-0.089469 -0.352131 -0.260896
-0.189327 -0.379683 -0.357845
-0.062746 -0.336570 -0.249488
-0.054979 -0.308134 -0.227344
-0.017799 -0.311058 -0.216251
-0.096895 -0.328978 -0.293630
-0.028310 -0.315962 -0.246876
-0.088528 -0.323490 -0.303367
-0.056577 -0.330535 -0.299520
-0.055609 -0.305228 -0.284056
-0.012200 -0.305427 -0.265123
-0.047304 -0.299802 -0.293378
0.031605 -0.280703 -0.229928
-0.056963 -0.303682 -0.324692
0.027738 -0.281955 -0.253336
-0.048351 -0.298078 -0.334016
0.070812 -0.257727 -0.217037
-0.016054 -0.280264 -0.313347
0.095961 -0.243276 -0.202583
0.010027 -0.265707 -0.299661
0.075070 -0.253740 -0.248479
-0.004705 -0.272132 -0.338677
0.105789 -0.236314 -0.225981
0.049919 -0.243009 -0.286295
0.124902 -0.225185 -0.218371
0.052586 -0.240526 -0.302252
0.166057 -0.202243 -0.179403
0.072302 -0.229350 -0.294960
0.124160 -0.223897 -0.256975
0.058456 -0.235243 -0.334236
0.143168 -0.212863 -0.248843
0.089201 -0.218500 -0.310925
0.145866 -0.210562 -0.264191
0.097745 -0.213029 -0.318776
0.201945 -0.179818 -0.199775
0.149484 -0.185815 -0.262758
0.214927 -0.172093 -0.198580
0.152345 -0.183262 -0.278038
0.212237 -0.172694 -0.221450
0.165929 -0.175328 -0.277184
0.139070 -0.165938 -0.312052
0.156104 -0.136747 -0.270309
0.230410 -0.162236 -0.211910
0.189877 -0.162242 -0.259887
0.164377 -0.131488 -0.277299
0.233147 -0.159951 -0.226639
0.182598 -0.164732 -0.291268
0.156276 -0.155009 -0.326453
0.151654 -0.135410 -0.316946
0.246100 -0.152277 -0.224919
0.206294 -0.151822 -0.273498
0.180362 -0.142351 -0.308787
0.181087 -0.120891 -0.291022
0.244099 -0.152472 -0.247866
0.214583 -0.146573 -0.280177
0.173707 -0.143972 -0.340497
0.189522 -0.115554 -0.297753
0.261993 -0.142222 -0.237601
0.222924 -0.141300 -0.286769
0.198011 -0.110191 -0.304398
0.265176 -0.139686 -0.252198
0.231317 -0.136001 -0.293275
0.225994 -0.116957 -0.295457
0.201534 -0.106950 -0.319334
0.287636 -0.127094 -0.233103
0.239761 -0.130679 -0.299695
0.254008 -0.102708 -0.268090
0.239920 -0.088854 -0.275291
0.314484 -0.112266 -0.205171
0.248256 -0.125332 -0.306028
0.262277 -0.097508 -0.274194
0.243358 -0.085683 -0.289913
0.331574 -0.102552 -0.193827
0.261523 -0.117673 -0.303760
0.270594 -0.092284 -0.280212
0.222822 -0.092553 -0.347131
0.311757 -0.111935 -0.250731
0.265395 -0.114569 -0.318429
0.260171 -0.095478 -0.320435
0.241225 -0.083013 -0.336295
0.347033 -0.092857 -0.204791
0.278633 -0.106943 -0.315895
0.287371 -0.081772 -0.291992
0.297042 -0.058018 -0.256332
0.332528 -0.099431 -0.253416
0.282728 -0.103715 -0.330476
0.295829 -0.076483 -0.297752
0.295965 -0.056708 -0.279218
0.353873 -0.087583 -0.232827
0.313800 -0.087605 -0.292918
0.322351 -0.063215 -0.268611
0.290616 -0.057086 -0.310886
0.361881 -0.082587 -0.238114
0.317859 -0.084415 -0.307236
0.308441 -0.067792 -0.317755
0.317265 -0.044403 -0.281567
0.412594 -0.055877 -0.155517
0.348117 -0.068828 -0.268906
0.356472 -0.045224 -0.244208
0.325660 -0.039175 -0.286938
0.394826 -0.064021 -0.213154
0.335045 -0.073714 -0.318231
0.347348 -0.047650 -0.284602
0.347235 -0.028687 -0.265766
0.419237 -0.050779 -0.182581
0.381561 -0.050622 -0.243889
0.355764 -0.042424 -0.289761
0.342579 -0.028662 -0.297421
0.382116 -0.068554 -0.285140
0.352403 -0.062935 -0.328871
0.360044 -0.038965 -0.303742
0.351101 -0.023377 -0.302532
0.402536 -0.057323 -0.263305
0.377443 -0.049972 -0.298315
0.372719 -0.031916 -0.299819
0.342941 -0.024571 -0.343307
0.414723 -0.050252 -0.259111
0.373937 -0.050235 -0.330179
0.389346 -0.023228 -0.286746
0.368266 -0.012754 -0.312491
0.426814 -0.043247 -0.254757
0.394518 -0.039412 -0.308112
0.389833 -0.021338 -0.309528
0.360721 -0.013582 -0.353393
0.450217 -0.030662 -0.223079
0.422482 -0.025295 -0.267632
0.394538 -0.017645 -0.323311
0.385589 -0.002061 -0.322097
0.443233 -0.033119 -0.263758
0.411748 -0.028783 -0.317557
0.422471 -0.004377 -0.282500
0.409955 0.009144 -0.290420
0.502844 -0.002846 -0.140346
0.450328 -0.010014 -0.249173
0.427115 -0.000734 -0.296035
0.414596 0.012948 -0.303980
0.488592 -0.008872 -0.199120
0.429127 -0.018090 -0.326648
0.439343 0.005998 -0.291221
0.426960 0.019600 -0.299209
0.499910 -0.002375 -0.193851
0.455883 -0.004745 -0.285103
0.458746 0.015568 -0.267850
0.431808 0.023518 -0.312664
0.493808 -0.004315 -0.234590
0.446651 -0.007335 -0.335382
0.456354 0.016431 -0.299596
0.444104 0.030115 -0.307650
0.518833 0.008775 -0.192138
0.486649 0.011661 -0.256291
0.475411 0.025776 -0.275852
0.463437 0.039139 -0.283966
0.499976 0.000801 -0.270132
0.477897 0.009352 -0.306595
0.487223 0.032227 -0.270426
0.461383 0.040686 -0.315738
0.514812 0.008981 -0.255274
0.489828 0.016036 -0.301198
0.492203 0.036037 -0.283512
0.483796 0.050646 -0.282367
0.503914 0.004973 -0.315078
0.482112 0.014346 -0.351770
0.503938 0.042428 -0.277853
0.492237 0.055795 -0.286068
0.531275 0.019022 -0.262492
0.506992 0.026504 -0.308723
0.493010 0.040352 -0.337781
0.490834 0.057720 -0.317825
0.533459 0.021223 -0.284811
0.512503 0.030459 -0.321766
0.520772 0.052677 -0.284937
0.505987 0.065091 -0.302620
0.547854 0.029109 -0.269372
0.524277 0.037021 -0.315896
0.526151 0.056704 -0.297798
0.517737 0.071310 -0.296651
0.567805 0.039500 -0.234783
0.521061 0.037446 -0.357229
0.537720 0.062970 -0.291677
0.513975 0.072704 -0.337870
0.564544 0.039239 -0.275913
0.541677 0.047582 -0.322716
0.555053 0.071215 -0.266408
0.543905 0.084428 -0.274791
0.578454 0.046813 -0.259997
0.547585 0.051752 -0.335516
0.554777 0.073304 -0.298070
0.543490 0.086922 -0.306450
0.581339 0.049409 -0.282113
0.559187 0.058185 -0.329180
0.560548 0.077545 -0.310691
0.552127 0.092146 -0.309541
0.595015 0.056829 -0.265924
0.565292 0.062461 -0.341853
0.582838 0.087269 -0.265797
0.571969 0.100489 -0.274264
0.618623 0.068553 -0.211130
0.597756 0.076801 -0.258492
0.577902 0.088022 -0.316610
0.566755 0.101887 -0.325053
0.606719 0.064732 -0.290770
0.583101 0.073207 -0.347828
0.599522 0.097330 -0.271302
0.588793 0.110634 -0.279815
0.629653 0.076039 -0.235572
0.604418 0.083143 -0.302449
0.605389 0.101604 -0.283576
0.586925 0.113130 -0.321022
0.628420 0.076962 -0.276761
0.601008 0.083987 -0.353440
0.616295 0.107421 -0.276466
0.605708 0.120811 -0.285023
0.654905 0.089561 -0.201693
0.612326 0.090211 -0.346419
0.622350 0.111797 -0.288613
0.602029 0.123110 -0.335913
0.645255 0.087073 -0.281668
0.619006 0.094797 -0.358686
0.633154 0.117541 -0.281289
0.622708 0.131015 -0.289886
0.670616 0.098986 -0.206102
0.638963 0.103891 -0.312519
0.639395 0.122017 -0.293304
0.622087 0.134236 -0.331081
0.670335 0.100458 -0.247210
0.639204 0.106326 -0.353816
0.650092 0.127685 -0.285768
0.628714 0.139100 -0.343114
0.666720 0.100748 -0.307934
0.648204 0.111710 -0.356100
0.656517 0.132259 -0.297648
0.646216 0.145983 -0.306292
0.682951 0.108817 -0.270868
0.663120 0.118913 -0.328933
0.667105 0.137850 -0.289902
0.656945 0.151496 -0.298573
0.684041 0.111092 -0.312051
0.673829 0.124736 -0.321178
0.681413 0.144194 -0.262428
0.663555 0.156331 -0.310321
0.699718 0.118819 -0.274676
0.680773 0.129444 -0.332941
0.684187 0.148034 -0.293691
0.674171 0.161766 -0.302393
0.706453 0.123233 -0.286293
0.691370 0.135188 -0.324976
0.683864 0.151481 -0.344631
0.675419 0.166068 -0.343475
0.718150 0.129386 -0.268287
0.693483 0.138705 -0.366142
0.708147 0.159378 -0.257734
0.698556 0.172714 -0.266503
0.738723 0.138397 -0.190918
0.708975 0.145655 -0.328417
0.708299 0.163096 -0.308586
0.698430 0.177077 -0.317321
0.740701 0.141174 -0.231851
0.711711 0.149530 -0.369515
0.718538 0.168445 -0.300226
0.715313 0.182659 -0.269516
0.750174 0.146390 -0.223326
0.730984 0.157023 -0.301831
0.725680 0.173400 -0.311530
0.715957 0.187467 -0.320290
0.756903 0.150774 -0.234511
0.729998 0.160365 -0.372517
0.735797 0.178666 -0.302970
0.726216 0.192655 -0.311750
0.761336 0.154589 -0.265475
0.744358 0.166620 -0.334227
0.743113 0.183713 -0.314122
0.733535 0.197866 -0.322903
0.776614 0.161235 -0.207056
0.752011 0.171701 -0.345378
0.753104 0.188892 -0.305364
0.742342 0.203067 -0.324076
0.774816 0.163740 -0.297517
0.762125 0.177112 -0.336593
0.765322 0.193941 -0.276640
0.752413 0.208126 -0.315239
0.792457 0.170581 -0.209003
0.774249 0.182588 -0.307816
0.770455 0.199122 -0.307408
0.765877 0.212537 -0.276511
0.795743 0.174490 -0.259634
0.779934 0.187606 -0.338599
0.782243 0.203906 -0.278460
0.769929 0.218442 -0.317123
0.804915 0.179492 -0.250480
0.787928 0.192865 -0.349424
0.791675 0.208734 -0.269289
0.782812 0.222500 -0.278159
0.810047 0.184083 -0.291077
0.797781 0.198100 -0.340245
0.799199 0.213870 -0.279937
0.787481 0.228756 -0.318652
0.824244 0.189270 -0.211934
0.809042 0.203045 -0.311024
0.805264 0.219578 -0.310440
0.796269 0.233912 -0.319284
0.829060 0.194059 -0.262367
0.817760 0.208157 -0.311607
0.812521 0.225262 -0.330917
0.805064 0.239066 -0.319826
0.840179 0.198609 -0.212918
0.827734 0.212890 -0.292143
0.825342 0.228474 -0.271537
0.816046 0.242864 -0.290390
0.846238 0.203722 -0.253240
0.835214 0.218374 -0.312507
0.830282 0.235653 -0.331742
0.822671 0.249367 -0.320645
0.855328 0.208251 -0.233560
0.842053 0.224584 -0.352764
0.840183 0.240007 -0.312064
0.831482 0.254514 -0.320921
0.863464 0.213000 -0.233774
0.852690 0.228581 -0.313054
0.848494 0.245570 -0.322230
0.838292 0.261989 -0.360990
0.872109 0.217259 -0.213918
0.861433 0.233680 -0.313196
0.857670 0.250205 -0.312347
0.849116 0.264797 -0.321206
0.880278 0.221626 -0.203972
0.870180 0.238775 -0.313249
0.867540 0.253096 -0.272433
0.857587 0.270604 -0.331187
0.887786 0.227559 -0.243917
0.878411 0.245222 -0.343179
0.875169 0.260386 -0.312277
0.866762 0.275064 -0.321136
0.895954 0.233088 -0.263787
0.887389 0.250440 -0.343053
0.883661 0.266747 -0.332068
0.875587 0.280191 -0.320967
0.904182 0.236693 -0.233611
0.896346 0.256192 -0.352821
0.892889 0.267821 -0.271949
0.884911 0.282103 -0.280842
0.912701 0.242806 -0.263298
0.905346 0.260860 -0.342529
0.901468 0.277074 -0.331458
0.893240 0.290429 -0.320363
0.919680 0.244112 -0.193031
0.913809 0.263553 -0.302213
0.909791 0.277612 -0.271200
0.902093 0.296429 -0.329888
0.927799 0.249201 -0.202586
0.923508 0.271928 -0.351618
0.918412 0.283312 -0.280663
0.910891 0.300643 -0.319404
0.938169 0.257935 -0.271909
0.932560 0.277160 -0.351035
0.927678 0.290806 -0.309952
0.919891 0.306717 -0.328741
0.947890 0.264722 -0.301191
0.941254 0.281627 -0.340396
0.937071 0.297653 -0.329164
0.928535 0.310830 -0.318089
0.956058 0.269041 -0.290494
0.950657 0.287603 -0.349595
0.943575 0.297119 -0.268682
0.936367 0.312721 -0.287485
0.965223 0.274714 -0.299637
0.961219 0.295347 -0.378593
0.954856 0.307899 -0.327480
0.946165 0.320987 -0.316419
0.971929 0.277395 -0.268882
0.968739 0.298014 -0.347791
0.962644 0.310949 -0.306640
0.955453 0.327204 -0.325374
0.977452 0.278998 -0.228151
0.977116 0.302276 -0.336818
0.972622 0.318112 -0.325438
0.963778 0.331111 -0.314395
0.983170 0.281101 -0.197342
0.983141 0.303518 -0.295997
0.977300 0.316505 -0.264807
0.973205 0.337397 -0.323154
0.999834 0.294598 -0.295485
0.995016 0.312548 -0.334490
0.990365 0.328288 -0.323040
0.981367 0.341199 -0.312018
0.995139 0.286385 -0.155489
0.997779 0.310244 -0.263860
0.997527 0.330956 -0.301925
0.990930 0.347552 -0.320578
1.009910 0.297604 -0.223599
1.013845 0.323885 -0.341694
1.003455 0.332197 -0.270891
0.998927 0.351248 -0.309287
1.019110 0.303258 -0.232143
1.022843 0.329028 -0.340203
1.014924 0.340901 -0.299043
1.003977 0.350622 -0.268364
1.026097 0.306851 -0.220835
1.030726 0.332972 -0.328755
1.024684 0.347188 -0.307323
1.020470 0.367061 -0.345577
1.036681 0.313682 -0.239048
1.044359 0.342978 -0.366510
1.027687 0.345306 -0.256458
1.026281 0.367735 -0.314360
1.042248 0.316057 -0.217746
1.048525 0.343117 -0.325351
1.047070 0.362817 -0.343181
1.038554 0.377363 -0.342025
1.057315 0.326625 -0.265224
1.062735 0.353440 -0.362807
1.049603 0.360656 -0.292232
1.043895 0.377758 -0.310720
1.068690 0.333890 -0.283022
1.071905 0.358652 -0.360818
1.065111 0.373071 -0.339267
1.056592 0.387614 -0.338112
1.066397 0.329782 -0.212506
1.076620 0.359645 -0.329367
1.066875 0.370462 -0.288307
1.060083 0.386067 -0.296963
1.077673 0.336980 -0.230155
1.077766 0.357484 -0.278385
1.078535 0.378515 -0.305725
1.070224 0.392697 -0.304599
1.092632 0.347064 -0.267168
1.100963 0.375692 -0.364053
1.084094 0.380214 -0.284036
1.077448 0.395902 -0.292656
1.102851 0.353249 -0.274726
1.101636 0.373251 -0.313004
1.094353 0.386739 -0.291488
1.092507 0.407956 -0.329203
1.109509 0.356606 -0.262718
1.119325 0.386073 -0.359211
1.094280 0.383068 -0.240632
1.096427 0.407512 -0.297689
1.125608 0.367318 -0.299166
1.126630 0.389630 -0.346958
1.113449 0.398244 -0.296336
1.110373 0.418039 -0.324211
1.122337 0.363028 -0.238573
1.129921 0.389781 -0.315311
1.125920 0.406727 -0.313079
1.111997 0.415401 -0.283002
1.136778 0.372386 -0.265067
1.144743 0.399834 -0.341610
1.136703 0.413525 -0.320014
1.130064 0.430016 -0.328484
1.138794 0.372288 -0.233540
1.147557 0.399706 -0.309917
1.143538 0.416635 -0.307597
1.129171 0.425059 -0.277658
1.153641 0.381864 -0.259730
1.162782 0.409973 -0.335901
1.154430 0.423482 -0.314308
1.147935 0.440054 -0.322733
1.155182 0.381488 -0.228178
1.165119 0.409564 -0.304171
1.161080 0.426477 -0.301763
1.156840 0.445047 -0.319724
1.177512 0.396490 -0.282739
1.180743 0.420044 -0.329832
1.172079 0.433371 -0.308250
1.165725 0.450023 -0.316626
1.183662 0.399516 -0.270164
1.199147 0.432649 -0.364780
1.178541 0.436249 -0.295580
1.174589 0.454980 -0.313439
1.169598 0.387890 -0.181489
1.198619 0.430042 -0.323405
1.189642 0.443189 -0.301840
1.183431 0.459920 -0.310164
1.192885 0.403411 -0.235439
1.217558 0.442934 -0.357960
1.195916 0.445949 -0.289049
1.189846 0.462599 -0.297356
1.203766 0.409899 -0.241708
1.216405 0.439965 -0.316622
1.207116 0.452932 -0.295080
1.210950 0.478866 -0.341014
1.209323 0.412571 -0.228989
1.235874 0.453141 -0.350774
1.223674 0.464378 -0.319760
1.227654 0.490871 -0.365521
1.220302 0.419103 -0.235037
1.234095 0.449811 -0.309485
1.237947 0.473803 -0.334807
1.229043 0.488929 -0.333615
1.225670 0.421657 -0.222213
1.234514 0.448282 -0.277707
1.241432 0.474243 -0.312299
1.246125 0.501132 -0.357761
1.260243 0.444703 -0.302713
1.263156 0.468295 -0.339312
1.255939 0.483784 -0.327047
1.255319 0.506229 -0.353743
1.265989 0.447454 -0.289536
1.275135 0.475523 -0.344608
1.259086 0.484023 -0.304485
1.255985 0.503866 -0.321842
1.277724 0.454381 -0.294877
1.281208 0.478291 -0.331219
1.258945 0.481685 -0.272724
1.259102 0.503764 -0.299276
1.276972 0.452658 -0.263115
1.293272 0.485552 -0.336270
1.288810 0.503468 -0.333152
1.282732 0.521387 -0.341142
1.295093 0.463973 -0.286694
1.299146 0.488196 -0.322768
1.291588 0.503484 -0.310456
1.291810 0.526394 -0.336761
1.300443 0.466481 -0.273303
1.311291 0.495490 -0.327573
1.306798 0.513382 -0.324365
1.300857 0.531377 -0.332289
1.278736 0.450545 -0.186817
1.320254 0.500423 -0.323091
1.319002 0.520857 -0.328942
1.309872 0.536336 -0.327727
1.290049 0.457210 -0.191881
1.312379 0.493071 -0.273053
1.324661 0.523200 -0.315222
1.331875 0.552117 -0.359309
1.318974 0.475776 -0.242109
1.338084 0.510217 -0.313859
1.336938 0.530702 -0.319549
1.327805 0.546179 -0.318336
1.341562 0.489961 -0.273761
1.360949 0.525190 -0.345190
1.342392 0.532919 -0.305726
1.336721 0.551063 -0.313507
1.335562 0.484863 -0.233125
1.355781 0.519911 -0.304274
1.354740 0.540447 -0.309801
1.345603 0.555922 -0.308590
1.351223 0.494336 -0.246409
1.375492 0.532531 -0.326181
1.359987 0.542537 -0.295878
1.368574 0.572206 -0.339213
1.340695 0.486293 -0.197082
1.373341 0.529503 -0.294340
1.372401 0.550087 -0.299701
1.363261 0.565560 -0.298492
1.348670 0.490640 -0.192423
1.378293 0.531581 -0.280377
1.377439 0.552050 -0.285683
1.386705 0.582089 -0.328622
1.372258 0.505339 -0.223006
1.421495 0.560711 -0.354651
1.389917 0.559621 -0.289252
1.380773 0.575092 -0.288045
1.392374 0.517677 -0.244391
1.415050 0.554700 -0.313920
1.410239 0.573019 -0.310161
1.404683 0.591860 -0.317672
1.416904 0.532876 -0.274192
1.439843 0.570676 -0.343361
1.407282 0.569045 -0.278457
1.398135 0.584514 -0.277252
1.433706 0.542930 -0.286161
1.448956 0.575614 -0.337580
1.427928 0.582605 -0.298939
1.422503 0.601516 -0.306368
1.446556 0.550361 -0.289212
1.458027 0.580522 -0.331709
1.457082 0.602351 -0.336327
1.431352 0.606301 -0.300584
1.434019 0.541180 -0.240384
1.467056 0.585400 -0.325749
1.445455 0.592074 -0.287369
1.440160 0.611055 -0.294712
1.450968 0.551293 -0.251927
1.476042 0.590248 -0.319699
1.458362 0.599834 -0.289991
1.432384 0.603017 -0.254643
1.468139 0.561518 -0.263206
1.480676 0.592096 -0.305039
1.479901 0.613847 -0.309420
1.457647 0.620474 -0.282709
1.467756 0.560327 -0.240291
1.493883 0.599849 -0.307334
1.488777 0.618616 -0.303149
1.487655 0.641441 -0.318758
1.476087 0.564800 -0.234350
1.498297 0.601564 -0.292590
1.497607 0.623353 -0.296791
1.492283 0.642951 -0.303919
1.484375 0.569243 -0.228326
1.511544 0.609324 -0.294618
1.506392 0.628059 -0.290346
1.505526 0.651020 -0.305770
1.501895 0.579627 -0.238902
1.520306 0.614012 -0.288130
1.533253 0.645710 -0.317028
1.541149 0.675949 -0.348907
1.533734 0.599178 -0.274082
1.542919 0.628093 -0.306415
1.546794 0.653765 -0.318470
1.541302 0.674062 -0.325411
1.537570 0.600712 -0.259228
1.570563 0.645519 -0.332559
1.551097 0.655228 -0.303315
1.545737 0.675438 -0.310218
1.550889 0.608321 -0.260777
1.565346 0.640717 -0.300902
1.564665 0.663281 -0.304483
1.577897 0.697509 -0.343912
1.554502 0.609720 -0.245854
1.593459 0.658377 -0.326422
1.587877 0.678126 -0.321672
1.582356 0.698881 -0.328440
1.572805 0.620484 -0.255229
1.582938 0.650061 -0.286752
1.601718 0.686307 -0.322360
1.615289 0.721345 -0.361247
1.601342 0.637721 -0.280398
1.626292 0.677841 -0.335797
1.605813 0.687627 -0.306852
1.600413 0.708446 -0.313520
1.604928 0.639082 -0.265120
1.635392 0.682653 -0.328142
1.599788 0.681887 -0.275461
1.619159 0.720369 -0.321808
1.639180 0.659860 -0.297484
1.654579 0.694175 -0.336260
1.643659 0.711022 -0.323267
1.633134 0.728753 -0.321908
1.595967 0.631646 -0.210977
1.612365 0.664912 -0.249546
1.657772 0.719313 -0.323180
1.652195 0.740825 -0.329647
1.661992 0.672414 -0.289885
1.672742 0.703735 -0.320293
1.661642 0.720479 -0.307318
1.676524 0.756680 -0.344861
1.601548 0.633474 -0.180909
1.671228 0.701516 -0.296638
1.670546 0.725148 -0.299212
1.670300 0.750328 -0.313308
1.652523 0.664661 -0.235403
1.701297 0.720140 -0.319399
1.700484 0.744327 -0.321733
1.694869 0.766291 -0.328014
1.698955 0.692899 -0.281265
1.731783 0.738972 -0.341628
1.693509 0.738035 -0.290361
1.703949 0.771034 -0.319455
1.674641 0.676783 -0.227349
1.724656 0.733067 -0.310105
1.696901 0.738914 -0.274372
1.686365 0.756640 -0.273023
1.744083 0.719296 -0.302406
1.717112 0.726935 -0.278833
1.727365 0.758340 -0.295957
1.727300 0.784243 -0.309573
1.752947 0.723903 -0.293685
1.781296 0.767694 -0.345161
1.758232 0.777966 -0.316995
1.725375 0.781130 -0.285807
1.761748 0.728467 -0.284876
1.773682 0.761507 -0.313655
1.767233 0.782629 -0.307909
1.794584 0.828676 -0.358181
1.770484 0.732989 -0.275982
1.805308 0.780884 -0.334011
1.776167 0.787248 -0.298735
1.770606 0.809868 -0.304646
1.779155 0.737467 -0.267002
1.831603 0.796740 -0.346494
1.790714 0.795671 -0.296749
1.801963 0.830344 -0.324390
1.770217 0.731037 -0.236161
1.840832 0.801496 -0.336772
1.816778 0.811863 -0.308986
1.833703 0.851007 -0.343569
1.819912 0.760893 -0.277585
1.855825 0.809976 -0.334152
1.831525 0.820368 -0.306466
1.848657 0.859775 -0.340739
1.792851 0.743279 -0.225282
1.859076 0.810866 -0.317059
1.881399 0.852493 -0.346297
1.846318 0.856387 -0.316443
1.789115 0.740110 -0.201938
1.850253 0.803994 -0.285857
1.843428 0.825519 -0.279700
1.872844 0.873252 -0.327419
1.857925 0.781606 -0.262939
1.949036 0.866323 -0.381096
1.899828 0.861903 -0.325524
1.911395 0.898457 -0.351856
1.854270 0.778458 -0.239183
1.916171 0.843982 -0.321559
1.908928 0.866533 -0.315004
1.914769 0.899058 -0.334189
1.936815 0.828217 -0.312052
1.967993 0.875968 -0.359178
1.917950 0.871112 -0.304394
1.887986 0.878726 -0.282381
1.945796 0.832770 -0.301401
1.983513 0.884650 -0.354901
1.908538 0.863423 -0.273356
1.927005 0.904134 -0.305735
1.935847 0.825739 -0.270375
2.011488 0.901264 -0.363918
1.960445 0.896515 -0.309779
1.978675 0.938196 -0.341777
2.014218 0.872688 -0.333422
1.920607 0.842134 -0.245315
1.994336 0.917548 -0.325258
2.018692 0.964084 -0.363541
1.972268 0.846120 -0.268928
1.960692 0.866494 -0.267861
2.003456 0.922129 -0.313781
1.997101 0.947464 -0.318788
2.058217 0.897540 -0.336744
2.071301 0.935546 -0.361845
2.037800 0.943365 -0.328299
2.012442 0.956313 -0.313672
2.046954 0.947939 -0.316382
2.040412 0.973801 -0.321226
2.056020 0.952455 -0.304377
2.087667 1.004427 -0.347430
2.116822 0.990935 -0.342849
2.109806 1.017804 -0.347492
2.126106 0.995533 -0.330128
2.099769 1.009234 -0.315974
2.141872 1.004371 -0.323502
2.128373 1.026985 -0.321830
2.164264 1.017521 -0.322766
2.137515 1.031484 -0.308864
2.186167 1.062731 -0.332041
2.242932 1.065776 -0.350088
1.078462 0.312703 0.684271
2.241939 1.098685 -0.360265
2.259068 1.074736 -0.341997
2.238009 1.094268 -0.334331
1.080978 0.313927 0.688062
2.267498 1.112377 -0.337729
1.119887 0.334190 0.663190
1.069771 0.305953 0.703273
1.079626 0.307983 0.699225
1.084644 0.315695 0.693838
1.122734 0.335555 0.667797
1.106603 0.330136 0.679160
1.095985 0.318124 0.692034
1.080052 0.312184 0.703217
1.097193 0.318697 0.694079
1.109207 0.331375 0.683529
1.077018 0.305566 0.712131
1.061128 0.299186 0.722994
1.092399 0.315231 0.703461
1.040816 0.285528 0.740440
1.055915 0.295365 0.731575