# This PCD file was generated using the MATLAB® pcwrite function
# from Computer Vision System Toolbox®.
# .PCD v.7 - Point Cloud Data file format
VERSION .7
FIELDS x y z
SIZE 4 4 4
TYPE F F F
COUNT 1 1 1
WIDTH 738
HEIGHT 1
VIEWPOINT 0 0 0 1 0 0 0
POINTS 738
DATA ascii
53.497448 -50.770550 5.189625
53.907280 -51.356087 4.724060
55.590706 -50.133221 0.640102
55.646507 -50.854237 0.591675
54.966999 -50.200684 0.697865
55.046974 -50.910778 0.618935
54.078915 -50.327572 1.107414
54.468784 -50.964016 0.630112
53.899334 -51.016369 0.640434
53.314632 -51.072632 0.681446
52.685318 -50.433285 0.767422
52.750755 -51.125587 0.705635
52.153831 -50.484829 0.757870
52.032410 -51.211166 0.953690
51.630257 -50.535336 0.746471
51.453094 -51.269409 1.025154
51.097427 -50.588799 0.757412
50.922771 -51.318352 1.038574
50.634224 -50.626583 0.676472
50.394905 -51.367569 1.058212
50.127586 -50.675312 0.666382
50.135452 -51.359989 0.688503
46.830627 -51.402596 4.899681
46.853992 -52.007736 4.895790
46.408382 -51.439999 4.859089
46.410290 -52.047089 4.889038
45.966064 -51.482941 4.856613
45.968330 -52.086685 4.887299
45.546474 -51.520851 4.825455
45.549156 -52.121799 4.856819
45.107498 -51.564262 4.832737
45.131241 -52.157162 4.830917
44.670418 -51.607899 4.844948
44.694233 -52.197460 4.843662
44.275368 -51.641281 4.793621
44.259178 -52.237968 4.861301
43.841637 -51.685360 4.815235
43.865711 -52.269348 4.814907
43.448826 -51.719223 4.772552
43.458473 -52.304470 4.798603
43.018631 -51.763718 4.803455
43.042980 -52.342140 4.804073
42.609413 -51.803223 4.804230
42.633904 -52.378853 4.805313
42.220299 -51.837761 4.774334
42.226410 -52.415775 4.810959
41.813980 -51.877686 4.783726
41.843376 -52.447147 4.776867
41.666603 -53.033382 4.783871
41.693176 -53.599514 4.782555
41.427242 -51.912663 4.762074
41.438801 -52.484482 4.791027
41.347809 -53.048901 4.631657
41.059196 -51.942730 4.708874
41.137405 -52.495712 4.604790
40.843666 -53.106853 4.857388
40.870499 -53.666836 4.856850
40.639809 -51.988377 4.766487
40.665188 -52.551731 4.769722
40.478386 -53.133846 4.811108
40.505455 -53.692150 4.810863
40.256786 -52.023979 4.756958
40.269608 -52.588505 4.787525
40.113678 -53.161079 4.768475
40.145229 -53.716839 4.759502
39.874985 -52.059784 4.751369
39.888245 -52.622063 4.782448
39.716393 -53.196468 4.801819
39.731380 -53.752842 4.829380
39.494438 -52.095783 4.749710
39.524529 -52.651306 4.745079
39.341362 -53.227085 4.793953
39.373123 -53.777950 4.785580
39.103165 -52.135765 4.779179
39.145409 -52.685265 4.747673
38.975479 -53.255928 4.771667
38.991390 -53.808353 4.800041
38.737255 -52.168358 4.758068
38.747929 -52.725014 4.799763
38.583099 -53.291836 4.817093
38.599407 -53.841454 4.845924
38.360706 -52.204922 4.768047
38.387344 -52.754860 4.773628
38.238712 -53.316193 4.756397
38.244030 -53.867172 4.813148
38.000626 -52.236664 4.745140
38.016197 -52.788250 4.778622
37.868229 -53.347584 4.763515
37.881767 -53.894768 4.802307
37.630295 -52.272350 4.753414
37.672222 -52.814075 4.722778
37.495384 -53.380119 4.783607
37.513130 -53.924217 4.813572
37.243271 -52.314415 4.811638
37.270576 -52.857773 4.818329
37.120461 -53.413780 4.816757
37.156635 -53.951366 4.800655
36.900681 -52.341770 4.762558
36.928318 -52.883999 4.769520
36.754250 -53.445675 4.835083
36.786964 -53.981987 4.828529
36.544590 -52.374283 4.753952
36.572498 -52.914825 4.761227
36.413437 -53.471066 4.791645
36.432617 -54.009502 4.822697
36.162560 -52.416801 4.823532
36.190647 -52.954548 4.831219
36.042839 -53.505211 4.835808
36.062462 -54.041252 4.867245
35.809036 -52.449650 4.822098
35.850563 -52.981377 4.792568
35.690365 -53.534775 4.836681
35.713760 -54.068310 4.859035
35.466110 -52.479027 4.795910
35.485168 -53.017056 4.832401
35.338917 -53.564522 4.840969
35.375492 -54.093155 4.825851
35.117500 -52.511036 4.791821
35.158981 -53.039978 4.762615
35.004009 -53.589771 4.801346
35.239609 -54.066593 4.180183
34.778893 -52.539604 4.762722
34.796036 -53.075989 4.809380
33.759338 -53.895515 7.630791
35.021935 -53.506660 3.654518
32.746231 -54.653297 10.905260
35.051056 -54.051941 3.667133
34.782631 -52.428867 3.637142
33.564636 -53.425003 7.650513
32.418575 -54.244556 10.955141
32.492287 -54.667648 10.803404
33.246605 -52.955441 7.556286
33.344772 -53.417393 7.331379
32.184536 -54.252396 10.788992
32.220154 -54.686928 10.761017
33.006630 -52.952072 7.296448
32.653633 -53.586296 8.607380
31.890282 -54.279732 10.825567
31.948017 -54.706406 10.721109
32.360985 -53.126030 8.462074
32.400265 -53.593510 8.428982
31.605419 -54.304447 10.836229
31.654358 -54.732216 10.760473
32.078957 -53.144039 8.381565
32.086750 -53.624039 8.463593
31.300663 -54.336517 10.926508
31.967880 -54.104733 8.455479
31.372509 -54.755081 10.764187
31.798782 -53.161118 8.293915
31.815250 -53.638077 8.347370
31.023270 -54.359665 10.923464
31.668886 -54.129284 8.446571
31.101480 -54.775059 10.731956
31.454197 -53.208900 8.458946
31.512930 -53.664795 8.349079
30.741613 -54.384747 10.942310
31.370434 -54.154003 8.440422
30.823215 -54.797474 10.731188
31.202929 -53.212372 8.260948
31.182842 -53.703995 8.469524
30.463249 -54.409065 10.954130
31.074890 -54.178005 8.427353
30.531433 -54.824520 10.791136
30.869167 -53.256821 8.403248
30.903603 -53.721767 8.389980
30.766216 -54.207458 8.475197
30.254921 -54.847195 10.795637
30.571428 -53.283955 8.403587
30.610386 -53.745884 8.371056
30.493790 -54.223030 8.370430
29.976881 -54.870750 10.812420
30.299603 -53.297466 8.290173
30.328053 -53.765137 8.306187
30.203424 -54.245834 8.345890
29.678686 -54.901722 10.929279
29.987482 -54.794533 9.496082
29.975830 -53.339832 8.422195
30.037045 -53.788639 8.282738
29.897179 -54.275723 8.402031
29.411285 -54.922577 10.912321
29.901070 -54.746819 8.538692
29.716936 -53.345837 8.245590
29.715008 -53.828300 8.418018
29.615501 -54.295433 8.343739
29.138311 -54.945751 10.927126
29.642128 -54.758530 8.373066
29.411057 -53.379349 8.305317
29.449949 -53.839191 8.272995
29.289343 -54.335773 8.522949
28.877161 -54.964787 10.885614
29.347624 -54.783409 8.385960
29.127953 -53.399456 8.250572
29.131302 -53.879013 8.414082
29.038490 -54.341450 8.303200
28.603441 -54.988960 10.915129
29.060894 -54.805614 8.362267
28.837673 -53.424267 8.237476
28.868113 -53.888451 8.254257
28.727776 -54.376053 8.419430
28.345755 -55.006954 10.858654
28.774242 -54.828011 8.341118
28.522129 -53.467049 8.383923
28.559212 -53.924534 8.361752
28.446362 -54.396534 8.371346
28.460693 -54.862373 8.489948
28.257912 -53.474422 8.219070
28.284605 -53.940334 8.265617
28.164557 -54.417236 8.325718
28.192247 -54.877487 8.365635
27.951393 -53.512959 8.331787
28.001579 -53.961227 8.221058
27.865524 -54.447994 8.400955
27.893734 -54.906528 8.441082
27.680698 -53.524193 8.201149
27.695251 -53.998569 8.346630
27.595898 -54.461754 8.271488
27.623539 -54.922161 8.321514
27.385593 -53.555317 8.250271
27.424358 -54.011269 8.218349
27.287430 -54.500031 8.440998
27.336712 -54.946125 8.323013
27.088230 -53.589783 8.331699
27.106871 -54.060074 8.467991
27.024672 -54.508671 8.247059
27.054901 -54.967613 8.287418
26.814211 -53.602844 8.218178
26.847536 -54.062908 8.235794
26.724968 -54.543110 8.372440
26.769594 -54.991276 8.284039
26.514729 -53.641827 8.344410
26.560373 -54.088501 8.243404
26.451118 -54.558681 8.262474
26.470760 -55.024174 8.422215
26.235872 -53.659611 8.275356
26.273649 -54.114258 8.253571
26.165009 -54.583923 8.273987
26.201569 -55.037842 8.264969
25.949541 -53.686085 8.287991
25.994867 -54.131935 8.176952
25.872976 -54.615501 8.367531
25.899076 -55.075974 8.487953
25.675411 -53.695976 8.144470
25.698637 -54.169865 8.321217
25.600651 -54.627987 8.215096
25.630432 -55.088276 8.305649
25.388687 -53.722870 8.162048
25.422262 -54.184345 8.209801
25.304604 -54.666649 8.403294
25.346081 -55.113400 8.324791
25.095224 -53.763332 8.311260
25.127039 -54.225971 8.399052
25.029850 -54.680424 8.265617
25.064474 -55.136223 8.306572
24.822979 -53.763779 8.075623
24.855646 -54.230267 8.173145
24.742018 -54.712437 8.369366
24.785057 -55.156219 8.240955
24.528688 -53.812592 8.309456
24.570160 -54.257927 8.208294
24.465302 -54.726048 8.226528
24.494846 -55.192047 8.437115
24.251167 -53.818790 8.128311
24.285751 -54.284851 8.236004
24.182335 -54.750263 8.225628
24.218948 -55.205898 8.266678
23.965963 -53.847515 8.168362
24.003969 -54.304123 8.176567
23.895830 -54.788395 8.416676
23.933683 -55.238861 8.417995
23.682196 -53.871380 8.161175
23.718397 -54.341682 8.328777
23.616951 -54.797817 8.211308
23.654892 -55.253338 8.252392
23.398579 -53.890499 8.106712
23.437353 -54.348591 8.124825
23.334015 -54.829674 8.317574
23.373325 -55.267677 8.079212
23.115166 -53.931480 8.273647
23.153566 -54.372845 8.122593
23.050642 -54.837742 8.087162
23.090738 -55.301556 8.247952
22.830763 -53.944153 8.154480
22.869911 -54.398125 8.132805
22.766720 -54.861591 8.078667
22.806231 -55.316528 8.079704
22.546982 -53.968792 8.157207
22.585194 -54.418617 8.085716
22.487036 -54.897980 8.252178
22.524811 -55.346161 8.173508
22.263252 -53.993618 8.162407
22.305025 -54.454136 8.220428
22.197836 -54.908543 8.049191
22.239616 -55.366680 8.100086
21.974434 -54.006268 8.040783
22.014093 -54.462013 8.018932
21.917154 -54.939049 8.137875
21.955946 -55.391224 8.099014
21.701355 -54.054211 8.289627
21.733767 -54.494549 8.118736
21.632427 -54.962326 8.119362
21.678596 -55.422775 8.230091
21.405165 -54.057053 8.063667
21.452326 -54.523140 8.171188
21.346127 -54.984524 8.083427
21.387264 -55.439880 8.084381
21.124016 -54.087357 8.128510
21.160742 -54.538433 8.056969
21.071293 -55.018623 8.229225
21.101952 -55.464016 8.070839
20.837194 -54.109482 8.106419
20.889032 -54.577549 8.243637
20.775970 -55.033527 8.078846
20.818541 -55.489880 8.089684
20.552353 -54.134586 8.116627
20.596699 -54.594147 8.144428
20.496603 -55.062759 8.149910
20.531132 -55.513462 8.061237
20.275799 -54.168018 8.218578
20.306110 -54.614170 8.087574
20.209881 -55.086479 8.133957
20.262491 -55.547459 8.244190
19.977762 -54.180885 8.094978
20.026268 -54.643585 8.152367
19.922703 -55.110435 8.120541
19.960445 -55.564236 8.071621
19.692644 -54.206600 8.112713
19.733341 -54.663364 8.090702
19.648409 -55.141907 8.228695
19.672762 -55.588997 8.060722
19.408798 -54.233376 8.142838
19.460098 -54.696804 8.209953
19.345865 -55.158455 8.091423
19.395325 -55.618122 8.141644
19.115135 -54.253353 8.096386
19.161167 -54.714138 8.113827
19.068905 -55.188431 8.174759
19.101263 -55.641018 8.086216
18.841997 -54.287437 8.210526
18.868332 -54.736198 8.079750
18.769861 -55.208599 8.092358
18.834461 -55.673531 8.241302
18.530376 -54.297615 8.050884
18.588861 -54.765705 8.147034
18.479279 -55.233147 8.081837
18.525347 -55.692528 8.092125
18.246099 -54.325222 8.091156
18.287617 -54.784702 8.068821
18.214397 -55.267544 8.241615
18.234730 -55.717972 8.084106
17.983097 -54.363884 8.261757
18.029366 -54.823654 8.269104
17.893404 -55.281857 8.048912
17.938803 -55.742409 8.049118
17.653309 -54.368465 8.031837
17.700275 -54.832077 8.038769
17.609802 -55.309891 8.095436
17.648712 -55.768776 8.056202
17.388514 -54.405712 8.187626
17.409220 -54.857521 8.047356
17.314049 -55.334305 8.075684
17.372654 -55.798573 8.144535
17.085033 -54.425041 8.130169
17.142008 -54.891949 8.185993
17.013784 -55.357929 8.039005
17.060316 -55.820606 8.038902
16.776241 -54.443104 8.055981
16.818661 -54.906410 8.033192
16.745932 -55.390743 8.171532
16.786804 -55.851128 8.142044
16.502346 -54.475861 8.160362
16.550894 -54.940434 8.166924
16.430649 -55.411232 8.071709
16.477900 -55.874958 8.071404
16.185301 -54.492157 8.062485
16.234402 -54.958908 8.068768
16.158081 -55.442760 8.179779
16.180063 -55.901363 8.062290
15.927801 -54.530670 8.239899
15.926691 -54.981007 8.022335
15.840210 -55.463917 8.085667
15.923596 -55.934830 8.241077
15.588184 -54.540646 8.060291
15.651840 -55.012909 8.124550
15.538662 -55.489403 8.072384
15.575598 -55.953926 8.023079
15.297144 -54.567940 8.097198
15.338085 -55.034306 8.064243
15.262671 -55.520439 8.168568
15.304216 -55.985237 8.138725
15.013575 -54.597683 8.165691
15.064332 -55.066498 8.171440
14.930829 -55.540749 8.044529
14.992393 -56.010967 8.091988
14.677238 -54.611965 8.034164
14.733664 -55.084862 8.058865
14.639791 -55.569393 8.087959
14.676636 -56.036728 8.038563
14.416813 -54.648777 8.194660
14.426598 -55.109653 8.045933
14.346266 -55.597778 8.124359
14.417271 -56.069752 8.200306
14.077261 -54.663815 8.069279
14.153779 -55.142365 8.160824
14.017278 -55.620605 8.038490
14.067740 -56.092400 8.037064
13.760035 -54.685810 8.033524
13.804415 -55.158974 8.009552
13.756460 -55.654724 8.195560
13.751132 -56.119469 8.002205
13.513455 -54.725822 8.239597
13.520543 -55.189781 8.091431
13.407942 -55.675652 8.058285
13.493796 -56.152897 8.171398
13.169127 -54.742001 8.123619
13.228565 -55.219048 8.147175
13.101028 -55.703365 8.067692
13.152693 -56.178253 8.065784
12.889028 -54.773842 8.220192
12.897437 -55.241341 8.081863
12.842547 -55.737858 8.232159
12.870024 -56.209457 8.154068
12.603628 -54.804432 8.300236
12.614282 -55.272705 8.171661
12.473001 -55.758015 8.057224
12.538048 -56.236649 8.092922
12.286788 -54.828461 8.288322
12.267994 -55.293560 8.074738
12.164187 -55.786579 8.075432
12.217113 -56.265251 8.072983
11.988712 -54.856777 8.336006
11.929086 -55.316475 8.009678
11.881373 -55.818443 8.171993
11.947784 -56.298042 8.207195
11.724398 -54.891823 8.480347
11.689092 -55.355217 8.230183
11.514671 -55.841175 8.036015
11.585402 -56.324406 8.080181
11.399595 -54.915325 8.458324
11.307493 -55.372669 8.058659
11.221161 -55.872425 8.110134
11.258043 -56.353771 8.060223
11.052358 -54.935387 8.383537
10.985516 -55.399681 8.059547
10.910316 -55.902084 8.140209
11.007383 -56.388165 8.249207
10.728274 -54.960281 8.377468
10.742010 -55.437687 8.268497
10.551868 -55.927563 8.052212
10.607011 -56.413975 8.048714
10.417989 -54.987968 8.411682
10.409073 -55.463699 8.247154
10.243003 -55.958202 8.097908
10.283723 -56.444775 8.057083
10.107386 -55.015911 8.448868
10.108759 -55.494282 8.312428
9.945392 -55.990047 8.174271
10.016399 -56.478649 8.207458
9.761763 -55.038754 8.406162
9.808640 -55.525063 8.380482
9.551254 -56.014236 8.023037
9.627110 -56.506966 8.064926
9.422314 -55.063194 8.385384
9.469464 -55.551567 8.359482
9.256373 -56.046982 8.114880
9.277758 -56.537731 8.027821
9.073482 -55.086868 8.349812
9.173025 -55.583279 8.442608
8.941904 -56.078411 8.163681
9.031355 -56.572971 8.232349
8.747607 -55.114365 8.372490
8.844325 -55.611736 8.455536
8.606683 -56.108669 8.169964
8.652104 -56.603313 8.137791
8.383494 -55.137154 8.316784
8.460657 -55.635075 8.353703
8.274717 -56.139549 8.188713
8.249269 -56.633530 8.001999
8.051401 -55.164803 8.337234
8.133596 -55.664719 8.382748
7.976183 -56.172878 8.283096
8.004879 -56.669220 8.214542
7.701236 -55.190620 8.325050
7.831899 -55.697060 8.469105
7.543310 -56.198437 8.101227
7.637266 -56.701427 8.167625
7.071732 -55.183544 7.752163
7.275288 -55.706974 8.037991
7.154882 -56.227474 8.023052
7.227978 -56.733139 8.043934
6.794880 -55.220108 7.910267
6.804132 -55.726181 7.801716
6.872103 -56.262741 8.163368
6.878315 -56.766872 8.049995
6.551569 -55.260284 8.132889
6.277578 -55.742214 7.473347
6.498899 -56.293552 8.128464
6.577862 -56.801952 8.157532
6.139036 -55.281891 8.030151
5.897051 -55.771267 7.443848
6.123884 -56.324837 8.097618
6.185106 -56.835625 8.090778
5.742384 -55.306084 7.967339
5.495922 -55.799389 7.383221
5.747107 -56.356594 8.070854
5.789972 -56.869843 8.028435
5.420162 -55.338505 8.049129
5.149916 -55.832153 7.432350
5.445627 -56.391979 8.188416
5.507727 -56.906021 8.181053
5.098074 -55.371159 8.134075
4.784006 -55.863907 7.450073
4.963982 -56.420567 7.986103
5.109797 -56.941097 8.126625
4.657339 -55.392994 8.013927
4.604771 -55.908272 7.801853
4.487453 -56.450390 7.807098
4.709621 -56.976715 8.076694
4.253393 -55.419132 7.968067
4.304909 -55.944485 7.938103
4.011518 -56.481216 7.642574
4.307247 -57.012878 8.031300
3.867683 -55.447578 7.961136
3.939873 -55.976898 7.965279
3.495546 -56.511753 7.423729
4.025181 -57.050049 8.196880
3.563263 -55.483379 8.095181
3.615231 -56.012032 8.064808
3.264992 -56.551559 7.690014
3.641052 -57.087093 8.193821
3.139004 -55.509640 8.036552
3.290894 -56.047386 8.167538
2.669144 -56.581512 7.362709
3.192453 -57.124596 8.092880
2.701635 -55.535675 7.965935
2.818148 -56.075336 8.036369
2.317005 -56.618740 7.440731
2.761961 -57.162754 8.031193
2.288542 -55.564350 7.942520
2.384747 -56.106159 7.978352
2.289322 -56.663399 8.026936
2.350517 -57.201443 8.008244
1.873529 -55.593559 7.923828
1.970669 -56.138603 7.958931
1.941259 -56.700623 8.109409
-1.776264 -56.626812 2.439926
-2.478096 -56.612873 1.369583
2.052042 -57.240036 8.165810
-1.755121 -57.260811 2.339439
1.589661 -55.632450 8.109455
1.604500 -56.173763 8.019207
1.504194 -56.736557 8.062462
-2.067940 -56.672951 2.716373
1.643906 -57.279541 8.159668
-0.063156 -57.291794 5.596043
-1.908772 -57.305046 2.824326
1.127781 -55.659512 8.033031
1.271431 -56.210667 8.133083
-0.539042 -56.747746 5.664909
-0.444576 -57.334427 5.683952
-0.968876 -55.583557 5.603542
-0.848911 -56.177658 5.657646
-0.932800 -56.788685 5.740932
-0.814821 -57.377266 5.792343
-1.364872 -55.620472 5.683186
-1.243868 -56.216671 5.736496
-1.326994 -56.829990 5.821182
-1.207966 -57.420673 5.871861
-1.737959 -55.659119 5.799564
-1.633415 -56.256252 5.827724
-1.698217 -56.871895 5.938152
-1.578196 -57.464123 5.988125
-2.134436 -55.696724 5.887535
-1.981972 -56.297527 5.979679
-2.092865 -56.913887 6.026707
-1.971806 -57.508217 6.075932
-2.513323 -55.735653 6.003834
-2.407179 -56.336624 6.030704
-2.487820 -56.956238 6.119541
-2.365725 -57.552670 6.168011
-2.910177 -55.773949 6.100224
-2.773088 -56.377907 6.166313
-2.858839 -56.999062 6.248508
-2.759912 -57.597477 6.264362
-3.252300 -55.815308 6.272133
-3.120253 -56.419933 6.329464
-3.229521 -57.042156 6.381355
-3.129896 -57.642159 6.396683
-3.723053 -55.850723 6.282349
-3.589806 -56.459099 6.338634
-3.674067 -57.085415 6.423805
-3.548901 -57.688148 6.469952
-4.070713 -55.892349 6.454292
-3.986347 -56.500565 6.447231
-4.069794 -57.129173 6.533848
-3.937368 -57.733864 6.587021
-4.493116 -55.930908 6.536682
-4.357784 -56.542904 6.591209
-4.433990 -57.173218 6.686962
-4.338408 -57.780205 6.692791
-4.916107 -55.969891 6.623859
-4.805149 -56.584038 6.646580
-4.880608 -57.217781 6.743862
-4.733244 -57.826748 6.810707
-5.313852 -56.010300 6.746407
-5.202112 -56.626572 6.768417
-5.276636 -57.262592 6.867096
-5.147400 -57.874138 6.910027
-5.737595 -56.050076 6.842972
-5.625038 -56.669033 6.864227
-5.672606 -57.307735 6.994690
-5.516342 -57.920662 7.067165
-6.161768 -56.090271 6.944370
-6.022139 -56.712276 6.995029
-6.094818 -57.353416 7.096565
-5.970119 -57.969910 7.130287
-6.586327 -56.130871 7.050617
-6.445625 -56.755520 7.100277
-6.550657 -57.399815 7.165943
-6.418285 -58.019463 7.206280
-7.011215 -56.171879 7.161720
-6.896235 -56.798882 7.180672
-6.967159 -57.446289 7.285206
-6.806959 -58.067612 7.354351
-7.463459 -56.212490 7.248264
-7.327360 -56.842911 7.288509
-7.417698 -57.493553 7.372471
-7.256165 -58.118046 7.440456
-7.889103 -56.254341 7.369366
-7.745192 -56.887470 7.415962
-7.868952 -57.541298 7.465092
-7.706091 -58.168957 7.531918
-8.280424 -56.297493 7.531567
-8.142416 -56.932526 7.569950
-8.265610 -57.588699 7.620941
-8.129112 -58.219379 7.657707
-8.796518 -56.337864 7.568871
-8.643503 -56.977417 7.620510
-8.745493 -57.637756 7.695164
-8.580059 -58.271198 7.759670
-9.223001 -56.380978 7.705208
-9.103956 -57.023052 7.720093
-9.310778 -57.688820 7.689960
-9.192953 -58.329475 7.703289
-9.897421 -56.419205 7.599503
-9.784307 -57.068802 7.606091
-10.020342 -57.743309 7.551170
-9.901171 -58.392193 7.563381
-10.611780 -56.457813 7.468082
-10.490408 -57.115654 7.480457
-10.763300 -57.799549 7.394333
-10.614180 -58.456097 7.433380
-11.330854 -56.497601 7.346615
-11.172331 -57.163635 7.392422
-12.780851 -57.883789 6.029224
-12.627752 -58.573486 6.065193
-13.391314 -56.516407 5.971016
-13.294664 -57.216305 5.951031
-13.537203 -57.944145 5.911362
-13.389746 -58.642746 5.939053
-14.188974 -56.559505 5.826832
-14.062059 -57.268673 5.832981
-14.305559 -58.005901 5.797302
-14.149218 -58.712948 5.830429
-14.984438 -56.604031 5.700676
-14.863668 -57.322437 5.698685
-15.204206 -58.071995 5.579556
-15.038645 -58.789822 5.617825
-15.822046 -56.649403 5.552349
-15.700052 -57.377716 5.548981
-16.042330 -58.137936 5.434910
-15.852686 -58.864613 5.491638
-16.762522 -56.695122 5.329998
-16.631689 -57.435089 5.331703
-18.026594 -58.235977 4.298286
-17.653162 -58.985367 4.510529
-19.092524 -56.729610 3.922806
-18.686720 -57.504200 4.156918
-18.755270 -58.302612 4.298840
-18.408960 -59.060619 4.481678
-19.896738 -56.781715 3.876213
-19.525736 -57.565125 4.074116
-19.593622 -58.373390 4.218758
-19.153040 -59.136265 4.476288
-20.735544 -56.834831 3.815189
-20.292673 -57.626484 4.067505
-20.421083 -58.445015 4.163399
-19.976866 -59.216690 4.417023
-21.516783 -56.889561 3.816830
-21.101435 -57.689438 4.039707
-21.167608 -58.515244 4.189499
-20.781668 -59.297241 4.388500
-22.417917 -56.944946 3.735050
-22.038172 -57.755325 3.922535
-22.049219 -58.590794 4.119255
-21.590113 -59.378986 4.371330
-23.268915 -57.001892 3.709721
-22.855009 -57.820831 3.918594
-22.888254 -58.666142 4.098896
-22.503786 -59.467133 4.284782
-24.218348 -57.059975 3.622658
-23.769758 -57.889065 3.852230
-23.833540 -58.746262 4.010674
-23.343451 -59.552612 4.272945
-25.172701 -57.119549 3.549362
-24.720747 -57.959267 3.774693
-24.759886 -58.827034 3.954418
-24.258024 -59.643112 4.218369
-26.019918 -57.180485 3.574055
-25.676512 -58.030952 3.710991
-25.498743 -58.902233 4.055561
-25.176939 -59.735020 4.177059
-25.985422 -57.240536 4.264229
-25.753195 -58.086773 4.315990
-25.424570 -57.297764 5.326775
-25.232874 -58.129662 5.349030
-25.111048 -59.816406 5.525269
-26.054590 -57.358482 5.518387
-25.788507 -58.194187 5.591431
-26.474497 -58.262207 5.749020
23.059395 -57.134930 40.521626
23.051088 -57.138962 40.516384
23.004818 -57.138088 40.496426
23.075085 -57.137699 40.534847
23.047821 -57.139702 40.522308
23.028759 -57.137276 40.515202
23.011517 -57.142368 40.505550
23.036877 -57.140808 40.521694
23.026545 -57.137806 40.519527
23.035818 -57.141064 40.523781
23.025465 -57.138065 40.521702
23.043707 -57.140682 40.530334
23.096256 -57.134304 40.558834
23.078594 -57.138359 40.549877
23.041401 -57.137566 40.534660
23.032751 -57.141819 40.530102
23.067617 -57.136238 40.549343
23.049849 -57.140747 40.540668
23.039877 -57.141647 40.538502