# This PCD file was generated using the MATLAB® pcwrite function
# from Computer Vision System Toolbox®.
# .PCD v.7 - Point Cloud Data file format
VERSION .7
FIELDS x y z
SIZE 4 4 4
TYPE F F F
COUNT 1 1 1
WIDTH 863
HEIGHT 1
VIEWPOINT 0 0 0 1 0 0 0
POINTS 863
DATA ascii
63.057983 -64.990517 0.596817
62.478546 -64.248756 0.515503
62.473679 -65.036377 0.540112
61.840042 -64.311401 0.534439
61.798195 -65.100235 0.606709
61.235229 -64.367844 0.522228
61.200211 -65.150352 0.588055
59.864670 -64.590919 1.514816
60.634895 -65.194977 0.537228
59.949463 -64.500084 0.630283
60.011406 -65.251648 0.572170
59.430191 -64.540550 0.537014
59.426685 -65.301628 0.566887
58.824242 -64.600952 0.569698
58.861984 -65.348450 0.544445
58.169468 -64.673378 0.682255
58.253143 -65.404907 0.593185
57.616020 -64.723961 0.665024
57.601944 -65.470955 0.714275
57.053444 -64.777451 0.670513
57.017323 -65.524490 0.753525
56.476677 -64.835136 0.707188
56.491436 -65.566727 0.717445
55.952240 -64.881447 0.676304
55.917782 -65.619682 0.761749
55.489059 -64.913857 0.559883
55.455635 -65.649834 0.646343
54.962032 -64.962090 0.548561
54.929504 -65.694153 0.636173
51.778954 -65.660591 4.787529
51.830753 -66.299255 4.739399
51.360825 -65.691429 4.701500
51.386436 -66.333740 4.695873
50.917519 -65.728973 4.662285
50.902245 -66.377655 4.725212
50.455254 -65.771912 4.662010
50.440666 -66.417221 4.725822
49.994831 -65.815079 4.666840
50.020752 -66.447929 4.662739
49.536312 -65.858482 4.676735
49.581932 -66.483459 4.638592
49.060490 -65.907196 4.726360
49.086544 -66.532814 4.723351
48.663086 -65.935822 4.641891
48.670380 -66.564285 4.674156
48.228615 -65.974854 4.631443
48.217674 -66.605019 4.699413
47.777298 -66.019157 4.660805
47.822227 -66.632484 4.623890
47.364189 -66.053604 4.624374
47.390938 -66.669182 4.623100
46.934334 -66.093307 4.627697
46.961235 -66.706100 4.626881
46.506104 -66.133232 4.635559
46.515709 -66.747688 4.670898
46.360443 -67.365875 4.612747
46.096649 -66.168365 4.612099
46.175339 -66.762825 4.504524
45.905037 -67.407318 4.691063
45.920609 -68.011971 4.715775
45.767979 -66.180092 4.421974
45.698936 -66.813698 4.629257
45.519341 -67.433464 4.629822
45.531223 -68.037384 4.663963
45.248138 -66.249260 4.649937
45.292240 -66.847038 4.614677
45.097122 -67.468529 4.653980
45.130043 -68.065521 4.643227
44.842720 -66.285042 4.639248
44.886719 -66.880608 4.604229
44.692818 -67.499939 4.646114
44.709755 -68.097977 4.672108
44.454350 -66.316116 4.596264
44.466545 -66.918762 4.634338
44.289764 -67.531570 4.642345
44.307152 -68.127350 4.668747
44.035583 -66.357254 4.630173
44.063831 -66.952744 4.632225
43.887993 -67.563400 4.642643
43.905838 -68.156929 4.669456
43.633953 -66.393677 4.631748
43.662415 -66.986923 4.634174
43.487541 -67.595444 4.646984
43.521008 -68.183487 4.637341
39.287376 -67.727516 14.411234
39.388958 -68.146484 14.215284
43.073662 -67.631439 4.692329
39.379009 -69.023926 13.980900
43.118355 -68.214279 4.655228
39.028763 -67.741707 14.317104
39.048668 -68.184341 14.324057
38.931583 -68.634689 14.304676
42.708870 -67.655411 4.621353
39.063103 -69.049927 14.026220
42.724522 -68.243668 4.658615
38.787205 -67.750069 14.178923
42.476341 -66.490761 4.558693
38.754021 -68.209358 14.325174
38.648003 -68.655441 14.279497
38.770203 -69.071266 14.018906
42.324875 -68.274834 4.684544
38.634430 -67.727264 13.800938
38.453339 -68.236656 14.347832
38.378708 -68.672646 14.219688
38.526604 -69.081703 13.883606
37.695946 -67.982025 15.569256
37.834038 -68.364296 15.251705
37.933807 -68.738159 14.649498
38.281521 -69.092407 13.750307
37.318867 -68.043228 15.854227
37.463936 -68.416908 15.508142
37.487411 -68.806175 15.113045
37.982132 -69.115898 13.769537
37.031506 -68.073212 15.899549
37.712456 -67.820923 13.918447
37.180130 -68.442986 15.533855
37.123764 -68.852821 15.365381
37.584099 -69.163605 14.084219
37.358978 -67.871025 14.111353
36.746033 -68.519707 16.015032
36.565193 -68.957695 16.227007
36.731133 -69.324730 15.794714
36.372734 -68.167870 16.272816
36.865768 -67.976845 14.752115
36.367241 -68.580376 16.359810
36.217293 -69.003815 16.489407
36.525978 -69.329193 15.600706
36.068756 -68.207443 16.403360
36.497803 -68.037262 15.039337
35.968304 -68.650223 16.794479
36.126411 -68.973137 15.947559
36.457844 -69.298119 14.960840
35.692467 -68.277618 16.784109
36.286240 -68.036331 14.836876
36.665676 -67.882149 13.592546
35.731827 -68.664726 16.729971
36.458927 -68.405121 14.352175
35.986443 -68.955696 15.538715
36.012337 -69.364136 15.532064
35.500767 -68.273697 16.569353
36.201252 -67.981834 14.197807
36.212471 -68.416908 14.245209
35.675114 -68.991463 15.694242
35.642048 -69.412376 15.888811
35.871006 -68.028519 14.379221
35.923733 -68.444374 14.283745
35.388866 -69.020111 15.776400
35.390255 -69.429703 15.856569
35.536701 -68.078636 14.592896
35.591171 -68.489349 14.488052
35.081055 -69.056747 15.947914
35.104248 -69.456863 15.951639
35.650360 -69.302971 13.960917
35.245243 -68.111320 14.666248
39.021816 -66.405754 0.520714
35.165054 -68.572952 15.061092
39.046650 -67.036987 0.570389
34.822643 -69.077545 15.949331
34.807751 -69.487747 16.097797
35.356907 -69.329010 14.025187
34.992886 -68.126785 14.598200
38.625687 -66.438034 0.496201
35.274975 -68.442268 13.607059
38.656254 -67.066078 0.526943
34.523056 -69.113304 16.117268
35.155056 -68.889191 13.636290
34.674953 -69.470955 15.618982
35.072632 -69.352921 14.063339
34.732777 -68.145905 14.561277
38.213295 -66.478577 0.542805
34.996815 -68.465523 13.606602
38.251587 -67.101479 0.544952
34.269730 -69.133415 16.114187
34.870544 -68.914124 13.666365
34.500973 -69.465012 15.275970
37.855732 -66.493027 0.371090
34.730873 -68.483917 13.560349
34.596325 -68.935715 13.660349
34.148987 -69.513771 15.661732
34.528667 -69.394554 14.060442
34.341476 -68.118805 13.932817
34.460247 -68.504501 13.535849
34.315971 -68.960037 13.685993
34.280807 -69.408058 13.960640
34.029305 -68.163658 14.115208
34.157497 -68.540146 13.659519
34.098125 -68.959808 13.431931
34.063732 -69.411140 13.716759
33.764027 -68.184822 14.096651
33.942204 -68.535347 13.387091
36.684631 -67.226196 0.469734
33.851959 -68.970154 13.296444
33.869541 -69.405472 13.347502
34.831364 -69.073608 8.758953
33.528503 -68.189362 13.934380
35.657776 -66.979149 3.405483
36.244751 -66.645531 0.502972
33.663235 -68.560432 13.408710
36.302570 -67.253784 0.418369
33.611752 -68.977448 13.123873
34.504906 -69.101967 8.812767
35.079540 -68.896729 5.947010
33.337757 -68.166389 13.530033
35.876091 -66.665985 0.386723
33.424984 -68.565163 13.227739
35.907085 -67.288475 0.438782
33.346661 -68.995094 13.070662
33.418365 -69.412529 12.847576
33.115234 -68.159546 13.263575
33.155094 -68.585770 13.205210
33.038425 -69.032829 13.255098
33.124321 -69.440842 12.943573
32.835403 -68.187347 13.302198
32.861134 -68.620049 13.322327
32.820259 -69.028564 12.941721
34.054710 -68.979317 5.994328
34.903664 -68.639069 1.099033
32.584381 -68.196609 13.176710
34.715088 -66.761261 0.341290
32.650013 -68.607399 12.961187
34.737007 -67.387917 0.462776
34.541016 -68.037979 0.738026
33.808727 -68.967888 5.445305
34.626301 -68.625832 0.473679
32.351646 -68.192001 12.925632
34.322205 -66.798210 0.375629
34.326836 -67.434807 0.615475
34.186115 -68.054131 0.558361
34.237438 -68.657883 0.500633
31.681053 -68.511063 15.606766
32.052326 -68.234489 13.099146
32.073658 -68.671844 13.158804
33.925800 -67.477936 0.732681
33.811420 -68.080368 0.499992
32.759972 -69.191132 7.964973
33.871323 -68.680130 0.383011
31.776993 -68.260735 13.127859
31.803196 -68.694252 13.158152
31.704391 -69.130959 13.116150
32.436710 -69.219620 8.018345
31.484566 -68.302116 13.297092
31.534393 -68.715874 13.150040
31.445726 -69.145920 13.030148
31.515671 -69.555191 12.726198
31.228989 -68.313591 13.192751
31.250088 -68.749718 13.272787
31.164711 -69.175285 13.124535
31.229771 -69.584213 12.840210
31.050808 -68.250084 12.388983
31.086147 -68.686821 12.359327
32.446888 -67.570053 0.367847
31.002392 -69.121277 12.161173
31.247841 -68.945885 9.931488
30.956102 -69.607483 12.867607
31.261368 -69.430031 10.120209
30.782028 -68.266792 12.327820
30.828835 -68.693878 12.189186
30.744213 -69.129745 11.981939
30.978745 -69.446304 10.008381
30.514357 -68.281647 12.249172
30.547955 -68.721306 12.239248
30.484114 -69.137840 11.794895
30.552343 -69.558960 11.419315
30.717705 -69.447205 9.650536
30.260065 -68.279076 12.004360
31.258968 -67.058151 0.380920
30.294125 -68.721764 11.994186
31.316061 -67.653473 0.246841
30.207724 -69.158508 11.768970
30.483568 -69.424507 8.906849
30.886002 -67.081284 0.297649
30.928410 -67.693474 0.342171
29.959421 -69.150734 11.367599
30.169359 -68.938179 8.563465
30.785772 -68.314095 0.330059
30.017584 -69.581276 11.050869
30.182323 -69.447243 8.881241
30.508520 -67.109894 0.267223
30.549650 -67.724693 0.341621
29.914152 -68.905327 7.793976
29.906305 -69.447075 8.479820
29.417540 -68.370270 12.215820
30.126076 -67.146942 0.319527
29.744314 -68.380989 7.383831
30.169977 -67.757904 0.364273
29.599506 -68.933678 7.832726
30.029385 -68.376106 0.335705
29.627010 -69.444023 8.020798
29.178135 -68.323372 11.532902
29.748856 -67.176041 0.295734
29.796133 -67.782562 0.290791
29.293978 -68.949684 7.704899
29.651192 -68.408195 0.353466
29.357258 -69.420959 7.215034
29.370209 -67.208427 0.305054
29.416954 -67.816246 0.320068
29.275127 -68.437576 0.334686
28.874331 -69.686157 11.278759
29.069565 -69.405067 6.511028
29.324020 -69.038719 0.297012
28.992931 -67.238037 0.287857
29.040213 -67.845810 0.302898
28.897694 -68.470108 0.359058
28.595499 -69.705353 11.217312
28.946936 -69.070107 0.311455
28.615541 -67.267906 0.273956
28.663357 -67.875641 0.289021
28.521746 -68.499992 0.346851
28.317131 -69.721367 11.098408
28.570038 -69.102287 0.339165
28.238064 -67.298042 0.263344
28.286415 -67.905724 0.278431
28.145727 -68.530128 0.337929
28.070169 -69.609512 8.725788
28.194206 -69.132965 0.340237
27.860527 -67.328430 0.256035
27.909822 -67.931862 0.221306
27.769716 -68.559830 0.322315
27.765749 -69.650780 9.020775
27.482981 -67.360046 0.261974
27.532385 -67.966675 0.267113
27.393591 -68.591171 0.329929
27.465748 -69.675224 9.018890
27.442911 -69.193939 0.332249
27.105400 -67.389969 0.251301
27.155727 -68.000832 0.306263
27.017530 -68.622070 0.330856
27.067043 -69.223709 0.313198
26.728056 -67.422073 0.263832
26.778894 -68.031082 0.298862
26.801662 -69.166275 7.885963
26.641724 -68.653900 0.345039
26.844385 -69.667061 7.954758
26.562298 -68.178474 7.852184
26.349554 -67.449654 0.229900
26.604952 -68.681007 7.886833
26.491236 -69.191498 7.882168
26.534037 -69.690758 7.920994
26.251953 -68.206444 7.879639
26.294512 -68.707039 7.894375
26.181101 -69.217606 7.891060
26.224195 -69.716286 7.919888
25.938889 -68.228027 7.840172
25.981966 -68.729271 7.854836
25.871073 -69.243912 7.902653
25.914749 -69.742538 7.931458
25.627766 -68.254532 7.853172
25.671831 -68.756531 7.877769
25.561174 -69.270409 7.916958
25.603790 -69.767464 7.915821
25.312410 -68.274773 7.799324
25.358330 -68.779259 7.843712
25.243677 -69.289413 7.814465
25.291193 -69.791618 7.882977
25.003838 -68.305374 7.857525
25.048330 -68.806923 7.872078
24.933067 -69.316399 7.834244
24.981512 -69.818520 7.902695
24.689758 -68.328857 7.838978
24.734755 -68.830917 7.853451
24.622662 -69.343567 7.856739
24.665569 -69.841713 7.845482
24.371658 -68.348991 7.783520
24.417204 -68.852119 7.797859
24.308853 -69.368454 7.842186
24.352936 -69.867615 7.840820
24.064074 -68.380142 7.849850
24.110033 -68.882675 7.864201
23.994602 -69.393593 7.830399
24.042976 -69.895172 7.868736
23.747915 -68.403458 7.829693
23.790201 -68.903664 7.804268
23.679932 -69.418983 7.821396
23.724749 -69.919197 7.819901
23.424309 -68.421783 7.752968
23.470230 -68.925713 7.757114
23.363701 -69.444016 7.805260
23.408894 -69.944901 7.803688
23.108961 -68.447403 7.758263
22.154728 -67.774460 0.096729
23.154068 -68.950989 7.752430
23.049431 -69.470490 7.811741
23.094978 -69.971756 7.810104
22.792114 -68.472397 7.756454
21.785521 -67.815018 0.211643
22.833628 -68.974342 7.720875
22.728298 -69.494286 7.771534
22.774258 -69.996635 7.769787
22.480549 -68.501045 7.796921
21.462870 -67.882965 0.645359
22.522089 -69.002983 7.761337
22.417549 -69.522964 7.813274
22.463827 -70.025284 7.811489
22.164894 -68.527336 7.810551
21.001400 -67.867737 0.115917
22.205015 -69.028984 7.765064
22.095110 -69.547310 7.778778
22.147795 -70.052414 7.816383
20.654755 -67.919754 0.368572
21.887661 -69.055222 7.771606
21.776501 -69.573631 7.776764
21.831491 -70.079773 7.824093
20.258896 -67.945145 0.309547
21.568398 -69.081001 7.771133
21.454113 -69.599106 7.757923
21.508263 -70.105743 7.795219
19.833574 -67.957817 0.097153
21.238316 -69.102951 7.714573
21.129225 -69.624321 7.732166
21.177101 -70.130409 7.729931
19.739441 -68.119774 1.681740
20.926867 -69.132652 7.768955
19.502239 -68.605919 0.097885
20.810867 -69.651962 7.748619
20.822283 -70.150742 7.549870
19.476742 -68.197388 2.267063
20.585405 -69.151878 7.669365
19.105402 -68.635559 0.069321
20.438066 -69.665207 7.493614
20.502415 -70.179298 7.569397
19.065422 -68.211464 2.082405
20.213848 -69.162338 7.436131
19.141869 -68.808815 2.175877
18.713476 -68.667534 0.073730
20.157488 -69.703827 7.711819
20.206551 -70.212601 7.709240
18.698353 -68.244263 2.125980
19.964470 -69.213028 7.802025
18.327261 -68.701767 0.110950
19.846458 -69.734245 7.776012
19.895838 -70.242989 7.773361
18.320576 -68.273407 2.124157
17.864115 -68.109795 0.080910
19.647415 -69.241592 7.838303
17.932417 -68.733704 0.112656
19.518467 -69.760849 7.764961
19.576984 -70.272102 7.801186
17.461090 -68.138710 0.057323
19.314716 -69.265945 7.809345
17.534697 -68.765335 0.108223
19.180618 -69.785782 7.718037
19.230865 -70.297241 7.715073
17.066336 -68.171043 0.076237
17.136211 -68.797310 0.107445
18.850830 -69.813004 7.713112
18.910889 -70.326912 7.748859
16.659054 -68.199913 0.050373
16.732166 -68.828392 0.090950
18.530144 -69.842400 7.749977
18.581161 -70.355461 7.746750
16.227964 -68.222473 -0.058537
16.334585 -68.861671 0.107204
18.189220 -69.868309 7.712410
16.181627 -69.500641 0.049561
18.240692 -70.383003 7.709007
15.820155 -68.252937 -0.066948
15.902906 -68.887489 0.001766
17.857456 -69.896393 7.716656
15.801551 -69.538712 0.138737
17.919750 -70.413437 7.751701
16.804888 -68.662422 4.923927
16.789719 -69.205666 4.662064
15.508617 -68.922699 0.044846
17.538586 -69.926994 7.772072
15.389810 -69.571625 0.115826
17.588123 -70.442848 7.758774
16.388973 -68.676186 4.738632
14.965767 -68.305634 -0.196922
16.895216 -69.334015 6.300194
16.380466 -69.225395 4.505722
17.197712 -69.954292 7.753578
16.819214 -69.894753 6.448669
16.204155 -69.797997 4.328186
17.233753 -70.470154 7.692108
16.475817 -68.817146 6.259289
16.608692 -69.375046 6.516903
16.288233 -69.896965 5.843323
15.075719 -69.715454 1.794899
16.911758 -70.501366 7.743877
16.263088 -68.877724 6.717171
16.053658 -69.363594 5.847862
15.978974 -69.933800 5.998547
16.578161 -70.531662 7.760338
15.994253 -68.923218 6.976254
15.774432 -69.406937 6.099831
13.801779 -69.042465 -0.156429
15.653399 -69.968216 6.099197
16.231993 -70.561142 7.741798
15.320427 -68.878197 5.985367
15.387684 -69.430496 6.011951
15.577957 -70.034996 6.962208
15.869189 -70.589661 7.679092
14.644399 -68.838715 5.050686
14.798971 -69.420708 5.331383
15.283205 -70.071739 7.132637
15.651017 -70.630341 8.055885
14.430582 -68.899368 5.511078
14.408807 -69.446869 5.271969
14.957744 -70.104652 7.211056
15.304545 -70.660545 8.046425
14.317451 -68.977921 6.235546
14.070001 -69.481796 5.367096
12.133864 -69.180031 -0.102497
14.632751 -70.137741 7.292416
14.946991 -70.690384 8.012077
14.481344 -70.657394 6.702808
14.137205 -69.040527 6.743580
14.462546 -69.626144 7.473667
14.149839 -70.154129 6.945160
14.412930 -70.708969 7.502399
14.115623 -69.130043 7.653709
14.366360 -69.691605 8.167248
14.016001 -70.207710 7.548054
13.074771 -70.112053 5.051289
14.076382 -70.741806 7.551601
13.617362 -69.131691 7.285618
14.238351 -69.750160 8.747890
13.619493 -69.664955 7.134617
12.953988 -70.169670 5.727200
12.629081 -70.709869 4.721199
13.218117 -69.152435 7.192657
13.501225 -69.726227 7.757389
12.523088 -70.196754 5.594166
12.304099 -70.748016 4.879395
13.052466 -69.212349 7.686649
13.190858 -69.761024 7.879311
12.262136 -70.239700 5.891617
11.890630 -70.781624 4.817947
12.902027 -69.272865 8.199257
12.358141 -69.187096 6.890347
12.449974 -69.743355 6.960957
12.047580 -70.285988 6.292221
11.432779 -70.813721 4.659241
12.235456 -69.253014 7.481064
12.136650 -69.779877 7.101234
12.007778 -70.345329 7.088943
11.045439 -70.849838 4.680401
9.130398 -70.764709 0.181793
12.201741 -69.329849 8.254189
11.788843 -69.812469 7.161758
11.419531 -70.360939 6.601639
10.917023 -70.897034 5.301140
8.739212 -70.807152 0.305981
11.728602 -69.341515 8.013317
11.400366 -69.840942 7.134304
10.658182 -70.366127 5.756969
8.169512 -70.842949 0.031986
11.573783 -69.398293 8.486328
10.538458 -69.820992 6.074234
10.201834 -70.395386 5.622414
8.158697 -70.899681 1.001595
11.282274 -69.435524 8.651852
10.087143 -69.846367 5.950260
10.017876 -70.443283 6.081203
7.164854 -70.257751 -0.000267
7.253094 -70.925407 0.020485
10.337845 -69.389374 7.450535
9.757017 -69.884308 6.092930
6.684032 -70.295883 -0.039028
6.790436 -70.967300 0.017303
10.116796 -69.437813 7.788059
6.284227 -68.966209 -0.052643
6.387762 -69.643730 -0.004986
7.636168 -70.418526 2.853222
7.739813 -71.047920 2.911793
7.218042 -69.167267 2.757950
7.346067 -69.806267 2.862507
7.301878 -70.461700 3.062435
7.406397 -71.090431 3.120583
6.905052 -69.214478 3.014210
6.998070 -69.849014 3.046963
6.951523 -70.503960 3.238819
7.093327 -71.133369 3.367764
6.553459 -69.257034 3.193157
6.679434 -69.894089 3.287624
6.658356 -70.549072 3.524570
6.764565 -71.175911 3.581894
6.241020 -69.303711 3.445698
6.386890 -69.940964 3.574924
6.382763 -70.594727 3.838848
6.362820 -71.217171 3.657501
5.945744 -69.351814 3.726971
6.064470 -69.985229 3.802795
6.101509 -70.639771 4.137367
5.941755 -71.258476 3.701977
5.658634 -69.400291 4.019096
5.812174 -70.034325 4.155704
5.780094 -70.682861 4.359192
5.534458 -71.300362 3.777027
5.286385 -69.440109 4.156803
5.530029 -70.080803 4.449108
5.401672 -70.723663 4.479343
5.136726 -71.342690 3.873592
4.769941 -69.466660 4.047218
5.291290 -70.129761 4.813751
4.983612 -70.763245 4.533943
4.734043 -71.385277 3.965446
4.224583 -69.491692 3.900623
4.981293 -70.173676 5.050358
4.167847 -70.789742 3.921638
4.138355 -71.426888 3.733974
3.664705 -69.516670 3.743423
3.723112 -70.160828 3.703415
3.117741 -70.811089 2.952465
3.129957 -71.467598 2.832848
2.839207 -69.520744 3.167164
2.768324 -70.170212 2.912766
6.999683 -70.980431 10.046795
0.681824 -70.794998 -0.224216
6.760880 -71.524193 9.542637
0.839489 -71.507225 -0.116856
0.476313 -69.403831 0.162636
0.365292 -70.103928 -0.163223
7.480560 -71.038811 11.454201
6.731503 -71.018471 10.259796
7.622858 -71.563362 11.572849
0.277002 -71.555832 -0.180363
0.143330 -69.456009 0.464977
5.143839 -70.420692 8.189823
-0.157747 -70.145569 -0.154613
5.221378 -71.025406 8.528854
-0.352928 -70.886047 -0.190678
7.363148 -71.599312 11.772207
-0.104740 -69.514229 0.895531
4.870604 -70.462326 8.435043
-0.845552 -70.933067 -0.123413
7.089079 -71.635307 11.948540
-0.363907 -69.570892 1.302185
6.378550 -70.587578 11.377285
4.539398 -70.501060 8.590595
-1.258879 -70.228317 -0.194988
6.277496 -71.139565 11.419788
4.595989 -71.104462 8.887421
-1.322474 -70.980911 -0.025860
6.584785 -71.672340 11.777025
5.602552 -70.059227 10.929394
-0.813665 -69.613655 1.420242
5.665276 -70.605057 10.914410
6.039328 -71.177277 11.663200
6.920248 -71.705261 12.863874
6.492022 -70.175339 12.824520
4.533346 -70.044373 9.975311
6.473742 -70.689072 12.696459
6.274837 -71.222885 12.591696
6.678383 -71.740601 13.077051
6.289217 -70.215218 13.097404
6.304390 -70.728912 13.019184
5.085583 -70.679878 11.273052
6.243265 -71.262573 13.112700
6.415752 -71.776123 13.259371
5.004362 -70.187759 11.850111
3.953951 -70.122734 10.377525
5.478661 -70.743324 12.413673
5.445465 -71.291275 12.550163
6.770023 -71.805130 14.307108
4.242579 -70.196243 11.374809
4.805056 -70.765564 12.046976
6.649879 -71.344810 14.763601
4.759998 -71.323204 12.168993
6.629721 -71.838356 14.642380
4.986626 -70.293060 12.959146
5.007620 -70.819153 12.888628
6.073952 -71.375969 14.504087
4.530987 -71.361046 12.423908
6.142935 -71.876030 14.503506
4.716055 -70.329453 13.147135
4.892891 -70.860703 13.284668
5.660751 -71.409576 14.475889
5.580040 -71.915611 14.275099
4.647816 -70.376480 13.599249
3.656292 -70.324226 12.306561
4.631538 -70.897255 13.481842
5.312531 -71.444160 14.539911
5.273207 -71.951904 14.395597
4.013622 -70.394005 13.317652
4.328939 -70.932632 13.626070
3.481405 -70.908875 12.537254
5.185726 -71.480110 14.891291
5.299036 -71.982452 14.944942
4.212559 -70.453407 14.101122
4.902739 -70.991089 14.878269
4.826525 -71.514984 14.945541
5.500647 -72.008919 15.703039
4.549004 -72.027260 14.505146
3.480164 -70.467674 13.713333
4.165632 -71.014580 14.468355
4.107512 -71.549706 14.561249
5.204422 -72.044510 15.825689
3.152414 -70.501762 13.837587
0.623053 -70.389610 10.766731
3.901985 -71.050484 14.656443
3.915024 -71.585861 14.835072
4.222404 -72.095345 15.117649
2.587421 -70.526009 13.681877
3.383394 -71.081116 14.540041
3.584000 -71.622093 14.941658
4.530016 -72.118210 15.980600
3.592525 -72.139969 14.861567
2.342356 -70.564331 13.914000
2.174343 -71.099480 13.623123
0.936991 -71.075867 12.168306
3.292076 -71.658470 15.097464
3.624706 -72.169434 15.398029
2.191229 -70.606171 14.253832
2.276119 -71.143852 14.259853
2.127857 -71.698952 14.253038
2.878029 -72.218292 15.025551
1.951452 -70.644302 14.489208
2.043341 -71.181755 14.502398
1.451202 -71.739166 13.995680
1.831976 -72.276497 14.334242
1.720564 -70.682648 14.733992
1.959732 -71.221687 14.910612
1.125423 -71.209885 13.979864
0.821793 -71.780251 13.807346
1.012760 -72.330307 13.926794
0.702408 -70.694794 14.117655
1.712831 -71.259026 15.133417
0.567228 -71.244629 13.877476
2.769329 -71.799911 16.442839
1.626980 -71.809868 15.197432
2.761896 -72.310257 16.350040
1.347610 -70.761734 15.316883
-0.042194 -70.718147 13.824186
2.127760 -71.303635 16.069315
0.352253 -71.284073 14.156389
-1.089922 -71.268181 12.602591
2.358673 -71.837402 16.468904
2.487314 -72.347275 16.522686
1.867195 -70.821823 16.350288
2.350985 -71.344398 16.777767
1.925983 -71.875633 16.478355
2.028301 -72.390282 16.502073
1.410473 -70.851982 16.343214
2.286638 -71.381470 17.170242
1.358164 -71.374039 16.204071
0.963501 -71.921127 15.946821
-1.176712 -71.948273 13.732063
1.268845 -72.443672 16.177847
0.321621 -70.866150 15.699648
0.689152 -71.408012 15.988857
0.270390 -71.964745 15.715261
-0.893396 -71.980995 14.531651
1.320698 -72.470863 16.700180
-0.869686 -72.544922 14.465530
0.102575 -70.904533 15.957609
0.395350 -71.445129 16.166061
-1.057560 -71.437714 14.705719
0.016886 -72.002838 15.939077
-1.786545 -72.030281 14.136469
0.758379 -72.518921 16.596661
-1.175930 -72.586418 14.657204
-0.327738 -70.937889 16.006836
-2.044668 -70.898125 14.316074
-0.146364 -71.481476 16.100353
-1.768400 -71.475487 14.498058
0.114761 -72.035210 16.508593
-2.089409 -72.071472 14.343311
-0.014143 -72.575310 16.297476
-2.605736 -70.931854 14.274389
-2.786280 -71.513817 14.008060
-0.175217 -72.073647 16.692350
-1.268654 -72.092957 15.636686
-0.262402 -72.613495 16.524395
-3.111750 -70.967575 14.295412
-1.391047 -71.556496 15.846197
-3.518145 -71.554489 13.816654
-0.413269 -72.111259 16.927326
-1.639116 -72.134377 15.764194
-0.458088 -72.649765 16.801855
-2.760641 -72.737381 14.610283
-3.853371 -70.999603 14.104553
-3.861637 -71.596268 14.005156
-3.918150 -72.214363 14.116280
-3.257154 -72.787758 14.642941
-4.387005 -71.036575 14.120581
-4.248283 -71.638329 14.156769
-4.178423 -72.256310 14.384033
-1.010504 -72.728752 17.205343
-5.761370 -71.061096 13.386524
-4.997824 -71.681808 13.983986
-1.241585 -72.226906 17.531301
-4.525553 -72.300247 14.573841
-1.199299 -72.764893 17.488390
-6.896460 -71.092140 12.899805
-4.968321 -71.723198 14.520117
-7.396093 -71.733604 12.359486
-4.931643 -72.345802 14.714516
-5.989668 -72.994537 13.685219
-8.404203 -71.120766 12.115162
-5.097574 -71.764732 14.908705
-7.453653 -71.777786 12.848211
-5.601725 -72.398216 14.630472
-7.216246 -72.437874 13.226425
-6.411409 -73.045143 13.833712
-20.331926 -71.032852 2.441833
-5.366613 -71.806900 15.173542
-6.032404 -72.445442 14.763809
-7.392977 -72.480347 13.601177
-7.113810 -73.108482 13.746679
-21.061098 -71.090042 2.542763
-7.635263 -71.865082 13.750660
-6.340712 -72.489807 15.005367
-20.819876 -72.876823 2.848389
-7.506792 -73.158836 13.933662
-20.562769 -73.745316 2.937119
-21.399057 -71.151588 2.978329
-21.066965 -72.030701 3.126259
-20.814646 -72.927994 3.563026
-7.791307 -73.204544 14.214485
-20.549093 -73.789520 3.656948
-21.399355 -71.215538 3.687878
-21.073603 -72.088165 3.827763
-20.777365 -72.977539 4.293423
-20.518820 -73.832382 4.379803
-20.672003 -71.283035 4.968353
-20.408251 -72.137047 5.057644
-20.519907 -73.019753 5.188309
-20.315680 -73.866432 5.230114
-21.271769 -71.341125 5.178051
-21.053514 -72.200218 5.228161
-21.140421 -73.087914 5.379829
-20.903357 -73.938034 5.444790
-21.926931 -71.399582 5.352596
-21.699354 -72.264076 5.407047
-21.816664 -73.158478 5.536682
-21.569986 -74.014107 5.605865
-22.534819 -71.458862 5.571880
-22.345686 -72.328621 5.594326
-22.429937 -73.227699 5.750656
-22.165697 -74.087303 5.830017
-23.222837 -71.518623 5.739258
-22.984388 -72.393707 5.796009
-23.067240 -73.298332 5.954639
-22.857382 -74.165985 5.990223
-23.911646 -71.579155 5.915791
-23.663622 -72.460144 5.976460
-23.517664 -74.243774 6.183258
-24.625536 -71.640465 6.084019
-24.375937 -72.527916 6.142586
-25.274874 -71.702446 6.307892
-24.982943 -72.594452 6.393280
-25.932413 -71.765099 6.534595
-25.679850 -72.663376 6.589130
-26.385508 -72.733238 6.788746
27.363571 -71.596130 43.360577
27.317228 -71.595688 43.341038
27.344107 -71.597694 43.354683
27.289873 -71.601448 43.329185
27.341913 -71.594803 43.358635
27.333307 -71.598732 43.353920
27.350271 -71.597748 43.364674
27.304064 -71.597153 43.345123
27.322424 -71.599800 43.353500
27.339216 -71.595459 43.364273
27.357595 -71.597534 43.372528
27.302025 -71.597656 43.349537
27.320530 -71.600273 43.357597
27.301035 -71.597908 43.351757
27.346922 -71.598572 43.371922
27.345821 -71.595589 43.373978
27.327847 -71.600082 43.365734
27.345343 -71.598984 43.375587