# This PCD file was generated using the MATLAB® pcwrite function
# from Computer Vision System Toolbox®.
# .PCD v.7 - Point Cloud Data file format
VERSION .7
FIELDS x y z
SIZE 4 4 4
TYPE F F F
COUNT 1 1 1
WIDTH 904
HEIGHT 1
VIEWPOINT 0 0 0 1 0 0 0
POINTS 904
DATA ascii
9.972195 31.540457 0.105040
9.296240 31.060360 0.069941
9.867710 30.758007 0.311613
9.240145 30.546722 0.031723
9.833914 30.411577 0.117014
9.184986 30.042028 -0.006735
9.777590 29.929235 0.058065
9.119472 29.468512 0.031437
9.696683 29.300398 0.152344
8.972240 28.338203 0.642931
9.611227 28.647696 0.283621
8.931565 27.942352 0.530323
9.494726 27.812805 0.616459
8.907902 27.663666 0.300142
9.428123 27.280935 0.652662
8.903009 27.512609 -0.065205
9.424534 27.125668 0.297373
8.829468 26.898537 0.067026
9.395329 26.818289 0.103292
8.780001 26.449396 0.030811
9.352201 26.429691 0.000711
8.714602 25.895872 0.119053
9.294219 25.955622 -0.000828
8.669022 25.477108 0.064953
9.267685 25.666731 -0.205853
8.639019 25.163309 -0.104820
9.203918 25.162748 -0.159298
8.593156 24.745819 -0.149752
9.150217 24.719313 -0.174582
8.559798 24.412212 -0.289228
9.102011 24.309347 -0.222658
8.513698 23.996387 -0.324884
9.057020 23.919361 -0.288982
8.467525 23.581907 -0.355562
9.020676 23.579834 -0.412889
8.398471 23.021107 -0.193527
8.932921 22.951565 -0.165684
8.336267 22.507639 -0.079128
8.883456 22.541985 -0.185316
8.275168 22.004045 0.034031
8.776854 21.815840 0.220005
8.230086 21.605370 0.017994
8.740493 21.484200 0.117151
8.198859 21.296377 -0.113890
8.708215 21.175983 -0.014288
8.126024 20.725426 0.121300
8.660902 20.786123 -0.029455
8.021595 19.959455 0.649042
8.533621 19.962851 0.578066
7.994164 19.680433 0.500065
8.507648 19.694363 0.412113
8.027673 19.780960 -0.206495
8.532280 19.698004 -0.154829
9.039117 19.557144 -0.303036
9.547123 19.488443 -0.272457
8.008210 19.550360 -0.436382
8.515734 19.478556 -0.401093
9.001263 19.232147 -0.391071
9.492097 19.098480 -0.261044
7.961768 19.153793 -0.414457
8.465976 19.082481 -0.379227
8.948175 18.837254 -0.367193
9.438378 18.715683 -0.253435
7.925905 18.823748 -0.488512
8.420315 18.709826 -0.386250
8.891660 18.428431 -0.313517
9.387244 18.345171 -0.258188
7.878567 18.424986 -0.449497
8.378676 18.359762 -0.422762
8.856993 18.121559 -0.415392
9.351499 18.038723 -0.359955
7.843397 18.101692 -0.524513
8.343993 18.047106 -0.514763
8.822144 17.814425 -0.514198
9.310465 17.711435 -0.424734
7.790070 17.670252 -0.417194
8.295190 17.662352 -0.484346
8.783723 17.491789 -0.584339
9.279466 17.425058 -0.554300
7.764142 17.404861 -0.578838
8.257311 17.335350 -0.543711
8.733931 17.119263 -0.565361
9.229301 17.062965 -0.552607
7.731177 17.098015 -0.669247
8.222265 17.023743 -0.625492
8.686392 16.758387 -0.559423
9.182894 16.717102 -0.572735
7.691357 16.751535 -0.687353
8.181220 16.682615 -0.652231
8.642180 16.413612 -0.575485
9.136440 16.372301 -0.589117
7.644034 16.362396 -0.623423
8.130445 16.293995 -0.588371
8.597929 16.069942 -0.587835
9.084987 16.009523 -0.566978
7.607485 16.037928 -0.668673
8.096081 15.988895 -0.668577
8.553643 15.727409 -0.596483
9.038488 15.667265 -0.575777
7.571656 15.718719 -0.719360
8.051092 15.632139 -0.649193
8.513675 15.404598 -0.636629
8.996861 15.344652 -0.616037
7.521222 15.316578 -0.607916
8.005180 15.272417 -0.617062
8.456364 15.009450 -0.532093
8.925943 14.913676 -0.441135
7.482141 14.981425 -0.615904
7.963056 14.932695 -0.616413
8.399223 14.617401 -0.422951
8.884339 14.594146 -0.473791
7.439081 14.625006 -0.575817
7.913489 14.558561 -0.540924
8.363521 14.316586 -0.487547
8.828249 14.222661 -0.396282
7.404678 14.318910 -0.630222
7.874168 14.235188 -0.559559
8.327685 14.015860 -0.549191
8.588558 13.190311 1.062998
8.794950 13.935602 -0.484531
7.370934 14.017394 -0.690582
7.843010 13.951442 -0.655668
8.077130 12.844316 1.235462
8.294864 13.727996 -0.634861
8.531596 12.827569 1.172728
7.331704 13.686300 -0.684832
7.800808 13.616477 -0.640928
8.056216 12.614127 1.070021
8.501883 12.563340 1.079147
7.290950 13.348132 -0.657499
7.592818 12.515470 1.052473
7.756822 13.274630 -0.604536
8.005101 12.263479 1.169342
8.490677 12.363729 0.843073
7.126573 12.337316 0.874285
7.245729 12.987052 -0.572002
7.546839 12.173534 1.135569
8.031832 12.220569 0.580822
8.495266 12.216979 0.480955
7.077626 11.963357 1.033394
7.515946 11.901929 1.067299
8.020965 12.026841 0.319788
8.431206 11.833988 0.657803
7.045071 11.679604 0.995159
7.538922 11.872636 0.433535
7.989489 11.752523 0.243353
8.421196 11.635370 0.408415
7.050081 11.596284 0.481215
7.541724 11.749021 0.000385
7.961836 11.492985 0.132635
8.398215 11.392099 0.261436
7.050538 11.486162 0.012697
7.500135 11.427550 0.037884
7.926048 11.202960 0.098120
8.361422 11.103154 0.227240
7.032420 11.276665 -0.224432
7.472122 11.166453 -0.069477
7.890171 10.913307 0.066412
8.324540 10.814584 0.195845
6.987294 10.926930 -0.106754
7.404550 10.735704 0.262346
7.854208 10.624053 0.037504
8.287575 10.526414 0.167240
6.953398 10.636607 -0.134562
7.399684 10.574879 -0.100101
7.814317 10.321416 0.048733
8.241726 10.211205 0.216042
6.916017 10.329492 -0.112757
7.360515 10.268095 -0.078320
7.763933 9.982809 0.166025
8.222136 9.978195 0.043509
6.873944 10.000103 -0.022114
7.311633 9.922421 0.059212
7.738295 9.732629 0.042671
8.179455 9.674381 0.069931
6.834667 9.686290 0.034323
7.271799 9.615932 0.096920
7.701166 9.442674 0.034533
8.137869 9.375076 0.089985
6.798736 9.390306 0.046713
7.249439 9.380977 -0.070101
7.664917 9.156539 0.019743
8.100547 9.089384 0.075232
6.775047 9.154604 -0.118101
7.214192 9.094319 -0.083693
7.621269 8.846620 0.083544
8.064219 8.807273 0.053738
6.735114 8.840940 -0.043392
7.171918 8.781058 -0.009026
7.584972 8.562283 0.074434
8.021537 8.507927 0.091915
6.698422 8.544122 -0.013144
7.136637 8.496303 -0.016914
7.548623 8.278555 0.068031
7.984078 8.224313 0.085432
6.664221 8.260068 -0.018217
7.099036 8.203609 0.006569
7.512223 7.995461 0.064327
7.942459 7.930228 0.119856
6.629971 7.976658 -0.020596
7.062936 7.917597 0.013741
7.475777 7.713027 0.063311
7.904942 7.648238 0.118858
6.598669 7.707442 -0.068333
7.030494 7.645860 -0.024374
7.442770 7.441788 0.026529
7.875451 7.387811 0.043728
6.559574 7.404014 0.011585
6.992843 7.355924 0.007385
7.402761 7.150234 0.069284
7.834778 7.098968 0.076748
6.525230 7.122941 0.017290
6.956648 7.072251 0.022644
7.370455 6.882228 0.027977
7.796107 6.816245 0.093264
6.492561 6.849974 -0.003391
6.921855 6.794361 0.021252
7.330445 6.592751 0.076185
7.762323 6.546240 0.064121
6.460926 6.582011 -0.040964
6.889110 6.524130 -0.006636
7.297142 6.323068 0.049606
7.725524 6.269520 0.066505
6.426414 6.302573 -0.027527
6.853504 6.244947 0.006794
7.259624 6.042476 0.074070
7.682916 5.980295 0.129723
6.391340 6.021750 -0.001732
6.819913 5.973132 -0.006371
7.226169 5.773499 0.052486
7.648943 5.711696 0.108175
6.358920 5.752518 -0.022097
6.786914 5.703748 -0.026802
7.193420 5.506740 0.023584
7.618639 5.451358 0.050072
6.326927 5.485504 -0.049797
6.753820 5.434551 -0.044792
7.156595 5.230236 0.045959
7.584438 5.182795 0.033321
6.291756 5.206848 -0.016329
6.718686 5.159773 -0.030977
7.122108 4.960239 0.041523
7.546463 4.907044 0.058136
6.261607 4.947889 -0.078384
6.685442 4.891269 -0.044050
7.088328 4.692439 0.029736
7.513037 4.641048 0.036507
6.226362 4.670565 -0.039894
6.651483 4.621257 -0.044878
7.058278 4.433397 -0.028761
7.482210 4.380188 -0.012188
6.193540 4.402823 -0.048050
6.616222 4.348341 -0.023577
7.021272 4.159263 0.003563
7.443203 4.104567 0.029892
6.161109 4.136982 -0.063656
6.585208 4.087352 -0.068750
6.989467 3.896816 -0.030567
7.416550 3.851251 -0.063314
6.129964 3.875848 -0.106503
6.551641 3.819982 -0.072161
6.953132 3.625526 -0.003172
7.377451 3.576774 -0.016331
6.096412 3.607191 -0.097622
6.520354 3.558621 -0.112696
6.921840 3.364599 -0.042467
7.343544 3.311537 -0.026054
6.063689 3.341764 -0.106119
6.484287 3.286278 -0.071783
6.886839 3.096997 -0.030005
7.308698 3.045244 -0.023527
6.032167 3.080333 -0.141979
6.452780 3.024968 -0.107626
6.853195 2.832329 -0.034943
7.273786 2.779341 -0.018610
5.997144 2.809197 -0.096172
6.418336 2.757572 -0.091593
6.821541 2.571199 -0.067268
7.238810 2.513849 -0.011314
5.965003 2.546809 -0.117426
6.386588 2.496139 -0.122791
6.789742 2.309812 -0.097301
7.207049 2.252771 -0.041309
5.933539 2.286358 -0.156246
6.355235 2.235447 -0.161633
6.757802 2.048189 -0.125036
7.175147 1.991457 -0.069016
5.899586 2.019994 -0.133087
6.321088 1.969848 -0.148464
6.719790 1.778780 -0.060991
7.143106 1.729928 -0.094419
5.867487 1.758449 -0.157337
6.288435 1.707178 -0.162790
6.690913 1.521295 -0.133812
7.110929 1.468201 -0.117531
5.834153 1.494479 -0.149395
6.254154 1.442307 -0.144918
6.655416 1.256085 -0.104832
7.078618 1.206299 -0.138342
5.801819 1.232841 -0.169029
6.221803 1.180532 -0.164566
6.626168 0.997403 -0.173126
7.046175 0.944240 -0.156853
5.769354 0.971056 -0.186365
6.189321 0.918610 -0.181911
6.591135 0.733261 -0.149458
7.010584 0.680133 -0.133219
5.736762 0.709146 -0.201401
6.155293 0.655152 -0.167021
6.557878 0.470921 -0.153368
6.971976 0.415035 -0.067387
5.704045 0.447129 -0.214136
6.123978 0.394408 -0.209696
6.520949 0.206722 -0.095108
6.936351 0.152445 -0.039066
5.672144 0.185969 -0.254539
6.091121 0.132167 -0.220133
6.485804 -0.055633 -0.064440
6.903582 -0.108656 -0.048311
5.639152 -0.076460 -0.262678
6.052858 -0.132665 -0.108410
6.452920 -0.316755 -0.071390
6.870693 -0.369813 -0.055264
5.601093 -0.341340 -0.098597
6.018177 -0.394476 -0.074259
6.419921 -0.577913 -0.076044
6.834887 -0.631188 -0.020016
5.569455 -0.602097 -0.152084
5.987235 -0.655285 -0.127718
6.384603 -0.838992 -0.038469
6.285955 -0.861202 7.439753
6.803883 -0.892175 -0.052303
5.535442 -0.863472 -0.123310
5.952404 -0.916522 -0.088968
6.349261 -1.099376 0.001406
6.267793 -1.058602 7.339941
6.765915 -1.152401 0.017464
5.503191 -1.125143 -0.162212
5.920326 -1.178005 -0.117859
6.320253 -1.361406 -0.076242
6.735337 -1.413749 -0.020214
5.468770 -1.385834 -0.118851
5.886919 -1.439307 -0.114479
6.286816 -1.622510 -0.071718
6.707192 -1.676950 -0.095486
5.435276 -1.646945 -0.113178
5.853782 -1.700865 -0.118795
6.243132 -1.876155 0.134703
6.671021 -1.936824 -0.048773
5.399881 -1.904960 -0.025291
5.817251 -1.958962 -0.030937
6.219633 -2.144510 -0.055790
6.665282 -2.218667 -0.478277
5.368839 -2.170785 -0.134901
5.787489 -2.224741 -0.130499
6.203832 -2.425449 -0.413403
6.633538 -2.485603 -0.506565
5.332776 -2.425905 -0.012520
5.752271 -2.483783 -0.078011
6.109909 -2.610098 0.856548
6.594265 -2.745345 -0.412966
5.301836 -2.695557 -0.147379
5.719686 -2.747239 -0.103050
6.138012 -2.957459 -0.443136
6.562285 -3.012358 -0.436583
5.275686 -2.988625 -0.568974
5.699972 -3.041621 -0.534414
6.105765 -3.225609 -0.474386
6.530124 -3.279896 -0.457832
5.242213 -3.259154 -0.618973
5.666255 -3.308844 -0.544548
6.072875 -3.493548 -0.493296
6.495471 -3.544317 -0.436935
5.206290 -3.518152 -0.527122
5.631790 -3.574561 -0.532404
6.039809 -3.761971 -0.509819
6.465265 -3.816467 -0.493189
5.172631 -3.790458 -0.582314
5.598925 -3.846234 -0.577589
6.004899 -4.026616 -0.484213
6.428130 -4.076835 -0.427876
5.137630 -4.055360 -0.555506
5.563906 -4.111274 -0.550768
5.971531 -4.295600 -0.495985
6.397532 -4.350235 -0.479315
5.102920 -4.323469 -0.556171
5.528806 -4.376058 -0.521616
5.937993 -4.565006 -0.505354
6.364542 -4.619744 -0.488644
5.068285 -4.594296 -0.574289
5.494881 -4.646854 -0.539724
5.904286 -4.834812 -0.512314
6.331384 -4.889654 -0.495565
5.033362 -4.864358 -0.580061
5.461243 -4.920898 -0.575216
5.870415 -5.104997 -0.516859
6.300099 -5.165628 -0.539612
4.998274 -5.134788 -0.583414
5.426691 -5.191537 -0.578529
5.837820 -5.381498 -0.558508
6.264575 -5.430588 -0.502153
4.962328 -5.392091 -0.495356
5.390034 -5.448888 -0.490473
5.803928 -5.654294 -0.568018
6.232876 -5.707940 -0.541248
4.927287 -5.668752 -0.533461
5.355469 -5.721029 -0.498913
5.769181 -5.924253 -0.555357
6.199026 -5.979577 -0.538414
4.892160 -5.951405 -0.598602
5.321880 -6.003759 -0.564022
5.733325 -6.189095 -0.510754
6.165020 -6.251506 -0.533136
4.856631 -6.232026 -0.641407
5.287613 -6.284422 -0.606804
5.701174 -6.475501 -0.581736
6.132669 -6.531099 -0.564678
4.820679 -6.504567 -0.632454
5.252230 -6.556917 -0.597857
5.666269 -6.748187 -0.571531
6.098313 -6.803887 -0.554434
4.784597 -6.779267 -0.630856
5.217330 -6.837413 -0.625683
5.630054 -7.013095 -0.519690
6.063809 -7.076901 -0.541727
4.748328 -7.050337 -0.607166
5.181751 -7.112724 -0.621532
5.597135 -7.302559 -0.582834
6.030828 -7.358531 -0.565622
4.711903 -7.342355 -0.678827
5.146409 -7.394729 -0.644197
5.561747 -7.576196 -0.565157
5.997612 -7.641021 -0.586897
4.675324 -7.607764 -0.620798
5.110215 -7.666606 -0.615458
5.526219 -7.849993 -0.544998
5.962586 -7.915257 -0.566622
4.638404 -7.897520 -0.667583
5.074464 -7.949858 -0.632954
5.492505 -8.142639 -0.600111
5.928951 -8.199054 -0.582705
4.601569 -8.165125 -0.614393
5.037784 -8.217365 -0.579786
5.457539 -8.427052 -0.613613
5.895088 -8.483636 -0.596130
4.564118 -8.459051 -0.665533
5.002009 -8.511392 -0.630898
5.421465 -8.702200 -0.585739
5.859562 -8.758885 -0.568214
4.526596 -8.744346 -0.675116
4.965839 -8.804309 -0.669491
5.386932 -8.998141 -0.632610
5.826684 -9.055064 -0.614973
4.488851 -9.030365 -0.682014
4.928988 -9.082764 -0.647358
5.350506 -9.274072 -0.599539
5.789466 -9.320329 -0.543360
4.451228 -9.306363 -0.647676
4.892147 -9.369514 -0.651550
5.314698 -9.561052 -0.602394
5.756102 -9.618242 -0.584637
4.412705 -9.604478 -0.687702
4.855212 -9.665281 -0.681847
5.278501 -9.845857 -0.592951
5.720867 -9.903197 -0.575123
4.373874 -9.903906 -0.724810
4.817934 -9.956470 -0.690119
5.243085 -10.148672 -0.638203
5.687245 -10.206265 -0.620255
4.335701 -10.181189 -0.682499
4.780331 -10.233710 -0.647821
5.205989 -10.425874 -0.594635
5.651853 -10.495657 -0.614756
4.296884 -10.470454 -0.675789
4.742661 -10.535128 -0.679228
5.170441 -10.740062 -0.662651
5.615975 -10.782531 -0.597006
4.257284 -10.772668 -0.704353
4.704690 -10.837775 -0.707664
5.132853 -11.014910 -0.604193
5.580447 -11.076173 -0.595495
4.217387 -11.076084 -0.729935
4.666491 -11.128850 -0.695213
5.096674 -11.331755 -0.666161
5.475791 -10.481229 1.978437
5.546719 -11.396670 -0.666735
4.177194 -11.380675 -0.752508
4.628004 -11.430273 -0.708319
5.028729 -10.636831 2.140985
5.059694 -11.637076 -0.687183
5.510163 -11.685635 -0.640495
4.139040 -11.643005 -0.649548
4.600199 -10.836281 1.796543
4.589576 -11.705820 -0.643106
5.021784 -11.919621 -0.639389
5.406110 -10.969188 2.139647
5.474354 -11.988646 -0.649073
4.145053 -11.114241 1.625925
4.097081 -11.972743 -0.732204
4.566854 -10.952881 2.232246
4.550120 -12.042915 -0.744402
4.961282 -11.216048 2.052917
4.984388 -12.230107 -0.663910
5.372442 -11.231467 2.172009
4.122032 -11.142256 2.297722
4.056497 -12.273193 -0.727104
4.529211 -11.344266 1.919069
4.511264 -12.322725 -0.682985
4.926108 -11.457798 2.144066
5.337186 -11.468766 2.272163
4.074708 -11.589297 1.847776
4.493913 -11.583385 2.021135
4.890934 -11.698735 2.237339
5.302149 -11.708769 2.365076
4.039155 -11.832431 1.943134
4.458200 -11.839919 2.078785
4.855941 -11.953796 2.295631
5.267846 -11.962968 2.423035
4.003605 -12.074716 2.040628
4.422797 -12.081209 2.175879
4.820632 -12.181919 2.420992
5.232770 -12.201619 2.520292
3.978811 -12.151756 2.537451
4.388405 -12.287065 2.358183
4.785526 -12.432085 2.493008
5.197703 -12.439405 2.619646
3.940120 -12.443498 2.508904
4.355469 -12.451400 2.633986
4.750333 -12.669909 2.594849
5.163236 -12.692286 2.684427
3.953621 -11.972093 4.243862
3.904667 -12.684807 2.602602
4.316639 -12.799821 2.479860
4.715154 -12.906829 2.698778
5.128146 -12.928606 2.788094
3.874911 -12.844148 2.881134
4.306403 -12.340028 4.146465
4.282602 -13.000835 2.667559
4.682260 -12.493464 4.234209
4.679934 -13.159370 2.768375
5.093568 -13.180617 2.857456
3.894027 -12.324850 4.643396
3.809980 -13.496290 2.068605
4.263710 -12.808665 3.711470
4.646996 -13.032285 3.656492
5.058467 -13.415392 2.965416
3.838403 -12.855821 4.074638
3.774497 -13.728895 2.198856
3.672927 -15.116535 -0.782457
4.237031 -12.853561 4.206535
4.211299 -13.493224 2.838957
4.609537 -13.633446 2.977880
5.023890 -13.670759 3.030323
3.810546 -13.002228 4.343565
3.627565 -15.455136 -0.809477
4.203370 -13.080636 4.303535
4.163845 -14.016829 2.346275
4.581035 -13.281274 4.295494
4.574480 -13.858216 3.108273
4.989130 -13.921541 3.106649
3.790112 -13.053047 4.801817
3.584825 -15.755901 -0.751995
4.152262 -13.702207 3.594212
4.120662 -14.418103 2.130180
4.059205 -15.810369 -0.717051
4.534956 -14.410859 2.577826
4.950224 -13.935301 3.659550
3.536770 -16.123520 -0.825781
4.124541 -13.782702 4.002817
4.014759 -16.169373 -0.772888
4.513143 -13.774327 4.418036
4.495309 -14.878575 2.242279
4.920916 -14.526437 3.061472
3.666724 -14.220458 3.576899
3.491058 -16.457293 -0.824160
4.090453 -14.007140 4.117002
3.970942 -16.507713 -0.780226
4.474428 -14.271491 3.999060
4.886178 -14.819374 3.065956
3.625007 -14.535858 3.526876
3.444667 -16.796776 -0.827871
4.050902 -14.341527 4.020424
3.926104 -16.861183 -0.810545
4.440423 -14.482055 4.143600
4.428748 -15.048221 3.074291
4.386876 -17.078930 -0.761076
4.851256 -15.122634 3.055872
3.631770 -14.249253 4.619287
3.574166 -14.960776 3.277342
3.398323 -17.132797 -0.819120
4.025025 -14.401276 4.448349
3.880864 -17.216333 -0.836987
4.401224 -14.924127 3.858850
4.344442 -17.420631 -0.759237
4.818470 -15.813622 2.337242
3.607152 -14.358723 4.940134
3.444647 -16.337667 1.284595
3.350112 -17.488880 -0.841944
3.836236 -17.554020 -0.824392
4.361951 -15.333465 3.649929
4.349250 -15.845560 2.721920
4.301921 -17.753839 -0.736219
4.781277 -15.941182 2.669456
3.544089 -14.932436 4.412672
3.514319 -15.290058 3.765509
3.476906 -15.739499 2.952181
3.892680 -16.029818 2.548134
3.790778 -17.902405 -0.825682
4.311844 -16.120342 2.784046
4.258205 -18.122217 -0.770672
4.744777 -16.142885 2.862566
3.548058 -14.701509 5.338089
3.426776 -16.139547 2.788141
3.376277 -16.738321 1.726389
3.862398 -16.153341 2.882113
3.822155 -16.872618 1.612223
3.744977 -18.252050 -0.823187
4.275444 -16.355310 2.918287
4.708491 -16.337372 3.065815
3.482719 -15.292820 4.802668
3.392076 -16.354172 2.958157
3.203556 -18.561584 -0.878077
3.871767 -15.592041 4.393219
3.822933 -16.442287 2.921928
3.697687 -18.622919 -0.851501
4.236155 -16.685167 2.890701
4.169627 -18.859402 -0.818514
4.671854 -16.712107 2.960192
3.325171 -16.941252 2.492321
3.156427 -18.893402 -0.833372
3.835567 -15.843385 4.471651
3.784460 -16.711376 2.999210
3.650566 -18.985411 -0.858410
4.200803 -16.883245 3.089977
4.125295 -19.212578 -0.806187
4.635124 -16.997154 3.013414
4.622859 -19.256817 -0.750345
3.400746 -15.890287 4.786139
3.104572 -19.277081 -0.870886
3.737186 -17.124493 2.839315
3.601826 -19.369940 -0.895552
4.191643 -16.319183 4.537086
4.159087 -17.271631 2.974817
4.079032 -19.613716 -0.866829
4.598415 -17.256351 3.112230
3.361124 -16.170031 4.817001
3.273203 -17.164230 3.188524
3.750991 -16.538557 4.320667
3.698178 -17.395269 2.923222
3.554873 -19.719881 -0.868629
4.155766 -16.575884 4.613672
4.115032 -17.710693 2.788008
4.034321 -19.959194 -0.829357
4.570232 -16.625517 4.638714
4.561038 -17.578573 3.111755
4.537287 -20.040630 -0.832890
3.326001 -16.397573 4.935680
3.712775 -16.812958 4.374331
3.656066 -17.713482 2.933556
3.506953 -20.081327 -0.854845
3.988932 -20.316118 -0.805048
4.524270 -17.821493 3.241444
4.494213 -20.398073 -0.808289
3.250285 -17.073738 4.348019
3.181159 -17.839001 3.141993
2.950576 -20.391663 -0.880898
3.688540 -16.867420 4.776449
3.616410 -17.989780 3.014856
3.456965 -20.470783 -0.879190
4.050978 -17.924038 3.481218
3.943863 -20.657764 -0.751616
4.499160 -17.209242 4.690617
4.489374 -17.927399 3.583118
3.207295 -17.381483 4.357424
3.131079 -18.216778 3.065886
2.894512 -20.809454 -0.942913
3.583057 -18.167961 3.249832
3.406524 -20.862083 -0.899027
4.051116 -17.256891 4.992535
3.894519 -21.098860 -0.844833
4.459871 -17.719946 4.391832
3.206036 -17.234091 5.062426
3.087539 -18.520180 3.111137
2.843455 -21.169306 -0.908188
3.615529 -17.361736 4.969311
3.357108 -21.233116 -0.880989
4.016679 -17.472609 5.136805
3.966045 -18.669790 3.351675
3.846877 -21.487345 -0.849609
4.446722 -16.667681 6.430853
4.430116 -17.622681 5.012476
3.157186 -17.604746 4.975294
2.785359 -21.602423 -0.977247
3.503208 -18.722698 3.416468
3.302784 -21.672358 -0.958199
3.978360 -17.777296 5.150908
3.916619 -19.187237 3.087353
4.411400 -17.012562 6.363394
4.396418 -17.793125 5.225460
4.317163 -21.922205 -0.794044
3.104590 -18.011951 4.843348
2.729841 -22.004396 -0.991577
3.598596 -17.039438 6.357952
3.250968 -22.069178 -0.964134
3.977990 -17.237768 6.382793
4.377374 -17.273863 6.423140
4.270816 -22.359716 -0.855402
3.063188 -18.297050 4.896893
3.564144 -17.266083 6.468042
3.941586 -17.516594 6.420916
4.345032 -17.454159 6.599731
3.095021 -17.813728 6.036366
2.937668 -19.461102 3.716042
3.525121 -17.555822 6.490828
3.423315 -18.982372 4.489281
3.909739 -17.696501 6.599915
4.309285 -17.779327 6.575308
4.177927 -23.177967 -0.873011
3.074464 -17.885441 6.372545
3.480731 -17.916815 6.419895
3.358269 -19.607071 4.091284
3.871041 -18.016672 6.587019
4.268515 -18.284281 6.313469
3.047036 -18.029594 6.603662
3.453705 -18.036787 6.682922
3.845643 -18.068733 6.938028
3.732908 -20.291264 3.969570
4.231964 -18.602766 6.314468
3.003504 -18.338724 6.611893
3.407820 -18.411827 6.603056
2.985033 -24.082922 -0.931763
3.813959 -18.249334 7.113317
4.206203 -18.539742 6.819513
4.172442 -19.700239 5.302872
4.034044 -24.457664 -0.914576
2.975183 -18.491501 6.830082
3.374220 -18.619381 6.750031
3.200202 -20.922230 3.744917
2.929762 -24.501062 -0.925299
3.780141 -18.471090 7.234770
4.184340 -18.377172 7.440002
2.950172 -18.611200 7.088593
3.431473 -17.639870 8.418898
3.214617 -20.472370 4.788193
2.872632 -24.939243 -0.937449
3.746659 -18.685852 7.366226
3.665618 -20.172829 5.484119
4.141575 -18.900986 7.178526
2.993110 -18.052717 8.200592
2.734619 -20.635244 4.936754
2.262887 -25.348202 -1.019554
3.197406 -20.447117 5.266245
2.813547 -25.398018 -0.967705
3.714246 -18.880863 7.523098
3.595975 -21.004082 4.883011
4.116652 -18.865438 7.624678
2.948627 -18.371687 8.189566
3.325073 -18.581600 8.009981
3.165892 -20.609756 5.501167
2.756357 -25.827702 -0.953398
3.546903 -21.448299 4.781799
3.277940 -26.176912 -0.994774
4.078243 -19.236069 7.566389
2.898626 -18.742735 8.120762
2.138223 -26.233898 -1.016518
3.300972 -18.675684 8.282070
3.080228 -21.455160 4.904173
3.660833 -19.074844 8.072304
4.046287 -19.416647 7.742987
3.951313 -22.033133 4.613873
2.861794 -18.982010 8.217735
3.267512 -18.888239 8.408686
2.992444 -22.312281 4.320181
3.630183 -19.244312 8.255474
3.165295 -27.102831 -1.012384
4.014473 -19.595543 7.921062
3.891311 -22.867407 4.076294
2.849466 -18.981964 8.598661
3.235111 -19.086985 8.552593
3.024631 -21.678106 5.512564
3.600092 -19.405455 8.447529
3.974391 -19.988712 7.851225
2.744658 -19.877064 7.936256
1.936081 -27.686506 -1.099218
3.165156 -19.742605 8.170341
3.577469 -19.445980 8.775915
3.961389 -19.697094 8.566570
2.728857 -19.908546 8.284290
2.554480 -21.582130 6.381580
3.171023 -19.474442 8.853474
3.550449 -19.562126 9.013990
3.450745 -21.159950 7.225969
3.391754 -22.105330 6.168056
3.932649 -19.815044 8.806324
2.702529 -20.041918 8.512281
3.121466 -19.876497 8.772625
3.502858 -20.004917 8.890314
3.895595 -20.132397 8.825027
2.748747 -19.487673 9.493164
2.329342 -23.464062 5.127525
2.113972 -25.505989 2.885706
3.043351 -20.611376 8.336159
3.465018 -20.288376 8.948807
3.824736 -21.212584 8.027315
2.729136 -19.562140 9.767714
2.600370 -20.775774 8.458284
3.082107 -19.968153 9.402235
3.413963 -20.770842 8.799753
3.721993 -22.953148 6.563953
2.570486 -20.940252 8.656210
2.368942 -22.828859 6.653675
1.587594 -30.150629 -1.109776
3.005230 -20.680445 9.005327
3.421745 -20.358938 9.595327
3.338654 -21.609734 8.289682
3.813256 -20.425797 9.596708
2.576354 -20.771376 9.200781
2.967768 -20.930136 9.108295
2.748338 -23.450436 6.491135
3.348336 -21.168964 9.116018
3.766007 -20.950918 9.411222
2.506755 -21.305248 9.013041
2.928368 -21.200483 9.192682
3.305766 -21.510363 9.131618
3.721905 -21.396074 9.318399
2.507863 -21.183208 9.498007
2.899423 -21.351074 9.400400
3.275111 -21.675629 9.327389
3.690519 -21.574095 9.498659
2.498417 -21.160696 9.874073
2.835758 -21.890511 9.223869
3.235085 -21.975006 9.392099
3.656350 -21.807907 9.624805
2.318005 -22.698729 8.726379
2.773069 -22.412985 9.076088
2.450198 -25.996635 5.604317
3.141503 -23.025143 8.742340
3.039474 -24.460871 7.368160
3.577600 -22.901562 8.932720
2.167036 -23.955185 7.893459
2.737714 -22.628796 9.231791
2.493547 -25.317163 6.672207
3.141253 -22.756853 9.361565
2.947630 -25.448208 6.829943
3.527463 -23.418144 8.811798
2.333505 -22.335360 9.796413
2.712393 -22.734245 9.491966
2.984963 -24.642700 7.974842
3.492705 -23.637133 8.975924
2.263920 -22.852903 9.668650
2.708421 -22.609179 9.961779
3.061803 -23.324200 9.553740
3.438500 -24.210497 8.820396
2.224883 -23.093670 9.802851
2.662107 -22.944004 10.006466
3.011569 -23.745626 9.531958
3.422888 -24.079094 9.304264
2.175760 -23.423048 9.860207
2.607094 -23.369184 9.976048
2.970968 -24.033989 9.634541
3.408300 -23.941111 9.784256
3.310567 -25.663507 8.278303
2.088232 -24.090445 9.626480
1.845147 -26.242041 7.742746
2.555771 -23.751417 9.990940
2.933082 -24.284477 9.773239
2.773640 -26.379055 7.967628
3.378122 -24.084566 10.012894
2.289000 -26.399097 8.069916
2.698274 -27.093773 7.746870
3.336991 -24.416641 10.081423
2.239579 -26.739670 8.166544
2.727184 -26.456081 8.667208
3.220518 -26.010225 9.108364
2.680858 -26.793667 8.765978
3.218340 -25.670862 9.751867
3.129434 -27.142130 8.552921
2.585588 -27.746191 8.375280
3.170363 -26.094284 9.769869
3.099605 -27.248325 8.845972
2.558053 -27.837626 8.685917
3.075039 -27.272928 9.201025
2.529033 -27.949390 8.978205
3.002724 -28.060072 8.962679
2.871159 -29.030617 9.365057
4.710835 -0.954265 29.911598
2.697336 -31.307936 8.103218
4.704418 -0.988946 29.891924
4.709829 -0.964752 29.909187
4.706194 -1.015461 29.877237
4.703182 -0.999843 29.890266
4.705906 -1.016901 29.879404
4.707379 -0.993264 29.897985
4.705586 -0.968944 29.915956
4.710101 -0.952529 29.926931
4.705360 -0.970050 29.917719
4.709894 -0.953543 29.928549
4.702123 -1.005040 29.898476
4.704772 -1.022468 29.888199
4.701862 -1.006294 29.900557
4.706364 -0.998205 29.905945
4.702375 -0.998967 29.907753
4.710546 -0.939340 29.943645
4.706509 -0.991948 29.915012