# This PCD file was generated using the MATLAB® pcwrite function
# from Computer Vision System Toolbox®.
# .PCD v.7 - Point Cloud Data file format
VERSION .7
FIELDS x y z
SIZE 4 4 4
TYPE F F F
COUNT 1 1 1
WIDTH 1007
HEIGHT 1
VIEWPOINT 0 0 0 1 0 0 0
POINTS 1007
DATA ascii
0.592511 31.840498 0.016062
-0.034320 31.439974 -0.088142
0.570515 31.231411 0.070406
-0.051547 31.062258 -0.250038
0.551163 30.855289 -0.089832
-0.068109 30.627174 -0.351442
0.532168 30.507214 -0.273895
-0.084589 30.199751 -0.454649
0.513292 30.165331 -0.461256
-0.100433 29.730904 -0.509836
0.492526 29.591846 -0.408962
-0.115139 29.187151 -0.479887
0.472475 29.070078 -0.399477
-0.129990 28.680546 -0.479130
0.453402 28.646839 -0.485020
-0.145235 28.223825 -0.523155
0.433889 28.135925 -0.470181
-0.159007 27.680899 -0.465525
0.414480 27.600521 -0.419199
-0.172157 27.121115 -0.378431
0.395529 27.094849 -0.391001
-0.186344 26.650917 -0.381437
0.377119 26.644638 -0.416365
-0.203283 26.359478 -0.582664
0.359495 26.326868 -0.587475
-0.217000 25.885130 -0.567863
0.341125 25.800961 -0.511478
-0.230947 25.438711 -0.577814
0.323475 25.406559 -0.582191
-0.243690 24.943336 -0.520494
0.305923 24.993868 -0.625147
-0.258194 24.551357 -0.581396
0.288071 24.325174 -0.343941
-0.271491 24.110540 -0.575090
0.271117 23.979767 -0.453371
-0.285114 23.696281 -0.594995
0.254260 23.646580 -0.574873
-0.299113 23.307806 -0.641785
0.237497 23.228161 -0.581593
-0.312959 22.920326 -0.684126
0.220921 22.823427 -0.599344
-0.326050 22.510155 -0.689856
0.204465 22.455727 -0.660688
-0.338949 22.101635 -0.690769
0.188285 22.030127 -0.636898
-0.353080 21.746946 -0.760258
0.172193 21.647163 -0.665112
-0.365467 21.335529 -0.743887
0.156169 21.288256 -0.721804
-0.377315 20.914764 -0.706190
0.140381 20.907438 -0.741545
-0.389281 20.507441 -0.680099
0.124885 20.505613 -0.723764
0.630558 20.299509 -0.750870
1.142952 20.250944 -0.724316
-0.402797 20.157211 -0.732725
0.109443 20.127695 -0.734730
0.611296 19.862307 -0.667509
1.119388 19.814304 -0.640669
-0.416011 19.802197 -0.773178
0.094493 19.707747 -0.674242
0.591815 19.401194 -0.536730
1.095145 19.359175 -0.518036
-0.429093 19.448015 -0.809786
0.079374 19.338566 -0.684803
0.575956 19.135025 -0.705303
1.076756 19.034954 -0.593206
-0.441285 19.073572 -0.808603
0.063920 19.023489 -0.776190
0.559128 18.809803 -0.777830
1.060956 18.768410 -0.758770
-0.454661 18.737101 -0.862976
0.048700 18.692682 -0.838793
0.542224 18.474457 -0.829884
1.028225 18.108740 -0.270929
-0.467532 18.390865 -0.896667
0.037258 18.039064 -0.357180
0.514385 17.427582 0.326921
0.524878 18.104034 -0.818155
1.017553 17.956768 -0.617867
-0.477847 17.984756 -0.823193
0.019319 17.971523 -0.850178
0.506067 17.624990 -0.611935
0.998342 17.604971 -0.626867
-0.490820 17.651117 -0.866333
0.004257 17.657742 -0.928015
0.489376 17.274313 -0.617144
0.977813 17.219894 -0.571169
-0.504734 17.342638 -0.949547
-0.008866 17.216480 -0.776125
0.472965 16.934612 -0.636044
0.958314 16.856544 -0.546049
-0.511040 16.864916 -0.723398
-0.021605 16.774393 -0.610155
0.456381 16.571985 -0.607435
0.938993 16.494953 -0.516912
-0.521142 16.482836 -0.658382
-0.035392 16.417288 -0.588413
0.440658 16.267628 -0.680710
0.920634 16.153954 -0.519091
-0.532823 16.140612 -0.659735
-0.049517 16.089886 -0.615816
0.424378 15.907707 -0.644632
0.901652 15.795687 -0.482180
-0.540703 15.725993 -0.515444
-0.063257 15.749468 -0.613197
0.408085 15.531449 -0.568998
0.886601 15.530196 -0.619452
-0.555518 15.455381 -0.642641
-0.077319 15.432920 -0.651567
0.393059 15.265106 -0.703773
0.871556 15.263515 -0.754396
-0.569606 15.170406 -0.740564
-0.091866 15.143551 -0.740496
0.377528 14.940448 -0.719450
0.852942 14.907888 -0.707333
-0.581960 14.854322 -0.772898
-0.106565 14.862532 -0.844702
0.362329 14.642588 -0.785917
0.836604 14.605975 -0.764668
-0.591749 14.495934 -0.711754
-0.119418 14.508016 -0.792736
0.346955 14.310797 -0.777063
0.818984 14.270344 -0.746592
-0.604850 14.198697 -0.773647
-0.132862 14.184979 -0.800444
0.331565 13.955321 -0.710201
0.800852 13.919536 -0.688616
-0.616605 13.880826 -0.787178
-0.145836 13.850536 -0.777534
0.316480 13.622508 -0.685127
0.784197 13.603415 -0.699913
-0.630057 13.592165 -0.861469
-0.159137 13.533762 -0.787712
0.301826 13.355205 -0.803226
0.769699 13.340078 -0.827190
-0.641872 13.279431 -0.878025
-0.172942 13.237700 -0.840601
0.286976 13.024152 -0.771793
0.750628 12.958153 -0.676163
-0.653041 12.959661 -0.873060
-0.185900 12.918428 -0.835382
0.272350 12.725390 -0.810797
0.734344 12.645048 -0.677816
-0.663537 12.633368 -0.846386
-0.198464 12.592645 -0.808451
0.257827 12.441978 -0.883991
0.720482 12.392946 -0.824631
-0.675547 12.330911 -0.872015
-0.212253 12.305571 -0.870974
0.243354 12.117796 -0.852285
0.704509 12.084171 -0.829857
-0.684370 11.988824 -0.792351
-0.224992 11.992854 -0.865650
0.229034 11.791519 -0.807947
0.688920 11.783434 -0.850702
-0.700134 11.738275 -0.942509
-0.238920 11.713236 -0.941303
0.214776 11.505616 -0.863243
0.671988 11.444654 -0.765646
-0.709550 11.409308 -0.884531
-0.250701 11.384471 -0.883194
0.200673 11.195610 -0.850145
0.657273 11.163100 -0.827322
-0.721444 11.112893 -0.907757
-0.262468 11.061016 -0.831108
0.186694 10.886708 -0.833984
0.635284 10.680614 -0.321039
-0.730862 10.790359 -0.852741
-0.276618 10.792414 -0.926657
0.173358 10.500465 -0.587978
0.609038 10.074021 0.578812
-0.743750 10.508516 -0.907928
-0.287481 10.458287 -0.830633
0.162379 9.870719 0.401718
0.591213 9.693881 0.861197
-0.750749 10.166533 -0.780354
-0.288767 9.950132 -0.199780
0.150440 9.460863 0.782120
0.576805 9.406186 0.881754
-0.491409 7.198487 7.482212
-0.755658 9.809129 -0.592117
-0.283876 9.355570 0.742039
0.137841 9.155101 0.862349
0.567236 9.255269 0.476084
-0.505019 7.035348 7.315197
-0.570652 7.657661 5.331560
-0.726530 9.135653 0.620420
-0.292827 9.029066 0.890314
0.121336 9.160014 -0.057945
0.555287 9.036422 0.271629
-0.519663 6.878566 7.120646
-0.729472 8.786601 0.847769
-0.184456 6.821791 7.251448
-0.305156 8.763926 0.850695
0.108974 8.826925 0.102493
0.540939 8.746350 0.298811
-0.520146 6.594620 7.348963
-0.741189 8.521317 0.810511
-0.328691 8.670771 0.228346
0.098415 8.405875 0.583509
0.524227 8.382791 0.588257
-0.603760 7.011485 5.139198
-0.762040 8.332808 0.506548
-0.334734 8.307521 0.519051
0.085074 8.165907 0.453119
0.510324 8.100019 0.612032
-0.616747 6.810942 5.021040
-0.774752 8.073204 0.444553
-0.343711 7.995087 0.649920
0.072884 7.869629 0.527449
0.501464 7.971527 0.068769
-0.793153 7.856895 0.220676
-0.356627 7.739492 0.581066
0.060851 7.575270 0.604696
0.487380 7.680896 0.115971
-0.796651 7.527779 0.424240
-0.370926 7.500687 0.446659
0.046721 7.368082 0.345373
0.474329 7.420838 0.049559
-0.815077 7.308607 0.204433
-0.394934 7.372866 -0.141981
0.031904 7.175748 0.009699
0.461734 7.174271 -0.072905
-0.835005 7.095448 -0.052654
-0.408646 7.117323 -0.234539
0.018704 6.921481 -0.081348
0.448988 6.921616 -0.173847
-0.852592 6.862710 -0.240080
-0.419350 6.829519 -0.188473
0.004819 6.685798 -0.258062
0.435680 6.648182 -0.184813
-0.860946 6.571345 -0.171957
-0.429926 6.543060 -0.139692
-0.007507 6.405651 -0.237381
0.422565 6.379265 -0.212854
-0.870243 6.287885 -0.130392
-0.444609 6.297091 -0.274090
-0.019646 6.124365 -0.204317
0.409186 6.098345 -0.179710
-0.887114 6.047211 -0.291880
-0.456826 6.027565 -0.298666
-0.031852 5.847994 -0.188263
0.395968 5.820409 -0.153772
-0.897370 5.770110 -0.274828
-0.467825 5.748650 -0.271748
-0.044151 5.576048 -0.189344
0.383266 5.559883 -0.213755
-0.908280 5.497381 -0.274897
-0.478720 5.470664 -0.242271
-0.056565 5.308035 -0.207661
0.370220 5.283036 -0.182858
-0.722498 4.331301 4.836166
-0.921003 5.233699 -0.321730
-0.490228 5.198778 -0.239790
-0.068711 5.036793 -0.203873
0.357391 5.012135 -0.179005
-0.718467 4.050073 5.173828
-0.930623 4.956527 -0.287394
-0.501899 4.928982 -0.244730
-0.080883 4.767603 -0.207521
0.344677 4.743280 -0.182598
-0.741184 3.883580 4.823441
-0.938202 4.672601 -0.201172
-0.512506 4.653317 -0.207748
-0.092649 4.494248 -0.179100
0.331948 4.470280 -0.154121
-0.949544 4.405195 -0.211151
-0.525271 4.391796 -0.257265
-0.104546 4.224571 -0.168007
0.319370 4.200944 -0.142975
-0.752123 3.410558 5.006729
-0.962004 4.142101 -0.248449
-0.536723 4.122905 -0.255001
-0.116951 3.962042 -0.204058
0.307084 3.945306 -0.228546
-0.783543 3.261458 4.452688
-0.969630 3.863194 -0.164551
-0.546020 3.844104 -0.171034
-0.128944 3.695498 -0.208044
0.294582 3.672511 -0.182924
-0.985585 3.611366 -0.286390
-0.559135 3.585065 -0.233370
-0.141249 3.432635 -0.239471
0.282343 3.414531 -0.254051
-0.996272 3.343167 -0.277037
-0.571425 3.321893 -0.263668
-0.152856 3.164191 -0.218893
0.270047 3.147140 -0.243410
-1.006469 3.074372 -0.255369
-0.582853 3.055387 -0.261839
-0.165048 2.901248 -0.245680
0.257804 2.875347 -0.180635
-1.019071 2.811876 -0.290991
-0.593934 2.788227 -0.247704
-0.176085 2.630965 -0.190493
0.245690 2.613720 -0.215025
-1.027859 2.541268 -0.234741
-0.605776 2.524100 -0.261084
-0.188151 2.368285 -0.212626
0.233622 2.350121 -0.227200
-1.041192 2.280337 -0.285646
-0.616993 2.258422 -0.252218
-0.200314 2.106136 -0.242439
0.221596 2.087930 -0.257015
-1.051935 2.014602 -0.274487
-0.629001 1.995123 -0.270931
-0.211683 1.840503 -0.220068
0.209712 1.819798 -0.194717
-1.063898 1.751025 -0.290909
-0.640959 1.731669 -0.287348
-0.223588 1.577588 -0.235298
0.197701 1.561478 -0.289816
-1.075810 1.487313 -0.305027
-0.651681 1.466063 -0.261530
-0.235440 1.314548 -0.248228
0.185907 1.296260 -0.262806
-1.084156 1.220101 -0.236994
-0.662321 1.201038 -0.233376
-0.247241 1.051402 -0.258865
0.174105 1.033079 -0.273441
-1.095932 0.956874 -0.246481
-0.675002 0.938924 -0.272829
-0.258988 0.788171 -0.267200
0.162356 0.769812 -0.281780
-1.111229 0.695563 -0.333563
-0.687037 0.675727 -0.290012
-0.270681 0.524875 -0.273237
0.150662 0.506480 -0.287817
-1.122927 0.431509 -0.338463
-0.698714 0.412144 -0.294905
-0.282318 0.261534 -0.276974
0.139023 0.243103 -0.291553
-1.134569 0.167420 -0.341057
-0.711596 0.148800 -0.337475
-0.294611 -0.001758 -0.318405
0.127440 -0.020299 -0.292994
-1.146154 -0.096685 -0.341347
-0.723176 -0.115182 -0.337761
-0.306150 -0.265478 -0.317543
0.115788 -0.283930 -0.322130
-1.157682 -0.360784 -0.339329
-0.735667 -0.379476 -0.365728
-0.318374 -0.529805 -0.354364
0.104308 -0.547583 -0.318964
-1.169151 -0.624858 -0.335007
-0.747143 -0.643689 -0.361403
-0.329812 -0.793823 -0.348888
0.092887 -0.811202 -0.313498
-1.184320 -0.891080 -0.408258
-0.760211 -0.909258 -0.404724
-0.340998 -1.057457 -0.331116
0.081045 -1.077789 -0.395678
-1.191437 -1.152490 -0.309460
-0.770249 -1.172326 -0.355820
-0.354082 -1.325011 -0.410936
0.069710 -1.342061 -0.385576
-1.206541 -1.419867 -0.378054
-0.782561 -1.437793 -0.374523
-0.365368 -1.589500 -0.398516
0.058437 -1.606237 -0.373169
-1.222124 -1.689067 -0.454247
-0.795176 -1.704219 -0.400873
-0.376592 -1.853873 -0.383783
0.046969 -1.872686 -0.398382
-1.233347 -1.954106 -0.438316
-0.808102 -1.971844 -0.434847
-0.389414 -2.123535 -0.446543
0.035261 -2.142432 -0.461151
-1.244018 -2.218290 -0.410110
-0.820652 -2.239476 -0.456486
-0.400540 -2.388312 -0.427147
0.024062 -2.408015 -0.451721
-1.259537 -2.490095 -0.479168
-0.833167 -2.507638 -0.475760
-0.413535 -2.660580 -0.495092
0.013676 -2.665015 -0.340340
-1.272082 -2.757978 -0.486090
-0.845288 -2.775418 -0.482708
-0.421720 -2.913559 -0.341610
0.002709 -2.928759 -0.316383
-1.285081 -3.027144 -0.500584
-0.855925 -3.039606 -0.447506
-0.433522 -3.181501 -0.355097
-0.008191 -3.192286 -0.290125
-1.298041 -3.296776 -0.512691
-0.865761 -3.301268 -0.390137
-0.444382 -3.445449 -0.326468
-0.019369 -3.460049 -0.301311
-1.302859 -3.548562 -0.363663
-0.876975 -3.566760 -0.370222
-0.456090 -3.713937 -0.335234
-0.030507 -3.728249 -0.310120
-1.313642 -3.812758 -0.331499
-0.888868 -3.834630 -0.367815
-0.466826 -3.977697 -0.301954
-0.041230 -3.991699 -0.276880
-1.328462 -4.087196 -0.376228
-0.899590 -4.098763 -0.333317
-0.477492 -4.241159 -0.266375
-0.052271 -4.260361 -0.280960
-1.341717 -4.358499 -0.388800
-0.911751 -4.368222 -0.336084
-0.490964 -4.521802 -0.347178
-0.063669 -4.535253 -0.322208
-1.350251 -4.616937 -0.310061
-0.922726 -4.633559 -0.306808
-0.501285 -4.784099 -0.296967
-0.074636 -4.804985 -0.321438
-1.364970 -4.893235 -0.347462
-0.934788 -4.903461 -0.304804
-0.514980 -5.068690 -0.382565
-0.088881 -5.125769 -0.624058
-1.379671 -5.170539 -0.382332
-0.949907 -5.187022 -0.379206
-0.531441 -5.374017 -0.573818
-0.102184 -5.434968 -0.824856
-1.394352 -5.448827 -0.414658
-0.961512 -5.456475 -0.362410
-0.550017 -5.697480 -0.840691
-0.113187 -5.710085 -0.816031
-1.406876 -5.720746 -0.405161
-0.993976 -5.823495 -0.863756
-0.561540 -5.973142 -0.829334
-0.124140 -5.985461 -0.804739
-1.439768 -6.065802 -0.765608
-1.007636 -6.107294 -0.890306
-0.570150 -6.227331 -0.707708
-0.135042 -6.261072 -0.790979
-1.461508 -6.375509 -0.916866
-1.018463 -6.377929 -0.845724
-0.585485 -6.533385 -0.838327
-0.146387 -6.545155 -0.813877
-1.465357 -6.619388 -0.742815
-1.028407 -6.644063 -0.779221
-0.597932 -6.818603 -0.858517
-0.157706 -6.830111 -0.834146
-1.484917 -6.923764 -0.849485
-1.045606 -6.948773 -0.885931
-0.609269 -7.095753 -0.837084
-0.168996 -7.115915 -0.851776
-1.499551 -7.210177 -0.865625
-1.055845 -7.217337 -0.824215
-0.622737 -7.391560 -0.890951
-0.180256 -7.402544 -0.866747
-1.515816 -7.504432 -0.908216
-1.072217 -7.520609 -0.905819
-0.633988 -7.669654 -0.864351
-0.191485 -7.689972 -0.879053
-1.530398 -7.792697 -0.918953
-1.084010 -7.799070 -0.877867
-0.646299 -7.957780 -0.873972
-0.202120 -7.968220 -0.849937
-1.543266 -8.074184 -0.898005
-1.097847 -8.090214 -0.895739
-0.659707 -8.256927 -0.919538
-0.213986 -8.269703 -0.905268
-1.557770 -8.363694 -0.903410
-1.111231 -8.379660 -0.901215
-0.670818 -8.536259 -0.885117
-0.224970 -8.556808 -0.899828
-1.573936 -8.661957 -0.934952
-1.126287 -8.680569 -0.942472
-0.683022 -8.826560 -0.886620
-0.236060 -8.847185 -0.901333
-1.588944 -8.955882 -0.944441
-1.139610 -8.971748 -0.942415
-0.696357 -9.128815 -0.923752
-0.247111 -9.138238 -0.900112
-1.602775 -9.244934 -0.931997
-1.152460 -9.260736 -0.930046
-0.708201 -9.417871 -0.910120
-0.258123 -9.429939 -0.896147
-1.617134 -9.537388 -0.926399
-1.166137 -9.556067 -0.934072
-0.720594 -9.713358 -0.912861
-0.268936 -9.719272 -0.879890
-1.275159 -7.973131 4.944477
-1.631451 -9.830451 -0.918034
-1.178899 -9.846129 -0.916237
-0.732649 -10.006537 -0.903271
-0.280669 -10.027486 -0.918007
-1.648632 -10.139585 -0.954348
-1.192496 -10.142818 -0.914675
-0.747092 -10.325504 -0.966787
-0.292223 -10.333941 -0.943590
-1.287751 -8.392124 5.134710
-1.664629 -10.443743 -0.968676
-1.209168 -10.462543 -0.976551
-0.759082 -10.620461 -0.951408
-0.303086 -10.628640 -0.928328
-1.676486 -10.726081 -0.913994
-1.220019 -10.741610 -0.912458
-0.772263 -10.929201 -0.970938
-0.314582 -10.937147 -0.947983
-1.695944 -11.051755 -0.979000
-1.237104 -11.067286 -0.977594
-0.697544 -10.283854 1.653770
-0.785419 -11.239089 -0.987423
-0.217448 -9.111951 4.929771
-0.326054 -11.246801 -0.964592
-1.497788 -10.121495 2.400171
-1.710067 -11.348533 -0.956276
-1.083638 -10.103633 2.487814
-1.247840 -11.346836 -0.908049
-0.684945 -10.296835 2.372061
-0.798232 -11.546612 -0.991470
-0.225527 -9.340028 4.981693
-0.278343 -10.386040 2.170452
-0.337322 -11.554087 -0.968765
-1.522765 -10.459654 2.227926
-1.730693 -11.684360 -1.033510
-0.965474 -9.368752 5.166969
-1.099663 -10.402453 2.417959
-1.268083 -11.699852 -1.032331
-0.697987 -10.590242 2.322620
-0.812603 -11.872873 -1.039183
-0.205642 -9.011238 6.492733
-0.235333 -9.603572 4.942295
-0.349271 -11.876569 -1.007277
-1.325141 -9.465870 5.524296
-1.744744 -11.982902 -1.004761
-0.967368 -9.541283 5.361347
-1.109267 -10.652895 2.481714
-1.281933 -12.005534 -1.022305
-0.603118 -9.660846 5.403309
-0.674736 -10.473498 3.327888
-0.823111 -12.157112 -0.971857
-0.223155 -9.426909 6.031933
-0.360480 -12.185998 -1.005266
-1.304726 -9.509627 6.034788
-1.762349 -12.303865 -1.028845
-0.976047 -9.766320 5.417532
-1.296203 -12.315610 -1.018579
-0.616847 -9.948902 5.302763
-0.834838 -12.455981 -0.939026
-0.223947 -9.508069 6.430065
-0.250132 -10.037816 5.112837
-0.371097 -12.485102 -0.972372
-1.308749 -9.699069 6.164909
-1.778723 -12.618657 -1.031168
-1.310434 -12.626534 -1.011789
-0.627993 -10.208994 5.279331
-0.850428 -12.800873 -1.014219
-0.231776 -9.731653 6.467278
-0.384091 -12.834101 -1.056763
-1.283541 -9.702968 6.738886
-1.793242 -12.922929 -1.002693
-0.964704 -9.981363 6.098587
-1.098856 -11.083486 3.452038
-1.324624 -12.938277 -1.001915
-0.637805 -10.454702 5.295406
-0.707951 -11.282517 3.334105
-0.238226 -9.928065 6.571079
-0.289665 -10.982749 4.075260
-0.394820 -13.138814 -1.026886
-1.350001 -10.288556 5.924557
-1.812582 -13.258974 -1.044712
-0.962217 -10.110510 6.370186
-1.108890 -11.333698 3.503710
-1.342533 -13.282173 -1.062445
-0.623677 -10.415306 5.974401
-0.878641 -13.461682 -1.070951
-0.238622 -10.000276 6.960955
-0.406072 -13.455895 -1.021568
-1.319577 -10.254092 6.573236
-1.828851 -13.576771 -1.037470
-0.966638 -10.295692 6.504917
-1.115082 -11.551849 3.630960
-1.359021 -13.616106 -1.091848
-0.611138 -10.389159 6.595949
-0.723903 -11.752832 3.516241
-0.253789 -10.378441 6.646490
-0.418455 -13.798190 -1.067900
-1.321335 -10.424991 6.736481
-1.849996 -13.928038 -1.099920
-0.971904 -10.487457 6.622847
-1.127824 -11.825768 3.632360
-1.373589 -13.935242 -1.081305
-0.730405 -11.970398 3.646849
-0.904407 -14.099455 -1.050220
-0.256258 -10.494296 6.928703
-0.430037 -14.125783 -1.074183
-1.313095 -10.527385 7.046137
-1.443347 -11.403604 5.131098
-1.864967 -14.239902 -1.067818
-0.985679 -10.752822 6.578875
-1.388591 -14.259388 -1.076616
-0.619576 -10.735744 6.907148
-0.918246 -14.432228 -1.062223
-0.265750 -10.757606 6.884703
-0.441185 -14.446110 -1.058962
-1.344945 -10.900240 6.768236
-1.886081 -14.594584 -1.123016
-1.019151 -11.193537 6.166950
-1.406437 -14.609946 -1.122890
-0.646216 -11.188924 6.468687
-0.932739 -14.774848 -1.088825
-0.273819 -10.992449 6.906775
-0.452896 -14.780109 -1.067589
-1.395594 -11.408055 6.225092
-1.902833 -14.921142 -1.111355
-1.013218 -11.288209 6.499567
-1.420892 -14.932170 -1.102337
-0.615831 -10.926314 7.529015
-0.672727 -11.646187 6.045420
-0.946865 -15.114665 -1.102797
-0.283080 -11.253929 6.877237
-0.464165 -15.106617 -1.054749
-1.391527 -11.539938 6.477921
-1.918293 -15.239831 -1.078417
-1.009499 -11.399918 6.787157
-1.435783 -15.259545 -1.087482
-0.628247 -11.201235 7.463760
-0.687288 -11.956228 5.941755
-0.960267 -15.446963 -1.095280
-0.354458 -12.846224 4.173073
-0.476013 -15.447360 -1.065420
-1.406740 -11.806759 6.454557
-1.941852 -15.617153 -1.158291
-0.996324 -11.422468 7.244566
-1.452093 -15.601217 -1.096058
-0.691034 -12.128864 6.118029
-0.973628 -15.780276 -1.084314
-0.310608 -11.975441 6.443287
-0.360432 -13.047701 4.330311
-0.488461 -15.803003 -1.099241
-1.365261 -11.665835 7.233757
-1.955971 -15.928857 -1.100637
-1.017201 -11.756544 7.078232
-1.468861 -15.948752 -1.109901
-0.695361 -12.308533 6.277737
-0.990115 -16.155941 -1.149746
-0.326526 -12.386862 6.148851
-0.501527 -16.174212 -1.155823
-1.399823 -12.071520 6.938368
-1.480738 -12.663162 5.806196
-1.979504 -16.310080 -1.172579
-1.035183 -12.066608 6.969130
-1.486585 -16.306971 -1.137730
-0.707019 -12.584491 6.253258
-1.004119 -16.501226 -1.149126
-0.338488 -12.715410 6.027708
-0.511361 -16.477415 -1.075747
-1.412308 -12.318765 6.956530
-1.997962 -16.656174 -1.169771
-1.048244 -12.332402 6.951817
-1.503296 -16.657476 -1.144032
-0.666913 -12.172942 7.506678
-1.019511 -16.866726 -1.180002
-0.308969 -12.138609 7.590151
-0.348746 -13.008954 5.980862
-0.524810 -16.861298 -1.142233
-1.380176 -12.232296 7.590654
-2.018927 -17.022566 -1.198328
-1.062281 -12.608980 6.919872
-1.521962 -17.028460 -1.181639
-0.664552 -12.257051 7.814720
-0.718791 -12.985977 6.493422
-0.786319 -13.893513 4.848364
-0.312429 -12.279788 7.792770
-0.354826 -13.212458 6.103621
-0.400959 -14.227281 4.265684
-1.403288 -12.557863 7.462776
-2.037313 -17.371313 -1.187956
-1.076307 -12.887050 6.891022
-1.539610 -17.391649 -1.197664
-0.661642 -12.331818 8.131212
-0.740444 -13.400775 6.232918
-1.049867 -17.598150 -1.220934
-0.324412 -12.609793 7.656471
-1.446964 -13.044293 7.061218
-2.061429 -17.765535 -1.251949
-1.097850 -13.240608 6.735046
-1.558734 -17.771214 -1.235750
-0.678909 -12.680841 7.962091
-0.750199 -13.656776 6.263836
-0.817488 -14.577940 4.660891
-0.338680 -12.992942 7.437607
-0.560868 -17.932484 -1.150738
-1.512702 -13.708802 6.372942
-2.082319 -18.137171 -1.268236
-1.108350 -13.487621 6.773575
-1.578344 -18.157778 -1.278202
-0.669888 -12.669807 8.418118
-0.753688 -13.827326 6.443977
-0.833463 -14.929241 4.564665
-0.323371 -12.718019 8.353306
-0.362995 -13.603484 6.844372
-0.574472 -18.329329 -1.209030
-2.092846 -18.429182 -1.142952
-1.045868 -13.002568 8.052347
-1.590845 -18.475224 -1.195929
-0.673860 -12.836465 8.563503
-1.092047 -18.663788 -1.179033
-0.344375 -13.254850 7.881376
-0.586008 -18.682333 -1.185539
-1.402783 -13.149113 8.222277
-2.123358 -18.880157 -1.279844
-1.034595 -13.022690 8.448645
-1.111401 -13.801991 7.157564
-0.684027 -13.090024 8.565132
-0.782889 -14.479575 6.287355
-1.108728 -19.059372 -1.219927
-0.336514 -13.144465 8.492355
-0.367204 -13.837317 7.357491
-0.599570 -19.083200 -1.235043
-1.416000 -13.400873 8.235830
-1.624042 -15.073909 5.515963
-2.141545 -19.235584 -1.249704
-1.040461 -13.214901 8.554438
-1.629393 -19.251282 -1.251488
-0.696027 -13.370918 8.527143
-0.802902 -14.885862 6.091896
-0.392824 -14.488022 6.748793
-0.611952 -19.459919 -1.237463
-1.435704 -13.706421 8.167599
-1.686811 -15.747788 4.913023
-1.065738 -13.608014 8.340523
-1.203190 -15.030933 6.073629
-0.714384 -13.744457 8.348986
-0.781414 -14.702533 6.838457
-0.902367 -16.431351 4.112755
-0.374544 -14.143157 7.736612
-0.474632 -16.425432 4.140947
-0.624294 -19.838129 -1.235668
-1.465881 -14.100187 7.968567
-1.609171 -15.277503 6.127508
-1.700772 -16.030125 4.950575
-1.068433 -13.769000 8.501995
-1.208498 -15.233185 6.213993
-0.724139 -13.997313 8.368753
-1.155627 -20.215288 -1.248013
-0.637067 -20.228640 -1.246418
-1.465934 -14.247807 8.159311
-1.630672 -15.615523 6.061142
-1.107209 -14.310145 8.079123
-0.731962 -14.223372 8.433023
-1.172194 -20.618500 -1.270866
-0.379963 -14.406979 8.169569
-0.650282 -20.631845 -1.269396
-1.513924 -14.796269 7.744234
-1.134741 -14.738056 7.847084
-1.704574 -20.808958 -1.284172
-0.737063 -14.410374 8.557667
-1.188729 -21.023638 -1.289040
-0.378135 -14.434477 8.536310
-0.562250 -18.694874 2.197170
-0.663706 -21.042555 -1.295994
-1.505296 -14.871941 8.047709
-1.114947 -14.661361 8.373232
-1.493668 -18.733604 2.362719
-1.726526 -21.237448 -1.332880
-0.807475 -15.561334 7.273798
-1.205611 -21.436300 -1.310743
-0.408415 -15.207947 7.804834
-1.489872 -14.886789 8.432926
-2.269957 -21.561541 -1.242176
-1.118406 -14.831928 8.526499
-1.744275 -21.622978 -1.310717
-0.808496 -15.695534 7.500341
-1.033351 -19.038996 2.705219
-1.221307 -21.833788 -1.303009
-0.416967 -15.480398 7.823177
-1.304894 -13.432952 10.898321
-1.524713 -15.332125 8.196299
-1.625656 -16.204252 6.955490
-0.971158 -13.352149 11.025391
-1.150100 -15.311164 8.240013
-1.760919 -21.998245 -1.267851
-0.802429 -15.722812 7.874134
-1.240430 -22.284843 -1.364023
-0.430414 -15.869514 7.681635
-0.580173 -19.385021 2.735559
-1.597589 -16.113808 7.503429
-2.322157 -22.433731 -1.323118
-0.988099 -13.656223 10.947611
-1.162936 -15.587135 8.252541
-0.649076 -13.524786 11.314911
-0.815565 -16.037649 7.841887
-1.257207 -22.703472 -1.370941
-0.440164 -16.174320 7.666687
-1.548540 -15.832795 8.297895
-1.781598 -17.884699 5.484447
-2.350553 -22.893930 -1.383904
-0.995535 -13.856705 11.018917
-1.244431 -16.629313 7.219601
-1.537188 -19.890512 2.750769
-0.668436 -13.917866 11.119606
-0.841159 -16.543930 7.556057
-1.271991 -23.094267 -1.332695
-0.449136 -16.462790 7.679518
-0.729299 -23.101667 -1.323977
-1.342424 -14.146976 10.959925
-1.557358 -16.056786 8.388826
-1.015636 -14.199944 10.899931
-0.687071 -14.303370 10.945757
-0.860579 -16.960430 7.405300
-1.291410 -23.558092 -1.385904
-0.458825 -16.770266 7.671717
-0.742231 -23.517433 -1.313438
-1.384843 -14.655187 10.630478
-1.563417 -16.256315 8.513855
-2.398552 -23.744308 -1.384941
-1.028313 -14.461931 10.896988
-1.299626 -17.535484 6.836243
-1.848635 -23.754908 -1.380798
-0.690409 -14.456324 11.086863
-0.371249 -14.753423 10.709080
-0.462644 -16.939457 7.850250
-0.501741 -17.874592 6.627304
-1.393723 -14.865779 10.703724
-1.575446 -16.509686 8.569590
-1.675058 -17.410793 7.399763
-1.039361 -14.706757 10.920912
-1.278994 -17.443794 7.369675
-1.871407 -24.210196 -1.409555
-0.699188 -14.693814 11.118793
-0.859600 -17.185205 7.917101
-0.376644 -14.951196 10.798677
-0.472996 -17.266483 7.824953
-0.771512 -24.439581 -1.388083
-1.339116 -14.497416 11.517136
-1.035376 -14.779652 11.167629
-1.268270 -17.461283 7.750448
-1.343225 -18.324337 6.650667
-0.688878 -14.634001 11.529375
-0.366535 -14.775928 11.360308
-0.595996 -20.315178 4.372427
-1.321336 -14.458435 11.893770
-1.008164 -14.581347 11.749611
-1.277757 -17.710323 7.833332
-0.704661 -14.982183 11.424141
-0.370917 -14.949872 11.473957
-0.525723 -18.704126 6.821859
-1.347440 -14.823078 11.765085
-1.007613 -14.689080 11.939329
-1.935708 -25.545511 -1.407938
-0.946052 -18.909489 6.968195
-1.381247 -25.808233 -1.433731
-0.382513 -15.300632 11.372952
-0.545046 -19.260309 6.552977
-1.356575 -15.032035 11.833576
-1.035045 -15.125768 11.729597
-1.365124 -19.016785 7.030329
-1.963696 -26.072840 -1.491425
-0.765170 -16.148672 10.675810
-0.975986 -19.512823 6.650820
-0.416915 -16.212189 10.609512
-0.828037 -26.273827 -1.422552
-1.810418 -19.438288 6.921848
-2.559640 -26.508888 -1.471321
-1.044651 -15.354855 11.778109
-1.375672 -19.286753 7.113060
-0.719819 -15.526162 11.745626
-0.986254 -19.805853 6.715179
-0.426813 -16.529102 10.576202
-0.638972 -21.745033 4.448269
-1.384224 -15.540640 11.871344
-1.819734 -19.683952 7.039398
-1.060181 -15.655760 11.745882
-1.375824 -19.433189 7.342756
-2.008195 -27.001053 -1.478643
-0.721754 -15.658076 11.911709
-0.953166 -19.399378 7.591118
-0.398789 -15.911801 11.627401
-1.432192 -16.124172 11.519020
-1.076780 -15.971523 11.702497
-1.356778 -19.347229 7.836517
-2.029536 -27.458118 -1.452368
-0.741456 -16.078957 11.748880
-0.388978 -15.740263 12.141415
-0.426020 -16.659225 11.099186
-0.544874 -19.607834 7.755060
-1.404167 -15.979580 12.003485
-2.649068 -28.011553 -1.541533
-1.074245 -16.057076 11.924484
-1.380650 -19.778156 7.737389
-0.804780 -17.217712 10.796185
-0.421804 -16.629215 11.460604
-0.557095 -20.000792 7.703388
-1.411645 -16.175682 12.099154
-1.083090 -16.280628 11.991056
-1.168511 -17.325493 10.835827
-1.416014 -20.352924 7.488619
-0.777665 -16.878799 11.500322
-0.982479 -20.253654 7.803226
-0.434919 -17.032349 11.340252
-0.565790 -20.308491 7.752863
-1.423869 -16.418615 12.145496
-1.107244 -16.693583 11.854464
-0.790860 -17.202187 11.472326
-0.442628 -17.302723 11.371998
-1.575339 -18.039347 10.723734
-1.945653 -21.700991 6.813221
-1.140765 -17.226187 11.599869
-1.437354 -20.905481 7.672153
-0.817194 -17.746981 11.216246
-0.441585 -17.354027 11.639460
-1.470955 -17.132816 12.008533
-1.158895 -17.571575 11.555588
-0.813035 -17.784920 11.501133
-0.462811 -17.970406 11.315798
-0.622358 -22.018625 7.109606
-0.953201 -30.413137 -1.612484
-1.490668 -17.455381 11.986801
-1.627019 -18.823523 10.575953
-1.131670 -17.348946 12.103615
-1.236148 -18.662945 10.749146
-1.681149 -24.259594 4.980095
-0.808323 -17.812258 11.792385
-0.451450 -17.761374 11.851391
-1.651099 -19.202080 10.527935
-1.244937 -18.899845 10.841534
-1.492579 -22.035404 7.665398
-0.831702 -18.315395 11.601379
-1.009388 -21.333544 8.571922
-0.459160 -18.038345 11.886272
-0.570788 -20.896223 9.018768
-1.465402 -17.448074 12.610849
-1.179255 -18.188303 11.880476
-1.303062 -19.766356 10.309702
-0.815967 -18.154551 12.077341
-0.470415 -18.408587 11.833376
-1.547513 -18.411539 11.968361
-1.798648 -20.985538 9.449718
-1.194415 -18.502234 11.886122
-0.845954 -18.775982 11.784140
-0.463301 -18.307293 12.244682
-1.534325 -18.402351 12.288712
-1.178870 -18.421528 12.276432
-1.322687 -20.278713 10.491333
-0.830787 -18.622538 12.244688
-0.490329 -19.090685 11.804979
-1.546813 -18.657276 12.354025
-1.760350 -20.876087 10.257627
-1.174887 -18.487864 12.519958
-0.887598 -19.717165 11.526827
-0.498123 -19.379446 11.848892
-0.650742 -23.357519 8.126778
-1.771689 -21.134880 10.359131
-1.249117 -19.575899 11.812403
-1.551260 -23.527699 8.144705
-0.873076 -19.575518 11.976595
-1.787844 -21.445078 10.416603
-1.261290 -19.858768 11.869394
-1.389088 -21.540764 10.335461
-0.911489 -20.361532 11.578396
-1.125214 -24.119722 8.182041
-0.642404 -23.348644 8.885344
-0.762544 -26.508400 6.030682
-1.852283 -22.268414 10.018591
-2.140315 -25.321362 7.282049
-1.435099 -22.283592 10.011007
-1.524934 -23.473297 8.944925
-1.028544 -22.545511 9.958698
-1.141769 -24.547684 8.180811
-0.644774 -23.516386 9.102741
-1.855023 -22.441530 10.213722
-3.101987 -35.744141 -1.502024
-1.438963 -22.471672 10.192915
-2.413577 -35.458019 -1.240973
-1.156990 -24.954903 8.205122
-0.697265 -25.015463 8.158472
-1.872405 -22.771351 10.273281
-1.947584 -23.578487 9.574869
-2.416603 -35.713783 -0.917183
-1.047835 -23.141008 10.140089
-0.657977 -24.081102 9.339846
-0.713211 -25.553583 8.077963
-1.874234 -22.934633 10.479254
-3.076421 -35.923153 -0.562538
-1.511801 -23.725872 9.811993
-1.081793 -23.878361 9.866261
-0.643448 -23.801016 9.936626
-3.080917 -36.195892 -0.253923
-1.499614 -23.701401 10.186075
-2.431715 -36.346756 -0.372154
-1.071890 -23.829344 10.259829
-1.142155 -25.099485 9.208973
-0.647889 -24.028446 10.100056
-3.092287 -36.543102 -0.006144
-1.880890 -38.661327 -1.447559
-0.667724 -24.673748 9.925541
-1.896387 -39.152382 -1.283646
-0.675442 -24.995766 10.022709
-0.704699 -25.907948 9.661444
-1.857918 -38.860229 0.044237
-1.244757 -40.823051 -1.460999
0.235550 -0.271060 29.777342
0.229742 -0.314884 29.753136
0.236114 -0.257080 29.792284
0.235521 -0.274899 29.782961
0.231020 -0.292768 29.774008
0.234341 -0.309642 29.763025
0.235214 -0.285797 29.781378
0.232740 -0.261546 29.799360
0.236675 -0.244716 29.809923
0.232735 -0.262650 29.801138
0.236672 -0.245729 29.811554
0.232732 -0.263740 29.802927
0.236669 -0.246727 29.813192
0.233597 -0.247614 29.814896
0.235197 -0.290733 29.789404
0.233162 -0.257228 29.811543
0.237253 -0.231385 29.826521
0.235488 -0.284403 29.798416