# This PCD file was generated using the MATLAB® pcwrite function
# from Computer Vision System Toolbox®.
# .PCD v.7 - Point Cloud Data file format
VERSION .7
FIELDS x y z
SIZE 4 4 4
TYPE F F F
COUNT 1 1 1
WIDTH 802
HEIGHT 1
VIEWPOINT 0 0 0 1 0 0 0
POINTS 802
DATA ascii
23.615883 2.494833 4.288694
23.170256 2.859966 4.534838
26.263773 4.417148 -0.437983
23.294523 2.475088 4.276070
22.831480 2.826888 4.558924
25.869534 4.382434 -0.424259
22.954149 2.444816 4.300022
25.506880 4.362274 -0.455984
22.595703 2.403956 4.361061
25.130589 4.333499 -0.458933
22.244574 2.364712 4.417816
24.770201 4.311621 -0.483013
21.910210 2.332025 4.453289
24.391987 4.278514 -0.469679
21.577753 2.298564 4.492447
23.996902 4.234129 -0.418453
21.223949 2.252007 4.577744
23.973154 3.707437 -0.435598
23.677372 4.230546 -0.498940
20.932478 2.236780 4.556076
23.645325 3.699931 -0.498232
23.321840 4.205331 -0.508057
20.646299 2.223360 4.528788
23.236681 3.647096 -0.403292
22.949873 4.168845 -0.479195
22.888697 3.625595 -0.415789
22.545092 4.110568 -0.377438
22.520090 3.590881 -0.381477
22.245756 4.114362 -0.478962
22.170515 3.565300 -0.378042
21.899883 4.088564 -0.482157
21.860020 3.561368 -0.449615
21.596264 4.088305 -0.569185
21.524818 3.541752 -0.465698
21.264153 4.068909 -0.592085
21.178469 3.513892 -0.452065
20.857937 3.998663 -0.444479
20.865208 3.505290 -0.505623
20.630959 2.958311 -0.398987
18.537586 1.278572 4.308134
20.482655 3.946052 -0.354202
20.571531 3.508514 -0.600609
20.308681 2.942542 -0.420158
18.216234 1.238101 4.404285
20.091276 3.879431 -0.215553
20.227991 3.478456 -0.577229
19.998440 2.933184 -0.465096
17.935261 1.219349 4.414032
19.766499 3.856987 -0.223976
19.871164 3.437614 -0.514637
19.677456 2.916009 -0.480167
17.625879 1.182058 4.498724
19.677053 2.428236 -0.516582
19.457163 3.844429 -0.264997
19.505692 3.388480 -0.421440
19.378880 2.912412 -0.546293
17.333353 1.153105 4.550486
19.325018 2.391641 -0.446484
19.119848 3.809984 -0.231390
19.107492 3.313430 -0.234358
19.030916 2.874804 -0.482992
17.049692 1.128033 4.587070
19.003506 2.372282 -0.445431
18.798040 3.785437 -0.230413
18.790041 3.292994 -0.241613
18.709185 2.853159 -0.479729
18.686481 2.354482 -0.450392
18.490793 3.770822 -0.262457
18.480253 3.276916 -0.263968
18.365038 2.814131 -0.409576
18.393904 2.351752 -0.516346
18.183971 3.755539 -0.291656
18.171062 3.260169 -0.283422
17.990416 2.750528 -0.244507
18.101116 2.348372 -0.579700
17.877604 3.739593 -0.318016
17.865715 3.245280 -0.309120
17.686714 2.736366 -0.268007
17.769754 2.317308 -0.530025
17.559200 3.712348 -0.305077
17.538872 3.212059 -0.267927
17.383522 2.721552 -0.288710
17.443327 2.287822 -0.486319
17.257202 3.697741 -0.334826
17.259560 3.216059 -0.361238
17.092955 2.715656 -0.343527
17.091288 2.237372 -0.356100
16.949646 3.677162 -0.343479
16.940794 3.186577 -0.332497
16.755215 2.670849 -0.247717
16.751312 2.193017 -0.250097
16.645702 3.658597 -0.358479
16.626322 3.158969 -0.309935
16.454357 2.654099 -0.259863
16.451357 2.177344 -0.261692
16.331158 3.628738 -0.333797
16.324335 3.140831 -0.321426
16.165211 2.646287 -0.306471
16.163149 2.170070 -0.307882
16.055897 3.635526 -0.435625
16.025698 3.124585 -0.339437
15.876032 2.637850 -0.350531
15.853313 2.144110 -0.276648
15.737518 3.599066 -0.386806
15.724897 3.105181 -0.345438
15.555559 2.600064 -0.279808
15.555279 2.126556 -0.280031
15.451372 3.593943 -0.446505
15.432440 3.092738 -0.376686
15.267399 2.590380 -0.318497
15.260468 2.110643 -0.290104
15.157526 3.580201 -0.475771
15.125345 3.064499 -0.349220
14.969522 2.570505 -0.317059
14.961311 2.089600 -0.278660
14.875781 3.579154 -0.549139
14.848128 3.065987 -0.431406
14.681805 2.559591 -0.350599
14.677243 2.081492 -0.321186
14.572792 3.553513 -0.535864
14.547113 3.041574 -0.417297
14.376021 2.528924 -0.306086
14.379429 2.059234 -0.304409
14.281784 3.540573 -0.566738
14.249262 3.019079 -0.409861
14.089183 2.516794 -0.334417
14.093544 2.047656 -0.332378
13.990892 3.527014 -0.595064
13.977802 3.026299 -0.512985
13.802483 2.504058 -0.360235
13.799366 2.026455 -0.319798
13.694027 3.504862 -0.592579
13.694888 3.020265 -0.566607
13.517954 2.493109 -0.393045
13.506030 2.004662 -0.304569
13.393930 3.476788 -0.568562
13.392006 2.988374 -0.523060
13.231510 2.479167 -0.413868
13.229062 2.000301 -0.363091
13.096745 3.450778 -0.551289
13.103648 2.973558 -0.543190
12.952644 2.474174 -0.470333
12.951619 1.995334 -0.419264
12.802234 3.426833 -0.540831
12.815504 2.958139 -0.560804
12.678595 2.475727 -0.553083
12.661357 1.974015 -0.406010
12.520346 3.420876 -0.594189
12.527596 2.942121 -0.575907
12.385204 2.450445 -0.528322
12.370182 1.949871 -0.380577
12.225149 3.393088 -0.569105
12.239947 2.925508 -0.588501
12.105463 2.443635 -0.577604
12.092728 1.943117 -0.429459
11.935491 3.372671 -0.569954
11.946447 2.898241 -0.560371
11.813330 2.417188 -0.547745
11.808851 1.926788 -0.437473
11.637682 3.335781 -0.511063
11.653942 2.870401 -0.529629
11.522205 2.390174 -0.515289
11.535252 1.925561 -0.510515
11.356279 3.327432 -0.554522
11.373346 2.862077 -0.572964
11.232112 2.362598 -0.480255
11.251434 1.908055 -0.513699
11.074536 3.318477 -0.595591
11.087311 2.843117 -0.575533
10.953003 2.353432 -0.519735
10.967985 1.889969 -0.514420
10.783040 3.287799 -0.557688
10.792140 2.803540 -0.498756
10.673589 2.343665 -0.556850
10.689575 1.880238 -0.551401
10.501375 3.277657 -0.593889
10.511976 2.793452 -0.534767
10.385347 2.314383 -0.514332
10.407654 1.863222 -0.556950
10.210378 3.243214 -0.541349
10.228493 2.775268 -0.539509
10.106081 2.303445 -0.546623
10.124010 1.841180 -0.540680
9.922526 3.213489 -0.505451
9.943420 2.751517 -0.522533
9.822996 2.282480 -0.537838
9.842802 1.823022 -0.541368
9.641490 3.201597 -0.534330
9.663195 2.739659 -0.551332
9.543619 2.270366 -0.565353
9.564345 1.810948 -0.568794
9.360243 3.189107 -0.560827
9.379740 2.717256 -0.539127
9.261160 2.248258 -0.551725
9.282044 1.787211 -0.545233
9.078810 3.176020 -0.584938
9.099467 2.704223 -0.563139
8.979855 2.227936 -0.545366
9.004293 1.776185 -0.577625
8.794920 3.151883 -0.568117
8.819029 2.690597 -0.584768
8.700560 2.214074 -0.565720
8.723435 1.753532 -0.558979
8.513523 3.137622 -0.587425
8.538941 2.678852 -0.613695
8.418829 2.187937 -0.535139
8.442671 1.728127 -0.528177
8.232402 3.125372 -0.613987
8.256518 2.654157 -0.591843
8.138230 2.163591 -0.511856
8.164960 1.715361 -0.553453
7.949135 3.096922 -0.580267
7.975653 2.636305 -0.596628
7.859383 2.148007 -0.525055
7.886689 1.699809 -0.566626
7.667782 3.080905 -0.592386
7.694414 2.612954 -0.579643
7.580467 2.131839 -0.535887
7.606683 1.666182 -0.499388
7.385270 3.043580 -0.524855
7.413346 2.584136 -0.540874
7.301952 2.124355 -0.583256
7.329356 1.656051 -0.537085
7.104920 3.047105 -0.609459
7.133944 2.589082 -0.635433
7.022514 2.097754 -0.550440
7.051550 1.649660 -0.591957
6.823455 3.029326 -0.614410
6.853346 2.559128 -0.591887
6.743519 2.079840 -0.554161
6.773343 1.623101 -0.556625
6.541996 3.010961 -0.616970
6.572591 2.550593 -0.633226
6.464540 2.061347 -0.555513
6.495290 1.604669 -0.557974
6.260563 2.992013 -0.617140
6.291773 2.534132 -0.643093
6.183475 2.062925 -0.642069
6.216592 1.592138 -0.586243
5.979178 2.972482 -0.614918
6.012272 2.504946 -0.602089
5.905425 2.031781 -0.590023
5.938060 1.574690 -0.592623
5.697865 2.952371 -0.610304
5.732410 2.482491 -0.587799
5.624224 2.022944 -0.632898
5.658230 1.563094 -0.625917
5.414755 2.941876 -0.641932
5.448649 2.481198 -0.658369
5.344740 2.002090 -0.624746
5.379757 1.542316 -0.617794
5.135533 2.910412 -0.593906
5.168006 2.459965 -0.648993
5.065378 1.980663 -0.614223
5.101406 1.520967 -0.607307
4.849391 2.908852 -0.659334
4.884951 2.447761 -0.675974
4.786161 1.958664 -0.601322
4.823199 1.499047 -0.594456
4.567876 2.886379 -0.645128
4.604250 2.425352 -0.661806
4.504835 1.942860 -0.615187
4.545157 1.476560 -0.579235
4.286539 2.863330 -0.628525
4.323725 2.402371 -0.645256
4.222331 1.928692 -0.636353
4.263959 1.461954 -0.600607
4.005400 2.839711 -0.609533
4.043399 2.378819 -0.626318
3.939341 1.913899 -0.655098
3.982275 1.446725 -0.619566
3.724482 2.815521 -0.588152
3.763293 2.354699 -0.604996
3.659959 1.889548 -0.632633
3.705169 1.420387 -0.587479
3.436249 2.808255 -0.631735
3.479147 2.339468 -0.619921
3.380828 1.864631 -0.607794
3.423010 1.403949 -0.601631
3.155230 2.782876 -0.605520
3.199197 2.314184 -0.593807
3.097205 1.848021 -0.619291
3.135704 1.395213 -0.652191
2.863225 2.779278 -0.663361
2.914558 2.297729 -0.603867
2.818295 1.821949 -0.589670
2.857452 1.369202 -0.622637
2.576665 2.762595 -0.670666
2.625544 2.287670 -0.640371
2.534245 1.804120 -0.596310
2.579515 1.342633 -0.590717
2.301143 2.725546 -0.598808
2.344146 2.262940 -0.616625
2.244040 1.794436 -0.639088
2.294711 1.325790 -0.604828
2.000973 2.729796 -0.687416
2.052409 2.253898 -0.657740
1.952817 1.784057 -0.679314
2.012456 1.304212 -0.597128
1.702133 2.728361 -0.754208
1.759665 2.244160 -0.696291
1.673576 1.755583 -0.639971
1.734902 1.275910 -0.558025
1.411894 2.711525 -0.761024
1.472637 2.224499 -0.693916
1.381073 1.743882 -0.675150
1.442461 1.265330 -0.603352
1.131827 2.679452 -0.708088
1.176537 2.215693 -0.736912
1.101971 1.714228 -0.630947
1.159603 1.241909 -0.588295
0.833827 2.671064 -0.748016
0.897787 2.183293 -0.681688
0.813918 1.694761 -0.632296
0.865458 1.229956 -0.628477
0.538629 2.657126 -0.766266
0.600358 2.173139 -0.719534
0.521550 1.678926 -0.650255
0.581969 1.205271 -0.608433
0.238668 2.647307 -0.800886
0.311954 2.150918 -0.707087
0.224376 1.666667 -0.684731
0.278054 1.199911 -0.681774
-0.049658 2.622398 -0.775961
0.017067 2.134847 -0.720655
-0.061008 1.640971 -0.659315
-0.008437 1.175906 -0.666212
-0.342357 2.601644 -0.767448
-0.280673 2.120338 -0.741098
-0.359689 1.627325 -0.688538
-0.295075 1.151277 -0.648146
-0.639914 2.584988 -0.775249
-0.572408 2.098403 -0.730440
-0.657035 1.610852 -0.705559
-0.591018 1.133877 -0.665697
-0.923895 2.553458 -0.723848
-0.859707 2.071363 -0.698294
-0.955157 1.593673 -0.719910
-0.878220 1.107961 -0.642530
-1.244192 2.556663 -0.811092
-1.168889 2.063683 -0.748606
-1.254030 1.575786 -0.731573
-1.185215 1.096962 -0.692804
-1.533630 2.528527 -0.773294
-1.471905 2.048585 -0.767801
-1.540834 1.546851 -0.693316
-1.473220 1.069719 -0.664431
-1.828169 2.504447 -0.751705
-1.752314 2.012976 -0.699636
-1.843351 1.529654 -0.709097
-1.782318 1.057220 -0.709160
-2.152604 2.505252 -0.830286
-2.075156 2.011811 -0.779148
-2.143981 1.509677 -0.712709
-2.081894 1.036285 -0.713274
-2.456748 2.486681 -0.831194
-2.377778 1.992352 -0.780714
-2.456500 1.497127 -0.751110
-2.368122 1.005145 -0.667616
-2.761517 2.467391 -0.829342
-2.681030 1.972177 -0.779535
-2.758732 1.475679 -0.749153
-2.680088 0.990395 -0.703939
-3.075743 2.454245 -0.852539
-2.993718 1.957743 -0.803518
-3.061557 1.453516 -0.744442
-2.984416 0.969212 -0.709234
-3.397111 2.444863 -0.891312
-3.298398 1.936097 -0.796728
-3.377187 1.438638 -0.774195
-3.298631 0.952887 -0.739744
-1.724059 0.985148 4.978531
-3.713616 2.430112 -0.908585
-3.619178 1.924383 -0.833464
-3.681450 1.414995 -0.763834
-3.598388 0.926488 -0.720711
-3.995923 2.389784 -0.821671
-3.925345 1.901238 -0.820955
-3.999125 1.398541 -0.787712
-3.904926 0.903081 -0.717529
-4.356201 2.402707 -0.952564
-4.271304 1.902647 -0.916172
-4.317942 1.381272 -0.808573
-4.235197 0.891736 -0.776333
-4.669088 2.381084 -0.942541
-4.565987 1.869538 -0.860977
-4.620926 1.353422 -0.780380
-4.540207 0.864943 -0.758020
-4.975675 2.354277 -0.911364
-4.915473 1.869110 -0.949663
-4.941530 1.334576 -0.795296
-4.856033 0.842845 -0.764515
-5.275444 2.322357 -0.859192
-5.225084 1.842828 -0.925291
-5.277394 1.322619 -0.843735
-5.176295 0.821745 -0.777189
-5.600374 2.305128 -0.867777
-5.563887 1.832273 -0.970848
-5.614930 1.309738 -0.888851
-5.497582 0.799823 -0.786785
-5.922610 2.284889 -0.864216
-5.874874 1.804435 -0.940500
-5.942960 1.290221 -0.903364
-5.819864 0.777079 -0.793299
-6.253194 2.268176 -0.875589
-6.182416 1.773836 -0.898218
-6.283494 1.275516 -0.941858
-6.158249 0.760522 -0.833054
-3.425637 0.485087 6.474380
-6.561758 2.237686 -0.829916
-6.478558 1.736482 -0.826090
-6.594593 1.244865 -0.904760
-6.467287 0.729109 -0.796980
-3.527423 0.387579 6.818996
-6.835026 2.187232 -0.700920
-6.821416 1.722562 -0.859020
-6.933631 1.226527 -0.927713
-6.827874 0.719427 -0.875341
-7.139031 2.153327 -0.640924
-7.149772 1.699736 -0.852749
-7.249798 1.196176 -0.893526
-7.154538 0.693246 -0.869026
-7.631176 2.215951 -0.986454
-7.532064 1.701787 -0.959135
-7.562201 1.163233 -0.847427
-7.498453 0.673032 -0.895372
-4.417620 0.408099 6.543684
-7.850972 2.135982 -0.733635
-7.875595 1.683002 -0.972670
-7.891545 1.136850 -0.833965
-7.843803 0.651875 -0.918251
-7.863235 1.955797 -0.056665
-8.093100 1.604767 -0.717485
-8.238741 1.116862 -0.852720
-8.173500 0.623075 -0.902079
-8.059267 1.870087 0.223501
-8.216352 1.485765 -0.275986
-8.587299 1.095922 -0.867962
-8.499588 0.591778 -0.873823
-4.919100 0.228695 7.109995
-8.401196 1.854352 0.207659
-9.110836 2.185656 -1.199018
-8.799139 1.571090 -0.764513
-8.954899 1.081148 -0.914814
-8.835058 0.562955 -0.860027
-9.708889 2.277049 -1.675354
-9.172279 1.560410 -0.817549
-9.288347 1.051172 -0.887806
-9.166855 0.531632 -0.834126
-5.315125 0.141831 7.351233
-10.015388 2.231992 -1.572262
-5.835043 0.004752 6.222569
-9.675005 1.601667 -1.110197
-9.640764 1.027357 -0.892365
-9.499283 0.499465 -0.804947
-6.139978 0.370952 6.305449
-10.307297 2.180260 -1.440536
-6.107518 -0.013268 6.224609
-10.309139 1.691762 -1.630589
-10.120258 1.049482 -1.127533
-9.869528 0.479265 -0.842133
-6.484287 0.383796 6.181929
-10.447086 2.063978 -1.031475
-10.689959 1.674679 -1.659885
-10.571901 1.057791 -1.296535
-10.260479 0.464333 -0.910067
-6.764602 0.367661 6.182049
-10.633535 1.969943 -0.716429
-10.833206 1.563972 -1.256014
-10.772526 0.974023 -1.004679
-10.596132 0.429330 -0.870203
-7.070216 0.360606 6.142521
-10.776627 1.860236 -0.332485
-11.150421 1.521567 -1.168180
-10.827368 0.841172 -0.463642
-10.956684 0.401265 -0.869938
-11.107019 1.827145 -0.278679
-11.269798 1.405628 -0.737246
-11.122213 0.793102 -0.349739
-11.812599 1.026308 -1.533413
-11.184614 0.330562 -0.635149
-11.538143 1.832044 -0.390146
-11.748791 1.421991 -0.924316
-11.491917 0.769365 -0.360266
-12.344034 1.050332 -1.792416
-11.681379 0.342125 -0.858114
-11.738075 1.746956 -0.110947
-12.691193 2.106964 -1.679024
-11.988125 1.350714 -0.701506
-12.727852 1.022939 -1.791904
-12.152689 0.342788 -1.024256
-12.105003 1.724869 -0.105972
-13.108295 2.095365 -1.724533
-12.204166 1.272095 -0.443464
-13.123392 0.997723 -1.804096
-12.555681 0.320847 -1.066883
-13.485632 2.067334 -1.699036
-12.448389 1.203922 -0.234087
-13.283569 0.898629 -1.436440
-13.181484 0.359853 -1.456917
-13.874578 2.042029 -1.686100
-12.753986 1.156381 -0.122372
-13.545443 0.831802 -1.234486
-13.367849 0.273263 -1.138723
-14.334858 2.039843 -1.775784
-13.102055 1.122001 -0.073751
-14.179115 1.467558 -1.723160
-13.280127 0.610916 -0.229456
-14.270666 0.900882 -1.740631
-13.874172 0.273691 -1.317078
-14.672485 1.993665 -1.672287
-14.558710 1.434215 -1.686584
-13.607410 0.566884 -0.142752
-13.925106 0.151932 -0.796738
-15.137184 1.988814 -1.752296
-14.977867 1.411705 -1.703098
-13.851212 0.498777 0.069706
-14.301220 0.116054 -0.769735
-15.582399 1.975180 -1.794598
-15.426855 1.396329 -1.755512
-14.227831 0.467237 0.089140
-15.545315 0.826706 -1.811020
-14.554672 0.048311 -0.559364
-16.024256 1.958344 -1.823788
-15.844267 1.369542 -1.754372
-14.788027 0.483256 -0.145681
-15.928415 0.787223 -1.760338
-14.794527 -0.022540 -0.330791
-11.599722 0.432609 4.904577
-16.450968 1.934789 -1.824001
-13.746174 0.620156 1.762585
-16.297724 1.351396 -1.796692
-16.456528 0.784280 -1.906223
-15.129831 -0.070403 -0.237415
-16.896803 1.915253 -1.843243
-16.834990 1.354633 -1.945339
-16.836880 0.740808 -1.838200
-15.488348 -0.113682 -0.172688
-16.707582 0.168706 -1.846554
-13.677168 0.806601 3.047186
-17.403605 1.911819 -1.936241
-17.294096 1.333365 -1.976467
-17.194017 0.690441 -1.734436
-15.870884 -0.152579 -0.136009
-17.057583 0.115642 -1.735981
-14.125132 0.806848 2.952726
-17.854101 1.889344 -1.944767
-17.677979 1.289881 -1.899952
-12.548265 -0.575696 4.959795
-17.640762 0.660992 -1.745216
-17.461060 0.073591 -1.693077
-14.642639 0.824405 2.778103
-18.288378 1.860331 -1.924774
-13.052929 -0.067674 4.679775
-18.086336 1.251699 -1.850658
-12.744104 -0.638072 5.162062
-18.125715 0.638772 -1.797825
-17.919847 0.042097 -1.716473
-13.534674 0.386631 4.675594
-18.705753 1.824929 -1.876671
-18.513859 1.217050 -1.820194
-13.250000 -0.628271 4.969074
-18.576590 0.606442 -1.797977
-18.350189 0.002728 -1.695457
-12.752628 0.053546 6.106850
-19.235203 1.818590 -1.962273
-13.337761 -0.224143 5.232122
-19.047438 1.207422 -1.916157
-19.041611 0.575519 -1.808361
-18.831343 -0.027800 -1.731617
-19.693102 1.790468 -1.949787
-13.836571 -0.213549 5.064325
-19.484768 1.171485 -1.882839
-19.477318 0.536202 -1.774921
-19.214918 -0.079883 -1.638721
-15.104731 0.443797 4.132952
-20.114790 1.751061 -1.886517
-19.923355 1.134249 -1.844563
-19.813040 0.473709 -1.614552
-19.402866 -0.171167 -1.304436
-13.732796 -0.027670 6.214331
-14.734013 0.228080 5.032358
-20.473486 1.694162 -1.743263
-20.216642 1.061346 -1.627335
-20.205341 0.422624 -1.519012
-19.963396 -0.190744 -1.417793
-13.491859 -0.199000 6.917856
-14.986866 0.174850 5.183617
-20.966898 1.670251 -1.753342
-20.565926 1.001234 -1.475128
-20.662449 0.383805 -1.494385
-20.360056 -0.243433 -1.327785
-21.325733 1.611279 -1.601665
-21.057499 0.972402 -1.483429
-21.179770 0.355407 -1.531555
-20.913399 -0.268916 -1.413277
-14.259411 -0.227834 6.870865
-21.756210 1.568794 -1.527363
-14.345760 -0.638734 6.633566
-21.373829 0.903074 -1.285973
-14.962782 -0.999937 6.007721
-21.666729 0.318793 -1.525333
-14.875515 -1.459765 5.961929
-21.364843 -0.314916 -1.372751
-14.742313 -0.221579 6.748409
-22.233881 1.535976 -1.499367
-14.915730 -0.619831 6.415165
-21.920835 0.882925 -1.342661
-22.142246 0.278061 -1.498554
-21.837465 -0.358865 -1.349094
-14.564980 -0.369604 7.350697
-15.731873 -0.101620 6.088099
-22.827116 1.527846 -1.589062
-15.330301 -0.636927 6.379560
-22.363678 0.838409 -1.275829
-22.558813 0.224493 -1.400444
-22.197559 -0.423429 -1.195221
-15.272240 -0.314952 6.997864
-23.302158 1.490208 -1.541542
-15.003147 -0.808013 7.144978
-23.023798 0.836968 -1.435398
-22.948561 0.164786 -1.268698
-22.773781 -0.453440 -1.270279
-15.659243 -0.335500 6.998077
-24.038195 1.508254 -1.759853
-15.346729 -0.839642 7.185356
-16.548208 -0.598731 5.922022
-23.702467 0.835789 -1.600552
-15.831394 -1.237837 6.739428
-23.714777 0.171398 -1.527763
-16.439430 -1.586255 5.955769
-23.291800 -0.495288 -1.273008
-24.552641 1.474421 -1.734318
-15.856514 -0.839911 7.058905
-16.786646 -0.657589 6.097597
-24.021008 0.760470 -1.379242
-24.224979 0.129144 -1.505497
-16.406408 -1.687454 6.409985
-23.963776 -0.515300 -1.426769
-16.897335 -0.283589 6.548971
-24.880922 1.399314 -1.512733
-16.961088 -0.728884 6.338953
-24.643745 0.743145 -1.465691
-24.583506 0.059114 -1.321512
-24.410732 -0.572558 -1.337263
-25.333939 1.349626 -1.413452
-17.455639 -0.739860 6.259256
-25.207062 0.711752 -1.480949
-17.791763 -1.199534 5.986813
-25.201359 0.031498 -1.393120
-25.118248 -0.592894 -1.503029
-17.966394 -0.280307 6.321247
-25.964584 1.334367 -1.481693
-17.613619 -0.814812 6.519499
-25.808277 0.684918 -1.523800
-25.560055 -0.040895 -1.199524
-25.504814 -0.662610 -1.338055
-26.677353 1.332376 -1.617043
-18.097080 -0.831075 6.463861
-26.205532 0.618960 -1.359180
-26.368629 -0.042824 -1.436260
-26.133789 -0.699440 -1.404217
-27.214714 1.292888 -1.572968
-26.738987 0.575871 -1.319908
-27.226959 -0.041277 -1.702671
-27.177082 -0.682818 -1.853188
-27.819099 1.264020 -1.582798
-27.542660 0.576879 -1.524330
-27.997665 -0.057395 -1.868958
-27.663548 -0.745380 -1.756432
-28.872971 1.315718 -1.991730
-28.586494 0.613780 -1.932133
-28.634258 -0.096899 -1.897167
-28.385204 -0.779358 -1.869492
-29.486092 1.281508 -1.982147
-29.204708 0.575454 -1.932739
-29.273796 -0.138652 -1.917007
-29.059525 -0.822484 -1.925968
-30.220699 1.266263 -2.069386
-29.899803 0.546809 -1.991116
-29.916183 -0.182659 -1.928429
-29.662846 -0.877062 -1.907269
-30.839439 1.227535 -2.042900
-30.613476 0.517960 -2.053211
-30.621418 -0.220784 -1.983543
-30.305862 -0.929296 -1.913502
-31.581299 1.207150 -2.111137
-31.285545 0.479640 -2.066914
-31.299919 -0.265474 -2.003304
-30.981766 -0.980338 -1.937191
-32.296608 1.178991 -2.143845
-31.937698 0.435564 -2.052498
-31.981403 -0.312588 -2.013985
-31.721596 -1.027054 -2.003231
-32.915531 1.132132 -2.085075
-32.630623 0.394735 -2.061115
-32.658077 -0.363091 -2.009209
-32.403831 -1.083099 -2.008236
-33.605755 1.094168 -2.074348
-33.372765 0.357945 -2.098026
-33.476665 -0.399069 -2.108158
-33.081120 -1.142377 -1.997784
-34.399803 1.069370 -2.134537
-34.071716 0.312051 -2.087605
-34.136124 -0.457479 -2.065453
-33.807640 -1.199344 -2.015640
-35.088108 1.025084 -2.098343
-34.726360 0.257399 -2.030979
-34.852592 -0.511868 -2.056942
-34.584255 -1.254358 -2.060577
-35.857624 0.990000 -2.113285
-35.548439 0.222041 -2.093124
-35.642887 -0.560898 -2.093319
-35.340813 -1.314485 -2.076450
-36.582748 0.945260 -2.081856
-36.279331 0.171528 -2.071766
-36.373123 -0.619740 -2.070705
-36.068748 -1.380279 -2.057758
-37.446293 0.917007 -2.140907
-37.100719 0.129250 -2.105743
-37.105942 -0.681197 -2.038132
-36.735348 -1.454327 -1.981388
-38.281796 0.881092 -2.164463
-37.869473 0.077152 -2.087170
-37.905663 -0.738700 -2.042492
-37.564503 -1.516961 -2.014095
-39.056099 0.833420 -2.130196
-38.641018 0.022272 -2.057999
-38.643684 -0.805553 -1.989311
-38.405334 -1.582026 -2.040966
-39.800426 0.778718 -2.062485
-39.423355 -0.034467 -2.023926
-39.514431 -0.862536 -2.017723
-39.135654 -1.659269 -1.975288
-40.776424 0.750537 -2.142239
-40.322994 -0.081350 -2.058308
-40.454514 -0.916708 -2.079090
-39.941730 -1.733469 -1.950863
-41.625172 0.702259 -2.118950
-41.201778 -0.134287 -2.063095
-41.332840 -0.980400 -2.082188
-40.981445 -1.793683 -2.072655
-42.576481 0.662867 -2.149628
-42.150299 -0.183583 -2.099632
-42.247746 -1.044496 -2.094898
-41.827427 -1.872016 -2.045876
-43.531792 0.619861 -2.166653
-43.136196 -0.233109 -2.144344
-43.199646 -1.109241 -2.116333
-42.709610 -1.951211 -2.029076
-44.516102 0.576117 -2.186016
-44.050858 -0.293836 -2.126324
-44.054531 -1.185752 -2.059441
-43.628414 -2.031518 -2.021366
-45.546547 0.533324 -2.217556
-45.078354 -0.347526 -2.164318
-45.148422 -1.246950 -2.139202
-44.617981 -2.111093 -2.043201
-46.649086 0.493927 -2.275780
-46.177921 -0.398897 -2.229290
-46.179295 -1.317534 -2.160900
-45.577461 -2.196464 -2.029549
-47.619873 0.435869 -2.235588
-47.120312 -0.469056 -2.179802
-47.077541 -1.401956 -2.084827
-46.608459 -2.281602 -2.043610
-48.730991 0.388218 -2.262463
-48.194103 -0.531587 -2.193268
-48.184135 -1.475355 -2.118252
-47.497566 -2.378543 -1.955360
-49.605053 0.312272 -2.133144
-49.091030 -0.613408 -2.085381
-49.260544 -1.555354 -2.115219
-48.638680 -2.465960 -2.001057
-50.810074 0.264964 -2.178467
-50.241009 -0.678161 -2.108418
-50.306026 -1.641709 -2.076538
-49.680378 -2.562879 -1.969948
-51.346008 -1.732569 -2.017639
-50.786251 -2.660971 -1.957920
-52.537750 -1.818627 -2.025181
-51.799580 -2.767484 -1.876278
-53.777618 -1.906862 -2.038563
-54.327881 -2.973078 -1.931023
6.734615 -5.303506 30.522438
6.696285 -5.300069 30.510189
6.696580 -5.303724 30.509315
6.732137 -5.304968 30.527725
6.685229 -5.300934 30.510380
6.667212 -5.304431 30.501463
6.693783 -5.305445 30.515574
6.683353 -5.302126 30.514732
6.665203 -5.305708 30.506126
6.719533 -5.303595 30.531879
6.738317 -5.307008 30.538645
6.718771 -5.304107 30.533762
6.700449 -5.307233 30.525597
6.699358 -5.304269 30.528486
6.690319 -5.307749 30.524029
6.726665 -5.305286 30.541050
6.754979 -5.308455 30.550911
6.698085 -5.308901 30.531755