# This PCD file was generated using the MATLAB® pcwrite function
# from Computer Vision System Toolbox®.
# .PCD v.7 - Point Cloud Data file format
VERSION .7
FIELDS x y z
SIZE 4 4 4
TYPE F F F
COUNT 1 1 1
WIDTH 772
HEIGHT 1
VIEWPOINT 0 0 0 1 0 0 0
POINTS 772
DATA ascii
-6.038821 -3.768979 -0.330994
-6.093002 -3.632695 -0.310589
-5.910312 -3.692288 -0.319075
-5.976735 -3.564941 -0.311808
-5.814273 -3.635005 -0.338684
-5.867385 -3.501172 -0.317926
-5.686907 -3.559032 -0.322933
-5.777571 -3.448600 -0.342718
-5.560270 -3.483511 -0.305123
-5.687873 -3.396114 -0.366218
-5.484008 -3.438090 -0.340577
-5.541839 -3.311466 -0.326212
-5.340022 -3.352240 -0.298264
-5.459103 -3.263008 -0.353552
-5.288617 -3.321697 -0.359136
-5.364082 -3.207556 -0.365667
-5.140023 -3.233124 -0.305878
-5.238757 -3.134832 -0.340889
-5.040618 -3.173944 -0.307426
-5.114257 -3.062615 -0.314116
-4.935693 -3.111480 -0.300259
-5.008630 -3.001196 -0.307024
-4.837192 -3.052867 -0.298767
-4.885681 -2.929930 -0.276480
-4.744967 -2.998017 -0.303141
-4.840310 -2.902909 -0.339419
-4.658865 -2.946840 -0.313567
-4.730121 -2.838968 -0.320553
-4.567300 -2.892411 -0.315309
-4.666936 -2.801823 -0.359660
-4.442144 -2.817921 -0.270615
-4.517584 -2.715641 -0.285262
-4.396524 -2.790974 -0.329946
-4.494613 -2.701418 -0.375013
-4.294921 -2.730583 -0.312561
-4.363930 -2.625924 -0.319830
-4.182985 -2.664024 -0.278266
-4.256708 -2.563810 -0.293293
-4.147990 -2.643473 -0.350621
-4.199788 -2.530315 -0.334798
-4.063909 -2.593590 -0.352606
-4.109945 -2.478125 -0.328888
-3.958903 -2.531205 -0.322007
-4.025941 -2.429274 -0.329544
-3.891507 -2.491322 -0.345142
-3.984896 -2.404827 -0.392269
-3.813722 -2.445236 -0.351518
-3.858988 -2.332234 -0.327351
-3.725912 -2.393164 -0.340819
-3.817714 -2.307678 -0.388603
-3.628454 -2.335325 -0.312742
-3.714101 -2.247787 -0.352785
-3.561840 -2.295954 -0.331901
-3.641876 -2.205711 -0.364095
-3.500216 -2.259583 -0.358396
-3.564783 -2.160895 -0.366308
-3.572299 -2.029972 -0.344967
-3.609383 -1.917675 -0.309304
-3.418946 -2.211460 -0.351305
-3.492943 -2.119071 -0.375708
-3.465443 -1.970109 -0.296100
-3.562867 -1.889878 -0.359078
-3.342928 -2.166491 -0.351360
-3.401674 -2.066271 -0.351127
-3.394209 -1.929308 -0.303631
-3.450810 -1.829184 -0.300742
-3.252917 -2.113146 -0.325459
-3.344955 -2.033035 -0.383428
-3.342675 -1.899017 -0.343595
-3.399285 -1.798899 -0.340697
-3.182420 -2.071500 -0.331707
-3.259400 -1.983510 -0.364938
-3.271581 -1.858321 -0.349501
-3.332809 -1.761133 -0.354990
-3.112125 -2.029985 -0.337050
-3.183848 -1.939660 -0.362071
-3.200694 -1.817759 -0.354504
-3.256775 -1.718624 -0.351620
-3.000836 -1.963899 -0.265390
-3.066792 -1.872398 -0.282106
-3.134708 -1.779819 -0.367085
-3.176326 -1.673964 -0.338784
-2.976693 -1.950073 -0.353543
-3.052105 -1.862943 -0.387362
-3.059571 -1.737051 -0.361818
-3.119814 -1.641227 -0.367466
-2.902542 -1.906271 -0.347698
-2.959251 -1.809389 -0.347517
-2.962002 -1.682458 -0.312728
-3.035384 -1.594680 -0.344145
-2.833141 -1.865325 -0.349470
-2.894015 -1.771432 -0.357889
-2.923867 -1.659303 -0.374187
-2.956144 -1.550763 -0.328280
-2.746700 -1.814158 -0.315814
-2.802543 -1.718710 -0.315650
-2.858498 -1.621770 -0.383444
-2.899899 -1.518215 -0.354628
-2.695080 -1.783902 -0.350378
-2.755239 -1.690884 -0.358901
-2.784526 -1.579730 -0.374513
-2.821357 -1.474730 -0.336882
-2.622244 -1.740916 -0.340801
-2.681975 -1.648456 -0.349374
-2.719544 -1.542446 -0.382112
-2.760808 -1.440105 -0.353054
-2.558057 -1.703131 -0.347806
-2.642671 -1.625140 -0.409024
-2.646237 -1.500817 -0.371362
-2.700266 -1.405495 -0.368533
-2.506189 -1.672763 -0.380460
-2.561427 -1.578256 -0.380323
-2.560844 -1.452901 -0.333191
-2.635504 -1.368847 -0.374498
-2.398184 -1.608640 -0.288707
-2.472739 -1.527219 -0.332822
-2.504962 -1.420458 -0.355910
-2.562560 -1.328260 -0.361964
-2.370309 -1.592725 -0.373076
-2.424964 -1.499171 -0.372953
-2.444942 -1.385862 -0.369117
-2.502345 -1.293873 -0.375213
-2.271947 -1.534396 -0.296686
-2.337532 -1.448890 -0.323356
-2.388919 -1.353357 -0.390587
-2.426030 -1.251755 -0.352008
-2.246991 -1.520276 -0.389215
-2.293551 -1.422987 -0.371171
-2.309418 -1.308673 -0.357544
-2.366156 -1.217588 -0.363735
-2.168739 -1.474062 -0.355679
-2.241485 -1.392555 -0.400603
-2.253614 -1.276316 -0.377577
-2.306327 -1.183458 -0.374785
-2.113144 -1.441510 -0.375347
-2.155667 -1.343248 -0.348119
-2.171399 -1.230320 -0.333591
-2.231230 -1.142082 -0.348935
-2.028773 -1.391603 -0.321774
-2.114743 -1.319067 -0.403403
-2.134371 -1.207682 -0.397647
-2.171783 -1.108195 -0.358488
-1.980603 -1.363547 -0.358186
-2.037308 -1.274493 -0.367216
-2.056721 -1.164119 -0.361012
-2.108706 -1.072613 -0.358244
-1.897594 -1.314456 -0.302627
-1.946547 -1.222514 -0.293395
-2.001158 -1.131943 -0.378360
-2.053084 -1.040565 -0.375590
-1.862948 -1.294596 -0.374528
-1.919213 -1.205933 -0.383640
-1.935073 -1.094393 -0.367507
-1.972516 -0.996863 -0.327954
-1.794302 -1.254191 -0.354042
-1.856898 -1.169850 -0.381634
-1.869348 -1.057062 -0.355855
-1.906803 -0.960186 -0.316177
-1.729398 -1.216051 -0.341947
-1.788182 -1.130223 -0.360392
-1.817373 -1.026757 -0.380487
-1.858532 -0.931629 -0.349938
-1.683891 -1.189669 -0.384788
-1.739424 -1.101710 -0.394015
-1.752105 -0.989713 -0.367390
-1.789862 -0.893659 -0.327456
-1.625513 -1.155499 -0.389956
-1.671310 -1.062453 -0.371264
-1.687215 -0.952897 -0.353510
-1.741363 -0.864988 -0.360105
-1.555111 -1.114036 -0.357071
-1.616124 -1.030388 -0.385071
-1.635252 -0.922629 -0.376313
-1.673317 -0.827400 -0.336133
-1.488340 -1.074772 -0.332671
-1.542719 -0.988241 -0.342005
-1.570856 -0.886120 -0.361013
-1.608938 -0.791547 -0.320724
-1.410548 -1.028798 -0.269804
-1.487891 -0.956404 -0.354458
-1.518833 -0.855835 -0.382643
-1.557209 -0.761433 -0.342232
-1.384599 -1.014379 -0.375805
-1.438816 -0.927754 -0.385207
-1.466645 -0.825463 -0.403748
-1.505316 -0.731233 -0.363217
-1.324242 -0.979028 -0.368180
-1.383801 -0.895826 -0.396552
-1.402891 -0.789355 -0.386404
-1.453262 -0.700948 -0.383678
-1.269506 -0.947111 -0.378854
-1.334261 -0.866924 -0.426304
-1.350671 -0.758983 -0.406342
-1.401052 -0.670582 -0.403612
-1.204343 -0.908829 -0.350856
-1.268379 -0.829031 -0.398446
-1.298298 -0.728531 -0.425752
-1.337583 -0.635304 -0.384897
-1.142282 -0.872437 -0.331618
-1.208269 -0.794337 -0.388892
-1.214149 -0.682555 -0.329911
-1.266427 -0.596787 -0.336776
-1.100332 -0.848370 -0.388247
-1.158566 -0.765367 -0.416955
-1.172605 -0.657436 -0.386301
-1.211933 -0.565527 -0.345263
-1.038563 -0.812165 -0.367757
-1.084002 -0.722788 -0.348544
-1.110415 -0.622284 -0.365484
-1.162567 -0.536443 -0.372391
-0.963347 -0.767684 -0.288804
-1.024915 -0.688714 -0.336912
-1.068018 -0.596688 -0.421018
-1.107947 -0.505127 -0.379782
-0.918602 -0.741941 -0.334269
-0.954571 -0.648522 -0.276380
-1.006144 -0.561737 -0.398958
-1.055757 -0.474826 -0.396253
-0.855938 -0.705165 -0.301992
-0.925576 -0.630876 -0.389014
-0.944727 -0.527060 -0.376190
-0.996415 -0.441595 -0.383172
-0.806460 -0.676531 -0.327123
-0.866835 -0.597030 -0.375579
-0.890371 -0.495762 -0.381822
-0.932852 -0.406731 -0.350040
-0.752671 -0.645244 -0.332350
-0.816786 -0.567912 -0.400339
-0.848801 -0.470439 -0.445211
-0.889663 -0.380065 -0.403628
-0.702813 -0.616408 -0.356478
-0.754356 -0.532105 -0.366216
-0.779698 -0.432298 -0.381640
-0.820310 -0.343069 -0.340005
-0.633936 -0.575738 -0.282598
-0.700335 -0.500862 -0.370378
-0.727496 -0.402033 -0.395312
-0.776606 -0.316121 -0.392622
-0.604132 -0.559442 -0.413053
-0.650099 -0.471662 -0.393519
-0.667567 -0.368263 -0.369341
-0.714436 -0.282100 -0.356889
-0.537880 -0.520393 -0.347631
-0.597815 -0.441363 -0.406382
-0.615455 -0.338068 -0.381886
-0.664308 -0.252653 -0.379207
-0.487606 -0.491350 -0.369666
-0.538532 -0.407335 -0.379488
-0.561488 -0.307048 -0.384091
-0.602976 -0.219134 -0.342175
-0.430766 -0.458182 -0.351915
-0.478098 -0.372727 -0.342107
-0.504211 -0.274600 -0.366078
-0.552808 -0.189681 -0.363409
-0.383321 -0.430959 -0.392580
-0.427773 -0.343511 -0.363081
-0.456945 -0.246517 -0.406516
-0.500725 -0.159529 -0.374309
-0.321022 -0.394317 -0.334264
-0.375712 -0.313375 -0.373704
-0.399941 -0.214244 -0.387356
-0.448558 -0.129337 -0.384683
-0.273260 -0.366928 -0.373911
-0.323569 -0.283201 -0.383804
-0.347684 -0.184008 -0.397207
-0.394782 -0.098622 -0.384660
-0.217275 -0.334289 -0.353819
-0.267289 -0.250876 -0.363727
-0.295351 -0.153737 -0.406529
-0.339625 -0.067517 -0.374201
-0.162873 -0.302657 -0.343020
-0.219053 -0.222745 -0.402422
-0.242946 -0.123432 -0.415324
-0.290214 -0.038144 -0.402749
-0.115501 -0.275603 -0.391097
-0.166688 -0.192468 -0.410941
-0.185531 -0.091193 -0.383943
-0.235215 -0.007148 -0.391186
-0.058995 -0.242604 -0.359385
-0.114257 -0.162161 -0.418931
-0.136775 -0.062299 -0.421404
-0.185373 0.022457 -0.418726
-0.004995 -0.211230 -0.346920
-0.061764 -0.131827 -0.426393
-0.079910 -0.030396 -0.388869
-0.124776 0.054675 -0.356416
0.045128 -0.182442 -0.373653
-0.005300 -0.099513 -0.393565
-0.028643 -0.000544 -0.405441
-0.077053 0.083838 -0.402771
0.098938 -0.151194 -0.360101
0.046101 -0.069750 -0.409880
0.023762 0.029719 -0.411552
-0.024659 0.114095 -0.408882
0.157047 -0.116965 -0.286244
0.099358 -0.039076 -0.405770
0.076215 0.060001 -0.417135
0.027784 0.144371 -0.414464
0.201704 -0.092035 -0.391115
0.151005 -0.009186 -0.421046
0.128711 0.090300 -0.422189
0.080270 0.174663 -0.419517
0.253985 -0.061865 -0.395883
0.208941 0.023637 -0.346059
0.181957 0.120785 -0.416740
0.132796 0.204971 -0.424041
0.308964 -0.029721 -0.350233
0.256077 0.051440 -0.430096
0.236355 0.151452 -0.390794
0.187468 0.235313 -0.398110
0.358655 -0.001487 -0.403838
0.309192 0.081999 -0.423843
0.288657 0.181614 -0.394240
0.240464 0.265476 -0.391580
0.411799 0.029327 -0.387049
0.361284 0.112111 -0.437028
0.340987 0.211784 -0.397159
0.292231 0.295719 -0.404484
0.463444 0.058927 -0.409684
0.418434 0.144144 -0.319795
0.391711 0.241967 -0.439517
0.343695 0.326178 -0.426854
0.516794 0.090013 -0.371834
0.467193 0.173002 -0.421849
0.444718 0.272273 -0.431398
0.397087 0.356147 -0.408745
0.568319 0.119357 -0.413418
0.519502 0.203214 -0.433452
0.497333 0.302583 -0.432742
0.448564 0.386995 -0.440062
0.621096 0.150096 -0.374496
0.572718 0.233563 -0.394535
0.549960 0.332890 -0.433554
0.502007 0.416578 -0.410894
0.673277 0.180485 -0.335042
0.625852 0.263325 -0.285083
0.602595 0.363194 -0.433837
0.553957 0.447681 -0.441159
0.725292 0.210257 -0.355058
0.677384 0.293899 -0.405097
0.655322 0.392832 -0.403597
0.607056 0.476653 -0.400937
0.778203 0.240195 -0.414546
0.728937 0.322735 -0.294599
0.707733 0.422991 -0.402824
0.659458 0.506806 -0.400163
0.829784 0.270214 -0.373518
0.782821 0.354873 -0.443540
0.760628 0.454367 -0.441501
0.711907 0.537376 -0.408853
0.883147 0.300566 -0.411940
0.832775 0.382696 -0.322023
0.813131 0.484326 -0.429670
0.764243 0.567078 -0.397034
0.936355 0.330991 -0.429829
0.887613 0.414988 -0.419877
0.866018 0.514970 -0.437292
0.816823 0.597706 -0.404663
0.988050 0.360880 -0.407222
0.939001 0.444302 -0.387284
0.918691 0.545246 -0.434393
0.870932 0.631195 -0.461659
1.038373 0.390142 -0.364137
0.989006 0.472661 -0.334223
0.973040 0.577424 -0.470881
0.923092 0.660372 -0.438264
1.092880 0.421119 -0.400393
1.040359 0.502091 -0.320603
1.023971 0.605735 -0.427003
0.976645 0.691933 -0.454240
1.141874 0.449686 -0.346326
1.098822 0.536508 -0.426143
1.078871 0.638214 -0.462383
1.028450 0.720890 -0.429805
1.201365 0.483000 -0.441284
1.153453 0.568108 -0.451286
1.129137 0.666126 -0.417496
1.080501 0.750378 -0.414824
1.253227 0.512858 -0.426030
1.206229 0.598406 -0.445981
1.181668 0.696279 -0.411949
1.131053 0.778200 -0.379434
1.303095 0.541732 -0.390362
1.258966 0.628673 -0.440145
1.237364 0.729189 -0.445647
1.185502 0.810640 -0.403204
1.358337 0.573175 -0.413864
1.311661 0.658907 -0.433778
1.290111 0.759449 -0.439006
1.238744 0.841583 -0.406533
1.415037 0.605361 -0.446712
1.368244 0.691670 -0.466606
1.341857 0.788890 -0.421911
1.292971 0.873481 -0.419233
1.463261 0.633352 -0.399586
1.417965 0.719952 -0.429377
1.395455 0.819859 -0.424134
1.343617 0.901722 -0.391727
1.520457 0.665806 -0.431291
1.473985 0.752299 -0.451137
1.448044 0.850003 -0.415904
1.398035 0.933713 -0.403327
1.570524 0.694668 -0.402992
1.520724 0.778701 -0.393123
1.500572 0.880105 -0.407145
1.456012 0.968932 -0.444007
1.620229 0.723315 -0.374217
1.574354 0.809507 -0.394009
1.553035 0.910160 -0.397858
1.502856 0.993772 -0.385311
1.672424 0.753212 -0.364708
1.628068 0.840352 -0.394342
1.616041 0.948154 -0.466934
1.566474 1.033803 -0.464231
1.732063 0.786948 -0.403955
1.690460 0.876625 -0.453256
1.668961 0.978454 -0.456475
1.614059 1.059450 -0.414403
1.789218 0.819420 -0.422845
1.743267 0.906856 -0.442546
1.721802 1.008701 -0.445485
1.672215 1.094337 -0.442785
1.830224 0.843467 -0.342866
1.783335 0.929162 -0.352708
1.774563 1.038892 -0.433963
1.724965 1.124523 -0.431266
1.894271 0.879536 -0.399905
1.860235 0.974339 -0.488195
1.833735 1.073701 -0.461103
1.785401 1.161099 -0.468188
1.955670 0.914246 -0.436598
1.915042 1.005767 -0.485565
1.879823 1.099101 -0.409332
1.838347 1.191379 -0.455521
2.002723 0.941398 -0.394402
1.977125 1.041663 -0.521459
1.946494 1.139140 -0.474316
1.896305 1.225720 -0.471596
2.060928 0.974427 -0.410313
2.021060 1.066383 -0.459090
1.990247 1.162948 -0.411816
1.949280 1.256000 -0.457809
2.099253 0.996899 -0.328238
2.079780 1.100181 -0.474257
2.060042 1.204996 -0.485095
2.002152 1.286212 -0.443491
2.174170 1.038812 -0.420772
2.126677 1.126735 -0.430488
2.105137 1.229793 -0.431354
2.054918 1.316355 -0.428642
2.215886 1.063042 -0.357235
2.181424 1.158086 -0.425085
2.174339 1.271244 -0.493413
2.115561 1.352595 -0.451968
2.279184 1.098785 -0.390100
2.231859 1.186803 -0.399767
2.218914 1.295726 -0.438693
2.178746 1.390681 -0.484243
2.347730 1.137355 -0.441513
2.313484 1.234452 -0.509046
2.280492 1.331840 -0.460703
2.229682 1.419350 -0.457971
2.383733 1.158457 -0.357323
2.357452 1.259217 -0.453564
2.333385 1.362020 -0.443550
2.291429 1.456194 -0.479251
2.467826 1.205406 -0.464962
2.415066 1.292250 -0.455347
2.395586 1.398471 -0.464214
2.344474 1.486452 -0.461473
2.510594 1.230112 -0.408637
2.470375 1.323877 -0.446925
2.458236 1.435170 -0.484147
2.397386 1.516625 -0.443162
2.573504 1.265668 -0.428393
2.551073 1.370796 -0.533432
2.521328 1.472111 -0.503344
2.472069 1.562838 -0.510111
2.626137 1.295668 -0.409313
2.596681 1.396543 -0.485485
2.584857 1.509292 -0.521794
2.532872 1.598703 -0.519019
2.689632 1.331540 -0.427696
2.668534 1.438071 -0.532143
2.638220 1.539695 -0.501564
2.575912 1.621604 -0.460879
2.730970 1.355395 -0.369571
2.675146 1.440409 -0.350597
2.702314 1.577180 -0.518616
2.650028 1.667061 -0.515833
2.817902 1.403986 -0.462213
2.780896 1.502236 -0.509384
2.755657 1.607552 -0.497202
2.692473 1.689605 -0.456738
2.876730 1.437325 -0.459507
2.831262 1.530824 -0.478291
2.808840 1.637824 -0.475253
2.756533 1.727694 -0.472481
2.917457 1.460803 -0.399854
2.875386 1.555679 -0.427957
2.873596 1.675658 -0.490235
2.820998 1.766004 -0.487451
2.985427 1.499101 -0.424086
2.949314 1.598342 -0.470798
2.938751 1.713709 -0.504437
2.874121 1.796224 -0.464319
3.060296 1.541165 -0.466123
3.024064 1.641462 -0.512673
3.004299 1.751974 -0.517855
2.951118 1.843274 -0.515051
3.103478 1.565938 -0.414294
3.055092 1.658495 -0.423523
3.057646 1.782301 -0.493397
2.992149 1.864965 -0.453529
3.172622 1.604875 -0.436182
3.136977 1.705827 -0.482399
3.110809 1.812514 -0.468404
3.057607 1.903802 -0.465610
3.249065 1.647805 -0.475656
3.200012 1.741909 -0.484809
3.163785 1.842610 -0.442880
3.126655 1.945078 -0.486092
3.284773 1.668446 -0.403857
3.276841 1.786173 -0.523239
3.243421 1.889837 -0.490182
3.189637 1.982078 -0.487368
3.369010 1.715641 -0.460035
3.305997 1.802103 -0.432491
3.310270 1.928792 -0.499855
3.246126 2.014561 -0.469638
3.414707 1.741722 -0.414742
3.404589 1.859241 -0.524080
3.363489 1.958998 -0.472314
3.309403 2.051709 -0.469496
3.485602 1.781605 -0.432642
3.468780 1.895941 -0.523376
3.430759 1.998172 -0.480489
3.386862 2.098543 -0.504838
3.575665 1.832006 -0.494877
3.525838 1.928400 -0.503823
3.498367 2.037528 -0.487836
3.443697 2.131192 -0.485000
3.628830 1.862155 -0.465751
3.590292 1.965228 -0.501679
3.581111 2.086468 -0.530298
3.529499 2.183563 -0.536422
3.689523 1.896427 -0.454032
3.677765 2.015653 -0.552591
3.649647 2.126330 -0.535816
3.579316 2.211385 -0.497168
3.773917 1.943719 -0.495215
3.712018 2.034596 -0.477235
3.703149 2.156644 -0.504848
3.651370 2.254286 -0.510890
3.827090 1.973842 -0.464103
3.800531 2.085589 -0.526219
3.787655 2.206552 -0.544300
3.720033 2.294841 -0.514816
3.912643 2.021770 -0.503270
3.865975 2.122937 -0.520841
3.841226 2.236884 -0.511938
3.781194 2.330304 -0.500233
3.965881 2.051908 -0.470769
3.939733 2.165172 -0.532303
3.910708 2.277239 -0.514190
3.842381 2.365771 -0.484951
4.023085 2.084217 -0.446505
3.972495 2.183229 -0.455128
3.964054 2.307423 -0.480591
3.903587 2.401238 -0.468969
4.105836 2.130591 -0.473984
4.075882 2.242887 -0.526190
4.050521 2.358398 -0.516082
3.997616 2.458610 -0.521879
4.176230 2.170152 -0.474284
4.129311 2.273102 -0.491491
4.099648 2.385915 -0.472414
4.051036 2.488814 -0.486833
4.229256 2.200127 -0.439144
4.195499 2.310816 -0.482177
4.191414 2.440122 -0.514456
4.133822 2.538548 -0.511539
4.317813 2.249690 -0.472241
4.288249 2.364131 -0.523639
4.262245 2.481185 -0.512310
4.204361 2.580087 -0.509386
4.416223 2.304688 -0.521194
4.364018 2.407438 -0.529560
4.351056 2.533440 -0.543373
4.292598 2.633299 -0.540428
4.483424 2.342459 -0.509168
4.431088 2.445616 -0.517480
4.418131 2.572097 -0.530767
4.359451 2.672311 -0.527819
4.560066 2.385434 -0.513249
4.525861 2.500040 -0.555342
4.494431 2.616475 -0.534215
4.417419 2.705450 -0.497536
4.603932 2.410298 -0.457445
4.556203 2.516639 -0.474060
4.547946 2.646664 -0.494724
4.493448 2.750465 -0.500156
4.714403 2.471943 -0.518403
4.670715 2.582592 -0.543276
4.638685 2.699960 -0.521408
4.565197 2.792629 -0.493431
4.796937 2.518151 -0.527777
4.738664 2.621220 -0.527549
4.711121 2.741859 -0.513623
4.651199 2.844097 -0.510646
4.860231 2.553715 -0.502963
4.811540 2.662720 -0.519261
4.803015 2.795782 -0.537877
4.747264 2.902080 -0.543118
4.918480 2.586477 -0.469199
4.864938 2.692801 -0.477171
4.851689 2.822927 -0.487081
4.791254 2.925997 -0.484096
5.027016 2.647037 -0.516487
4.992710 2.766393 -0.557070
4.949326 2.880328 -0.517260
4.893114 2.987648 -0.522388
5.105935 2.691211 -0.513425
5.051440 2.799562 -0.521275
5.042746 2.935073 -0.537901
4.981088 3.040178 -0.534873
5.185141 2.735534 -0.509318
5.160991 2.862430 -0.565504
5.096306 2.965202 -0.492877
5.034637 3.070301 -0.489858
5.296019 2.797374 -0.552248
5.219913 2.895681 -0.527915
5.185400 3.017215 -0.503222
5.128281 3.126426 -0.508171
5.339080 2.821672 -0.489983
5.320411 2.953206 -0.553380
5.306111 3.088636 -0.559897
5.227665 3.186201 -0.533037
5.445795 2.881191 -0.522305
5.389937 2.992621 -0.529902
5.359846 3.118823 -0.512211
5.296733 3.226312 -0.509151
5.526288 2.926186 -0.513744
5.470158 3.038263 -0.521277
5.455663 3.174850 -0.526599
5.371037 3.269787 -0.492230
5.617963 2.977360 -0.519711
5.561423 3.090328 -0.527177
5.525244 3.214742 -0.500723
5.471920 3.330364 -0.513180
5.704568 3.025717 -0.516630
5.675005 3.155382 -0.562759
5.627349 3.274550 -0.520281
5.541381 3.370654 -0.486329
5.797095 3.077342 -0.520042
5.739803 3.191969 -0.527374
5.702723 3.317944 -0.500000
5.659517 3.442204 -0.527525
5.901358 3.135458 -0.537407
5.854678 3.257720 -0.559938
5.822499 3.388479 -0.539569
5.734910 3.486235 -0.506032
5.989153 3.184440 -0.530486
5.930970 3.300968 -0.537679
5.898487 3.432189 -0.516863
5.838010 3.547999 -0.521270
6.077245 3.233573 -0.522345
6.047199 3.367448 -0.567070
6.019776 3.503543 -0.553080
5.908237 3.588662 -0.490023
6.171441 3.286075 -0.520440
6.083735 3.387521 -0.490177
6.096329 3.547540 -0.527919
6.006607 3.647300 -0.495036
6.277778 3.345295 -0.531995
6.247338 3.481510 -0.575994
6.195993 3.605608 -0.531244
6.105469 3.706199 -0.498581
6.396580 3.411411 -0.556649
6.336404 3.532104 -0.563552
6.319429 3.678118 -0.562346
6.233576 3.783690 -0.537200
6.474253 3.454716 -0.528458
6.431635 3.586259 -0.557145
6.396733 3.722489 -0.533447
6.327847 3.839540 -0.530231
6.582164 3.514769 -0.535382
6.509275 3.630171 -0.527686
6.497780 3.781284 -0.532305
6.434181 3.903021 -0.536264
6.690624 3.575112 -0.540684
6.653265 3.712606 -0.576023
6.599258 3.840303 -0.529656
6.505543 3.944227 -0.497892
6.756533 3.611849 -0.494622
6.670629 3.721472 -0.472809
6.701153 3.899539 -0.525492
6.630535 4.019459 -0.522232
6.915332 3.700074 -0.553421
6.864955 3.833066 -0.574028
6.827838 3.973781 -0.547841
6.732254 4.079857 -0.516530
6.987820 3.740427 -0.511848
6.949795 3.881067 -0.546214
6.930732 4.033540 -0.540371
6.858676 4.155855 -0.537071
7.098044 3.801688 -0.510870
7.047186 3.936330 -0.531072
7.033994 4.093488 -0.531359
6.936832 4.201241 -0.500522
7.246943 3.884378 -0.549352
7.188927 4.017287 -0.562489
7.143866 4.157402 -0.527617
7.076769 4.285658 -0.531105
7.351980 3.942730 -0.537854
7.331637 4.098766 -0.591587
7.266793 4.229178 -0.535703
7.192721 4.354842 -0.532350
7.457344 4.001246 -0.524793
7.392059 4.132519 -0.530912
7.396708 4.305132 -0.548527
7.302912 4.420336 -0.525084
7.576066 4.067152 -0.523486
7.510159 4.199676 -0.529521
7.495286 4.362092 -0.526124
7.426186 4.494024 -0.529361
7.728151 4.151541 -0.553324
7.661278 4.285925 -0.559270
7.639269 4.446450 -0.548197
7.537271 4.559977 -0.518548
7.867970 4.229111 -0.567594
7.826487 4.380289 -0.599573
7.790631 4.535199 -0.574383
7.680920 4.646363 -0.538473
8.001874 4.303380 -0.573142
7.940017 4.444696 -0.585377
7.903581 4.600711 -0.559467
7.799463 4.716892 -0.530301
7.997038 4.654436 -0.523725
7.918437 4.787640 -0.520256
8.137111 4.736226 -0.530695
8.064160 4.875117 -0.533491
8.264454 4.810296 -0.522913
8.170862 4.938058 -0.506953
8.399014 4.888665 -0.519250
8.351227 5.047096 -0.546484
8.540909 4.971398 -0.519489
8.465515 5.114679 -0.522013
8.697101 5.062675 -0.529430
8.647771 5.224717 -0.555918
8.860949 5.158491 -0.542693
9.025625 5.254740 -0.553173
0.826663 0.334699 6.395433
8.947001 5.403728 -0.555392
0.851251 0.345772 6.381282
0.863382 0.357444 6.369890
0.850566 0.349376 6.383149
0.874750 0.359747 6.368098
0.851642 0.349968 6.384951
0.854481 0.347547 6.386690
0.838541 0.341742 6.397799
0.877116 0.361046 6.372172
0.832382 0.337843 6.404921
0.849330 0.344360 6.395722
0.833293 0.338343 6.406535
0.828478 0.331839 6.413393
0.834192 0.338835 6.408157
0.858596 0.349801 6.394047
0.871313 0.361795 6.383674
0.874305 0.359137 6.385609
0.850527 0.348831 6.401133
0.895421 0.376572 6.372490