# This PCD file was generated using the MATLAB® pcwrite function
# from Computer Vision System Toolbox®.
# .PCD v.7 - Point Cloud Data file format
VERSION .7
FIELDS x y z
SIZE 4 4 4
TYPE F F F
COUNT 1 1 1
WIDTH 771
HEIGHT 1
VIEWPOINT 0 0 0 1 0 0 0
POINTS 771
DATA ascii
-3.671395 -2.071302 -0.676480
-3.718363 -1.991935 -0.672904
-3.593740 -2.024914 -0.673572
-3.646824 -1.949922 -0.676650
-3.529431 -1.986049 -0.682776
-3.582104 -1.911621 -0.685955
-3.471735 -1.950926 -0.697745
-3.550157 -1.890843 -0.727967
-3.394908 -1.905205 -0.691448
-3.479050 -1.849239 -0.728837
-3.331167 -1.866832 -0.697667
-3.363270 -1.783988 -0.680552
-3.267617 -1.828624 -0.702922
-3.331318 -1.763329 -0.720356
-3.179272 -1.776728 -0.679235
-3.267456 -1.725788 -0.724874
-3.128739 -1.745862 -0.696444
-3.216343 -1.695045 -0.742541
-3.072076 -1.711645 -0.705833
-3.096858 -1.628293 -0.681249
-2.991167 -1.664090 -0.685680
-3.064846 -1.607749 -0.718363
-2.953099 -1.640242 -0.714912
-3.008102 -1.574217 -0.726202
-2.860976 -1.586654 -0.677987
-2.939386 -1.534461 -0.718637
-2.823046 -1.562965 -0.705779
-2.865034 -1.491833 -0.702671
-2.743804 -1.516619 -0.681192
-2.826863 -1.468191 -0.730025
-2.711758 -1.496229 -0.715155
-2.776743 -1.438337 -0.741987
-2.656376 -1.463078 -0.718647
-2.715011 -1.402486 -0.738209
-2.589754 -1.423835 -0.706168
-2.642007 -1.360853 -0.718352
-2.529206 -1.387976 -0.700323
-2.603894 -1.337381 -0.743223
-2.463373 -1.349297 -0.685883
-2.508938 -1.284556 -0.690663
-2.414606 -1.319968 -0.693723
-2.459895 -1.255548 -0.698579
-2.376910 -1.296691 -0.716529
-2.422065 -1.232351 -0.721451
-2.306532 -1.255720 -0.691689
-2.373117 -1.203465 -0.728157
-2.268945 -1.232572 -0.713292
-2.318844 -1.171897 -0.726290
-2.204698 -1.195046 -0.694586
-2.275570 -1.146004 -0.739603
-2.146184 -1.160682 -0.682946
-2.205698 -1.106594 -0.712265
-2.103617 -1.134961 -0.694690
-2.189053 -1.094326 -0.764595
-2.055942 -1.106526 -0.697768
-2.099005 -1.044826 -0.703163
-2.141194 -0.979991 -0.745710
-2.157070 -0.905015 -0.708707
-2.028696 -1.089085 -0.732929
-2.071763 -1.027223 -0.738375
-2.087740 -0.949754 -0.740012
-2.140336 -0.891777 -0.760125
-1.971059 -1.055383 -0.718483
-2.018786 -0.996641 -0.732233
-2.039682 -0.922138 -0.741822
-2.076329 -0.857518 -0.737402
-1.903929 -1.016675 -0.686652
-1.966090 -0.966260 -0.725360
-1.961435 -0.880357 -0.693257
-2.017978 -0.825875 -0.722037
-1.866778 -0.994027 -0.703768
-1.908723 -0.933603 -0.709442
-1.914075 -0.853229 -0.693521
-1.954975 -0.792294 -0.697523
-1.790951 -0.950835 -0.653458
-1.871358 -0.911013 -0.726188
-1.896497 -0.840068 -0.743488
-1.937547 -0.778734 -0.747508
-1.777965 -0.941093 -0.711451
-1.804920 -0.873966 -0.692004
-1.834502 -0.806182 -0.717500
-1.894846 -0.754122 -0.755313
-1.726687 -0.911044 -0.701738
-1.772561 -0.853942 -0.716077
-1.797113 -0.783808 -0.733020
-1.832692 -0.721147 -0.728709
-1.610807 -0.846928 -0.572116
-1.669399 -0.798897 -0.612172
-1.731189 -0.748292 -0.696959
-1.766292 -0.686483 -0.692702
-1.625083 -0.851612 -0.680212
-1.665482 -0.793019 -0.686228
-1.689380 -0.723982 -0.702785
-1.724352 -0.662419 -0.698542
-1.597319 -0.834089 -0.711435
-1.637718 -0.775333 -0.717496
-1.666119 -0.708183 -0.742563
-1.701235 -0.646382 -0.738297
-1.551467 -0.807078 -0.707821
-1.591583 -0.748640 -0.713945
-1.610547 -0.677650 -0.721568
-1.626835 -0.608662 -0.682739
-1.510207 -0.782514 -0.712305
-1.554563 -0.726443 -0.727173
-1.577892 -0.657584 -0.743318
-1.599003 -0.590669 -0.713005
-1.469034 -0.758028 -0.716284
-1.526273 -0.708509 -0.757442
-1.527369 -0.629476 -0.729754
-1.539419 -0.559429 -0.681871
-1.444957 -0.742469 -0.754869
-1.471753 -0.677866 -0.734829
-1.481559 -0.603559 -0.724307
-1.520301 -0.545057 -0.728902
-1.361853 -0.696270 -0.669829
-1.443258 -0.659854 -0.764344
-1.427391 -0.573986 -0.700623
-1.478816 -0.521422 -0.731754
-1.333723 -0.678669 -0.698644
-1.389326 -0.629620 -0.740480
-1.415993 -0.563443 -0.764876
-1.454617 -0.504868 -0.769546
-1.297195 -0.656733 -0.709410
-1.360639 -0.611539 -0.769244
-1.362166 -0.534126 -0.740120
-1.396156 -0.474412 -0.735969
-1.224760 -0.616352 -0.639317
-1.266738 -0.562425 -0.654812
-1.312944 -0.506934 -0.723582
-1.350827 -0.449376 -0.728399
-1.224076 -0.612891 -0.729709
-1.278451 -0.563583 -0.772161
-1.260077 -0.478249 -0.697417
-1.297555 -0.421260 -0.702311
-1.160517 -0.577207 -0.676136
-1.186519 -0.515715 -0.655749
-1.235454 -0.461858 -0.733697
-1.281067 -0.407761 -0.756636
-1.097889 -0.542113 -0.621631
-1.158164 -0.497930 -0.682642
-1.214309 -0.446902 -0.778852
-1.232202 -0.381508 -0.738516
-1.088258 -0.534027 -0.693460
-1.144687 -0.487063 -0.745616
-1.169666 -0.421887 -0.769315
-1.199311 -0.361536 -0.756117
-1.070374 -0.521695 -0.747142
-1.100625 -0.461922 -0.735657
-1.117777 -0.393889 -0.740963
-1.147152 -0.334189 -0.727768
-1.008821 -0.487321 -0.690850
-1.020308 -0.420130 -0.633594
-1.084876 -0.373955 -0.757755
-1.106811 -0.311458 -0.726207
-0.941203 -0.450026 -0.615279
-1.016902 -0.413844 -0.723289
-1.051840 -0.353963 -0.774210
-1.070299 -0.290215 -0.733365
-0.909278 -0.430716 -0.630987
-0.945477 -0.376425 -0.637944
-1.004472 -0.328078 -0.753394
-1.051893 -0.275688 -0.786248
-0.877227 -0.411352 -0.646370
-0.937474 -0.367928 -0.718163
-0.971453 -0.308140 -0.769043
-0.990201 -0.245218 -0.727959
-0.845053 -0.391935 -0.661426
-0.891232 -0.342104 -0.696323
-0.911015 -0.277147 -0.709965
-0.943419 -0.220381 -0.705979
-0.812759 -0.372467 -0.676154
-0.848732 -0.318039 -0.683217
-0.891675 -0.262772 -0.762009
-0.927772 -0.206739 -0.767308
-0.789848 -0.357609 -0.718625
-0.793583 -0.288445 -0.632183
-0.845480 -0.237682 -0.739078
-0.874555 -0.179754 -0.725734
-0.729238 -0.324314 -0.648296
-0.770971 -0.273299 -0.674221
-0.812538 -0.217877 -0.753133
-0.844960 -0.161123 -0.749140
-0.690966 -0.302016 -0.643021
-0.760212 -0.263248 -0.753758
-0.779483 -0.198024 -0.766853
-0.811912 -0.141274 -0.762856
-0.688338 -0.296962 -0.750656
-0.727172 -0.243415 -0.767281
-0.746317 -0.178127 -0.780237
-0.766233 -0.117208 -0.738477
-0.638027 -0.268869 -0.706938
-0.694022 -0.223538 -0.780467
-0.701084 -0.153699 -0.755377
-0.733249 -0.097441 -0.751409
-0.605345 -0.249293 -0.719565
-0.640576 -0.195071 -0.726838
-0.656315 -0.129570 -0.729960
-0.691198 -0.074758 -0.735520
-0.567077 -0.227079 -0.712803
-0.616154 -0.178943 -0.767733
-0.623404 -0.109888 -0.742118
-0.655305 -0.054121 -0.738180
-0.523651 -0.202484 -0.686495
-0.580237 -0.157977 -0.770251
-0.590394 -0.090167 -0.753940
-0.613768 -0.031786 -0.721358
-0.470305 -0.173341 -0.621333
-0.517667 -0.126130 -0.676633
-0.557287 -0.070409 -0.765426
-0.586429 -0.013820 -0.751911
-0.445819 -0.157723 -0.661093
-0.505944 -0.115140 -0.764525
-0.524087 -0.050615 -0.776577
-0.547905 0.007500 -0.743843
-0.401167 -0.132794 -0.623647
-0.434883 -0.080268 -0.631135
-0.480559 -0.027329 -0.748877
-0.512209 0.027939 -0.744964
-0.380983 -0.119108 -0.682152
-0.432146 -0.072680 -0.757164
-0.447468 -0.007641 -0.759260
-0.471456 0.049725 -0.726418
-0.353058 -0.101836 -0.711534
-0.387108 -0.048372 -0.719037
-0.414293 0.012077 -0.769308
-0.445956 0.067337 -0.765391
-0.309093 -0.077375 -0.672806
-0.347329 -0.026222 -0.699738
-0.381034 0.031825 -0.779019
-0.405471 0.088924 -0.746044
-0.278767 -0.059048 -0.691832
-0.321320 -0.009310 -0.738246
-0.347696 0.051600 -0.788392
-0.379372 0.106852 -0.784472
-0.252402 -0.042431 -0.730042
-0.294794 0.007889 -0.776544
-0.314279 0.071402 -0.797427
-0.348227 0.126122 -0.803231
-0.227543 -0.026398 -0.777792
-0.263575 0.026869 -0.795122
-0.280788 0.091228 -0.806124
-0.319052 0.145019 -0.831435
-0.178676 -0.000094 -0.708068
-0.230121 0.046663 -0.803629
-0.239028 0.113324 -0.775393
-0.270446 0.168082 -0.771502
-0.145892 0.019284 -0.716056
-0.181056 0.071767 -0.733500
-0.205688 0.133022 -0.783340
-0.239158 0.187377 -0.789228
-0.102249 0.043111 -0.664857
-0.148051 0.091257 -0.741192
-0.172281 0.152739 -0.790948
-0.195829 0.208904 -0.747864
-0.074950 0.060184 -0.701558
-0.107801 0.113061 -0.709266
-0.129672 0.174630 -0.749108
-0.168351 0.227530 -0.784509
-0.027336 0.085347 -0.619929
-0.081848 0.130292 -0.755572
-0.098263 0.193777 -0.765800
-0.122137 0.249103 -0.722622
-0.001494 0.101846 -0.665831
-0.035481 0.153727 -0.683447
-0.063287 0.213714 -0.762482
-0.094391 0.267848 -0.758626
0.037018 0.123217 -0.632558
-0.010687 0.170720 -0.739013
-0.031615 0.232978 -0.778531
-0.064469 0.287049 -0.784522
0.063563 0.140091 -0.677918
0.029886 0.192155 -0.695591
0.003322 0.252854 -0.774510
-0.030995 0.306708 -0.790393
0.090754 0.157327 -0.723053
0.051257 0.208542 -0.780302
0.035248 0.272227 -0.789910
0.010158 0.326839 -0.746513
0.127545 0.177950 -0.698596
0.090061 0.229381 -0.746027
0.070135 0.292036 -0.785191
0.039005 0.346155 -0.781331
0.156707 0.195986 -0.733256
0.119392 0.248002 -0.780729
0.102305 0.311515 -0.799938
0.069722 0.365745 -0.805973
0.193140 0.216362 -0.708067
0.156416 0.268238 -0.755608
0.140828 0.331495 -0.764749
0.111195 0.385205 -0.750998
0.227055 0.235878 -0.702365
0.186283 0.287134 -0.789700
0.174164 0.350979 -0.768878
0.143223 0.404723 -0.765040
0.258900 0.254796 -0.716210
0.229237 0.307938 -0.704183
0.207539 0.370466 -0.772669
0.176591 0.424207 -0.768832
0.292740 0.274231 -0.709828
0.256255 0.326562 -0.767461
0.240948 0.389955 -0.776124
0.209995 0.443692 -0.772286
0.330614 0.294430 -0.653277
0.296805 0.346400 -0.691066
0.274391 0.409444 -0.779242
0.243431 0.463177 -0.775403
0.358560 0.312589 -0.715963
0.322990 0.365452 -0.773683
0.304437 0.429481 -0.821871
0.276897 0.482661 -0.778183
0.392873 0.331930 -0.698580
0.359399 0.384741 -0.736400
0.341365 0.448417 -0.784464
0.313796 0.500936 -0.740788
0.425099 0.350977 -0.710789
0.393211 0.403924 -0.728672
0.372067 0.468798 -0.826458
0.343912 0.521620 -0.782728
0.460672 0.370076 -0.662759
0.429290 0.422510 -0.680675
0.410963 0.486300 -0.748428
0.378154 0.540703 -0.774526
0.488711 0.389465 -0.764205
0.457310 0.443029 -0.772096
0.442010 0.506843 -0.789762
0.411017 0.560557 -0.785922
0.524324 0.408239 -0.705501
0.493424 0.461125 -0.713423
0.475597 0.526303 -0.790853
0.445147 0.579537 -0.777038
0.556930 0.427433 -0.716397
0.521948 0.483317 -0.834204
0.509199 0.545753 -0.791604
0.475823 0.602063 -0.837639
0.590155 0.446345 -0.706973
0.557342 0.501432 -0.784836
0.542813 0.565192 -0.792017
0.512199 0.618331 -0.778200
0.623088 0.465380 -0.707211
0.590887 0.520820 -0.785079
0.576437 0.584618 -0.792091
0.545418 0.638317 -0.788250
0.655499 0.486274 -0.777092
0.624439 0.540196 -0.784985
0.610069 0.604029 -0.791827
0.580033 0.655118 -0.748084
0.688977 0.504654 -0.746675
0.657998 0.559555 -0.784553
0.643706 0.623424 -0.791225
0.612674 0.677116 -0.787384
0.722155 0.523464 -0.735919
0.691561 0.578898 -0.783783
0.677345 0.642802 -0.790284
0.646402 0.695751 -0.776472
0.755184 0.542170 -0.724833
0.724881 0.596667 -0.752717
0.711180 0.664806 -0.828917
0.679835 0.719755 -0.835011
0.786927 0.558562 -0.663482
0.756806 0.610780 -0.661435
0.744619 0.681499 -0.787388
0.713512 0.734354 -0.773582
0.821081 0.579746 -0.711666
0.791315 0.634390 -0.739532
0.778250 0.700816 -0.785432
0.747844 0.758837 -0.831399
0.853342 0.597644 -0.689622
0.823332 0.650882 -0.697535
0.812700 0.722484 -0.813033
0.780601 0.772870 -0.769343
0.888463 0.619346 -0.737082
0.857804 0.672543 -0.734996
0.846890 0.742718 -0.820343
0.815820 0.797825 -0.826419
0.921685 0.638382 -0.734314
0.892867 0.694526 -0.772077
0.879083 0.758621 -0.777538
0.847648 0.811287 -0.763756
0.954892 0.657391 -0.731213
0.924246 0.710595 -0.729125
0.912666 0.777835 -0.774232
0.883744 0.836706 -0.820075
0.985365 0.673567 -0.687969
0.959882 0.732868 -0.765479
0.947964 0.799914 -0.800398
0.914632 0.849593 -0.756824
1.022764 0.696811 -0.743896
0.998158 0.758052 -0.831248
0.982388 0.820206 -0.806318
0.951594 0.875470 -0.812366
1.059385 0.718967 -0.779514
1.029862 0.774724 -0.797255
1.019124 0.843702 -0.841634
0.988119 0.899488 -0.847640
1.082096 0.728150 -0.655929
1.061088 0.791106 -0.762981
1.053221 0.863135 -0.836897
1.019349 0.914104 -0.803298
1.127493 0.758096 -0.780102
1.091835 0.807196 -0.728434
1.087289 0.882531 -0.831819
1.055613 0.937139 -0.827917
1.153697 0.770803 -0.705610
1.133938 0.835435 -0.812386
1.117510 0.897175 -0.786862
1.086990 0.952596 -0.792871
1.194651 0.796295 -0.769407
1.157194 0.843895 -0.707972
1.150183 0.915104 -0.771280
1.119802 0.970443 -0.777286
1.219737 0.808329 -0.694421
1.203916 0.876150 -0.820657
1.189295 0.940493 -0.814536
1.154495 0.990935 -0.781088
1.261669 0.834338 -0.757368
1.231805 0.889588 -0.765097
1.223221 0.959733 -0.808094
1.191518 1.014325 -0.804196
1.291052 0.850040 -0.721300
1.266623 0.909801 -0.768400
1.252090 0.973533 -0.761996
1.226580 1.034987 -0.807236
1.334249 0.876729 -0.783317
1.298826 0.927556 -0.751682
1.296260 1.003646 -0.833444
1.264264 1.058713 -0.829515
1.363395 0.892258 -0.746611
1.345190 0.958099 -0.832778
1.330352 1.022921 -0.825918
1.294349 1.073322 -0.792626
1.406262 0.918403 -0.797865
1.371706 0.970681 -0.776107
1.358483 1.036246 -0.778934
1.332384 1.097207 -0.814126
1.436739 0.934966 -0.770319
1.413273 0.996553 -0.817045
1.398382 1.061326 -0.809844
1.367848 1.118019 -0.815673
1.463409 0.948719 -0.722980
1.432304 1.002946 -0.720837
1.432316 1.080453 -0.801298
1.400293 1.135505 -0.797375
1.503851 0.972794 -0.753415
1.481140 1.034806 -0.799952
1.472994 1.105932 -0.831305
1.435793 1.156297 -0.798205
1.550456 1.001291 -0.812535
1.504143 1.044848 -0.732575
1.507105 1.125120 -0.822000
1.473084 1.178883 -0.808352
1.572678 1.011834 -0.744876
1.561938 1.083647 -0.849399
1.541153 1.144252 -0.812353
1.503495 1.194360 -0.779381
1.618243 1.039381 -0.793330
1.588355 1.096539 -0.800806
1.575135 1.163327 -0.802368
1.542805 1.218846 -0.798418
1.639449 1.049315 -0.725255
1.628314 1.120420 -0.819641
1.625012 1.196479 -0.869148
1.584413 1.245408 -0.826613
1.694446 1.083424 -0.811326
1.672849 1.147823 -0.857268
1.651165 1.208533 -0.819839
1.618542 1.264526 -0.815858
1.735125 1.107189 -0.829293
1.707168 1.167037 -0.846271
1.676658 1.220196 -0.770377
1.652596 1.283581 -0.804764
1.736765 1.103469 -0.683736
1.714428 1.165204 -0.719902
1.728071 1.254148 -0.835571
1.686573 1.302574 -0.793329
1.798444 1.141918 -0.787243
1.768609 1.199905 -0.794567
1.762267 1.273242 -0.823694
1.720471 1.321501 -0.781556
1.847009 1.171026 -0.832566
1.800078 1.216974 -0.773087
1.796380 1.292269 -0.811476
1.763449 1.348729 -0.807472
1.871001 1.183058 -0.782100
1.846120 1.245118 -0.808375
1.849875 1.327320 -0.874827
1.809286 1.378343 -0.842316
1.907369 1.203648 -0.778943
1.877564 1.262131 -0.786166
1.864347 1.330118 -0.786022
1.828967 1.384398 -0.772569
1.938431 1.220588 -0.756476
1.934891 1.298505 -0.858211
1.918819 1.365671 -0.848249
1.875275 1.414234 -0.806486
1.996788 1.256076 -0.828031
1.966586 1.315616 -0.835154
1.953150 1.384737 -0.834446
1.911891 1.435388 -0.802196
2.039394 1.280751 -0.842320
2.014575 1.344760 -0.868187
1.998270 1.412414 -0.857798
1.953857 1.461131 -0.816240
2.056264 1.288041 -0.771753
2.046218 1.361800 -0.844386
2.032690 1.431486 -0.843191
1.998875 1.489368 -0.839098
2.092950 1.308704 -0.766594
2.095008 1.391345 -0.876314
2.078464 1.459483 -0.865491
2.044362 1.517842 -0.861369
2.132715 1.331395 -0.770345
2.093916 1.384659 -0.749424
2.112958 1.478553 -0.850073
2.075984 1.534498 -0.836681
2.181989 1.360368 -0.801461
2.148791 1.418541 -0.799120
2.147343 1.497541 -0.834312
2.116163 1.558343 -0.839436
2.238224 1.393863 -0.850401
2.207660 1.455116 -0.857262
2.184692 1.518814 -0.827425
2.150499 1.577282 -0.823303
2.262818 1.406362 -0.806434
2.229357 1.465027 -0.804068
2.228363 1.544893 -0.838491
2.181643 1.593609 -0.797657
2.296840 1.425095 -0.789859
2.266638 1.486070 -0.796659
2.275555 1.573563 -0.858158
2.228266 1.622602 -0.817430
2.344310 1.452633 -0.809509
2.310586 1.511791 -0.807116
2.323185 1.602451 -0.877201
2.291416 1.664836 -0.882099
2.399141 1.484912 -0.846747
2.371794 1.549566 -0.862522
2.354461 1.618942 -0.850236
2.322825 1.681242 -0.855111
2.412308 1.489965 -0.774385
2.409755 1.570916 -0.853561
2.406031 1.650627 -0.877234
2.360679 1.702839 -0.845912
2.446117 1.508493 -0.756319
2.454789 1.597165 -0.862238
2.440681 1.669605 -0.858510
2.405392 1.729855 -0.854282
2.498143 1.538803 -0.782887
2.507305 1.628539 -0.888326
2.475196 1.688486 -0.839442
2.443395 1.751489 -0.844173
2.543248 1.564569 -0.790825
2.538358 1.644987 -0.859982
2.524109 1.717962 -0.855731
2.488525 1.778686 -0.851477
2.607661 1.602713 -0.842777
2.591560 1.676689 -0.884842
2.573429 1.747637 -0.871364
2.508503 1.786190 -0.796065
2.653651 1.628915 -0.849372
2.622467 1.693010 -0.855731
2.608068 1.766516 -0.850953
2.572189 1.827713 -0.846673
2.684132 1.645139 -0.820038
2.672460 1.722382 -0.870516
2.654075 1.793644 -0.856612
2.621744 1.858104 -0.861107
2.726361 1.668869 -0.816832
2.683433 1.725120 -0.796726
2.692524 1.815244 -0.844156
2.656350 1.876916 -0.839850
2.785019 1.703030 -0.848134
2.745558 1.762658 -0.836827
2.758763 1.856815 -0.892319
2.706409 1.907532 -0.853101
2.823604 1.724350 -0.835033
2.775862 1.778556 -0.806346
2.789560 1.872809 -0.861355
2.737003 1.923257 -0.822320
2.853742 1.740291 -0.804170
2.863869 1.833351 -0.896895
2.828274 1.894479 -0.847402
2.775373 1.944899 -0.808537
2.892142 1.761461 -0.790303
2.860849 1.826767 -0.796345
2.866957 1.916107 -0.833019
2.834222 1.981932 -0.837238
2.965260 1.804524 -0.844648
2.959069 1.888140 -0.902045
2.931033 1.955701 -0.869481
2.877026 2.006789 -0.830913
2.982072 1.812006 -0.786894
2.963602 1.886693 -0.818402
2.965732 1.974413 -0.845463
2.928388 2.037986 -0.841051
3.033988 1.841588 -0.797078
3.019917 1.919839 -0.836863
3.017732 2.005295 -0.854921
2.967204 2.059768 -0.825142
3.099872 1.879875 -0.831884
3.040939 1.929465 -0.787020
3.056772 2.027013 -0.838442
3.036514 2.104088 -0.867594
3.120438 1.889704 -0.781738
3.084074 1.953778 -0.779072
3.122751 2.067528 -0.871688
3.066828 2.119484 -0.833782
3.219811 1.948789 -0.873456
3.127286 1.978107 -0.770598
3.157506 2.086166 -0.845737
3.128271 2.157759 -0.857852
3.235596 1.955589 -0.814091
3.240537 2.048538 -0.886016
3.210578 2.117518 -0.852497
3.172070 2.182995 -0.847976
3.313041 2.000796 -0.862036
3.280118 2.070294 -0.867505
3.268656 2.152256 -0.866738
3.229788 2.218329 -0.862180
3.352551 2.022330 -0.843141
3.338795 2.104548 -0.881335
3.298651 2.167530 -0.831151
3.259846 2.233480 -0.826608
3.416606 2.059061 -0.864561
3.388195 2.132657 -0.878029
3.371664 2.212407 -0.868351
3.332287 2.279315 -0.863746
3.426366 2.062109 -0.795927
3.447602 2.167244 -0.890267
3.425959 2.244301 -0.872141
3.386292 2.311685 -0.867509
3.475683 2.089643 -0.791858
3.457631 2.169618 -0.821209
3.455839 2.259429 -0.835119
3.416236 2.326690 -0.830501
3.560934 2.139301 -0.843119
3.507160 2.197710 -0.816263
3.535406 2.308457 -0.877449
3.495160 2.376795 -0.872762
3.642034 2.186286 -0.885049
3.587463 2.245693 -0.858297
3.590544 2.340711 -0.878956
3.550008 2.409526 -0.874243
3.703086 2.220841 -0.894115
3.678978 2.300793 -0.914809
3.645948 2.373076 -0.879693
3.584908 2.427986 -0.843575
3.727468 2.232825 -0.847440
3.698462 2.309263 -0.860144
3.701611 2.405548 -0.879653
3.640039 2.460807 -0.843726
3.783504 2.264217 -0.847337
3.770205 2.351416 -0.883238
3.757526 2.438122 -0.878834
3.716121 2.508367 -0.874039
3.845203 2.299023 -0.854181
3.810488 2.373254 -0.858884
3.776551 2.445801 -0.823410
3.751054 2.526754 -0.841687
3.896317 2.327300 -0.844786
3.861462 2.401930 -0.849411
3.891538 2.517965 -0.905363
3.828096 2.574757 -0.869986
3.997337 2.385980 -0.903258
3.945333 2.451614 -0.884926
3.926706 2.536411 -0.871644
3.889783 2.611839 -0.874339
3.998888 2.383940 -0.823960
3.980319 2.469949 -0.851091
4.005479 2.584001 -0.897730
3.946398 2.645283 -0.870267
4.095526 2.439783 -0.872540
4.082021 2.530812 -0.906875
4.040613 2.602364 -0.862864
4.003226 2.678806 -0.865393
4.170357 2.482263 -0.889733
4.139754 2.563533 -0.901418
4.142658 2.665242 -0.916490
4.076839 2.723933 -0.881895
4.228443 2.514506 -0.883608
4.174903 2.581855 -0.865627
4.177962 2.683627 -0.880233
4.139826 2.761562 -0.882561
4.240150 2.518608 -0.818057
4.238553 2.618241 -0.866099
4.258689 2.732101 -0.901910
4.220037 2.811022 -0.904121
4.345185 2.579185 -0.868912
4.337358 2.676809 -0.909204
4.316978 2.765619 -0.893387
4.295181 2.856843 -0.917164
4.403826 2.611613 -0.860331
4.401933 2.713606 -0.907436
4.375437 2.799191 -0.884036
4.330563 2.875162 -0.878920
4.492584 2.662158 -0.886654
4.454944 2.743042 -0.890434
4.434059 2.832810 -0.873854
4.365662 2.893300 -0.840331
4.557877 2.698469 -0.883196
4.543860 2.795045 -0.915200
4.540309 2.897658 -0.919174
4.470834 2.959470 -0.885809
4.611230 2.727538 -0.864731
4.573164 2.809458 -0.868330
4.599669 2.931584 -0.906823
4.547440 3.005899 -0.894597
4.689233 2.771377 -0.873394
4.687262 2.877095 -0.918620
4.634995 2.949725 -0.865955
4.594646 3.032157 -0.867619
4.780110 2.822864 -0.894634
4.741070 2.906791 -0.898007
4.737077 3.011468 -0.900143
4.671894 3.078838 -0.874277
4.852861 2.863392 -0.893887
4.844434 2.967450 -0.931303
4.803127 3.049563 -0.891844
4.731344 3.113320 -0.859355
4.900682 2.888927 -0.864949
4.886197 2.989493 -0.895196
4.863189 3.083692 -0.875834
4.815430 3.164439 -0.870452
4.999332 2.944821 -0.889061
4.965535 3.034955 -0.898822
4.948369 3.134079 -0.885611
4.900035 3.215782 -0.880174
5.079448 2.989542 -0.891611
5.057982 3.088492 -0.914468
5.034055 3.184681 -0.894004
4.972675 3.258924 -0.875335
5.153488 3.030562 -0.886327
5.119021 3.122388 -0.895740
5.094801 3.219033 -0.874880
5.051888 3.306403 -0.875888
5.234330 3.075567 -0.886421
5.193040 3.164293 -0.889150
5.187660 3.274077 -0.887208
5.112466 3.341250 -0.855802
5.294001 3.337693 -0.910790
5.217817 3.406080 -0.879574
5.336007 3.359737 -0.869243
5.311045 3.462623 -0.888882
5.436775 3.419542 -0.883588
5.359401 3.489042 -0.852841
5.505128 3.458412 -0.865252
5.459873 3.550208 -0.865686
5.586906 3.505819 -0.858143
5.547779 3.602859 -0.864582
5.675686 3.557613 -0.855785
5.655972 3.668878 -0.880183
5.764843 3.609545 -0.851974
5.704720 3.695299 -0.840089
5.881549 3.678942 -0.870378
0.837058 0.465818 3.521167
5.827244 3.770563 -0.864390
0.873166 0.489309 3.495429
0.853799 0.476343 3.514447
0.884489 0.491682 3.493446
0.896312 0.504125 3.482411
0.876781 0.491076 3.501238
0.886944 0.492875 3.497499
0.870963 0.487061 3.508679
0.859713 0.475512 3.521208
0.843931 0.469176 3.532211
0.889338 0.494031 3.501599
0.901506 0.506642 3.491146
0.840160 0.462905 3.540549
0.852910 0.474716 3.530189
0.884437 0.490602 3.510940
0.896842 0.503173 3.500774
0.847596 0.470933 3.538724