# This PCD file was generated using the MATLAB® pcwrite function
# from Computer Vision System Toolbox®.
# .PCD v.7 - Point Cloud Data file format
VERSION .7
FIELDS x y z
SIZE 4 4 4
TYPE F F F
COUNT 1 1 1
WIDTH 754
HEIGHT 1
VIEWPOINT 0 0 0 1 0 0 0
POINTS 754
DATA ascii
-27.607170 -15.474359 -0.274712
-28.060488 -15.068951 -0.405321
-27.167332 -15.213466 -0.320049
-27.630604 -14.819126 -0.465111
-26.715334 -14.946129 -0.345699
-27.147409 -14.541141 -0.467291
-26.238159 -14.665108 -0.338419
-26.666140 -14.264623 -0.461735
-25.869204 -14.444788 -0.427469
-26.233837 -14.014664 -0.493952
-25.434917 -14.188366 -0.445316
-25.736357 -13.730355 -0.453815
-24.976063 -13.918625 -0.429815
-25.320665 -13.490030 -0.485205
-24.551716 -13.668433 -0.440493
-24.866970 -13.229872 -0.470037
-24.186977 -13.451664 -0.505417
-24.441347 -12.985026 -0.474762
-23.765516 -13.203716 -0.503473
-24.017424 -12.741461 -0.472900
-23.345823 -12.957086 -0.494987
-23.627321 -12.516170 -0.498920
-22.953117 -12.725727 -0.507801
-23.200386 -12.271757 -0.477369
-22.561903 -12.495500 -0.514643
-22.806993 -12.045431 -0.484276
-22.172239 -12.266437 -0.515549
-22.440174 -11.833448 -0.513533
-21.784182 -12.038571 -0.510550
-22.055933 -11.612617 -0.515976
-21.428194 -11.828679 -0.535679
-21.660959 -11.386492 -0.498281
-21.067373 -11.616401 -0.548317
-21.298296 -11.177669 -0.510904
-20.660133 -11.378891 -0.497082
-20.894703 -10.947742 -0.467007
-20.349850 -11.194945 -0.557661
-20.583090 -10.766255 -0.527594
-19.993254 -10.985827 -0.554428
-20.248333 -10.572935 -0.554132
-19.609138 -10.761920 -0.508493
-19.838249 -10.340684 -0.478537
-19.301910 -10.580387 -0.554966
-19.535521 -10.164635 -0.532568
-18.927069 -10.362139 -0.505882
-19.152689 -9.947271 -0.476002
-18.627642 -10.185348 -0.550861
-18.852011 -9.772820 -0.520988
-18.295427 -9.990904 -0.545431
-18.523771 -9.584363 -0.523302
-18.019867 -9.827546 -0.613020
-18.219215 -9.408408 -0.552082
-17.668106 -9.622967 -0.567373
-17.887875 -9.218914 -0.537569
-17.350765 -9.437358 -0.563919
-17.569004 -9.036132 -0.534143
-17.643106 -8.553353 -0.523651
-17.858881 -8.153159 -0.491751
-17.029404 -9.249819 -0.548101
-17.246046 -8.851540 -0.518354
-17.313656 -8.369490 -0.497894
-17.527834 -7.972400 -0.466089
-16.751835 -9.086229 -0.591694
-16.946005 -8.678970 -0.530001
-17.012821 -8.199779 -0.507568
-17.253065 -7.817581 -0.515823
-16.433014 -8.900544 -0.567305
-16.647022 -8.507196 -0.537586
-16.713062 -8.030871 -0.513197
-16.957153 -7.653430 -0.529825
-16.115768 -8.715966 -0.538464
-16.349134 -8.336238 -0.541132
-16.419695 -7.865318 -0.522913
-16.614128 -7.468375 -0.466984
-15.841002 -8.554530 -0.570360
-16.073090 -8.176638 -0.573233
-16.137793 -7.705520 -0.545046
-16.363056 -7.325034 -0.537928
-15.546734 -8.382797 -0.565891
-15.777265 -8.007223 -0.568979
-15.841250 -7.539006 -0.538874
-16.038956 -7.149243 -0.490959
-15.253675 -8.211941 -0.557463
-15.442204 -7.818234 -0.494839
-15.551030 -7.375794 -0.537012
-15.788959 -7.006838 -0.555077
-15.006178 -8.065742 -0.619738
-15.189279 -7.671046 -0.548611
-15.277046 -7.220553 -0.556246
-15.493218 -6.844351 -0.541439
-14.671336 -7.872941 -0.528816
-14.877466 -7.494397 -0.499187
-14.964113 -7.047206 -0.505112
-15.178631 -6.673912 -0.490505
-14.439724 -7.735612 -0.609331
-14.650251 -7.360531 -0.588055
-14.711899 -6.902750 -0.550568
-14.925577 -6.530902 -0.536068
-14.136918 -7.560431 -0.560562
-14.355476 -7.192955 -0.556229
-14.416464 -6.738264 -0.516872
-14.609044 -6.360383 -0.468777
-13.849902 -7.393918 -0.533129
-14.052735 -7.021696 -0.503513
-14.151248 -6.588203 -0.530239
-14.381822 -6.229128 -0.550003
-13.615024 -7.255351 -0.595709
-13.836033 -6.893589 -0.600168
-13.919857 -6.454083 -0.600063
-14.111332 -6.079277 -0.551809
-13.348383 -7.100071 -0.595482
-13.568111 -6.740142 -0.600122
-13.651193 -6.302860 -0.598495
-13.841809 -5.930140 -0.550201
-13.051359 -6.928902 -0.531515
-13.282970 -6.578410 -0.562218
-13.365177 -6.143920 -0.559010
-13.554665 -5.773774 -0.510706
-12.857839 -6.812702 -0.662804
-13.057684 -6.446499 -0.633137
-13.116893 -6.002620 -0.585199
-13.324161 -5.641876 -0.571497
-12.593663 -6.659288 -0.652822
-12.792483 -6.295074 -0.623159
-12.869151 -5.861771 -0.608381
-13.057472 -5.494824 -0.559950
-12.291986 -6.486341 -0.560759
-12.506579 -6.133746 -0.566116
-12.604409 -5.713411 -0.593531
-12.827557 -5.363533 -0.615088
-12.085450 -6.363657 -0.658010
-12.261052 -5.992461 -0.584410
-12.358093 -5.573668 -0.610577
-12.544981 -5.210410 -0.562059
-11.803556 -6.201561 -0.594070
-11.999240 -5.843440 -0.564428
-12.078322 -5.419097 -0.553926
-12.281397 -5.065589 -0.540749
-11.597081 -6.079159 -0.686148
-11.796807 -5.723474 -0.665327
-11.867363 -5.295682 -0.635801
-12.070135 -4.942642 -0.622673
-11.321702 -5.920896 -0.624502
-11.515974 -5.565669 -0.594839
-11.589983 -5.142783 -0.572639
-11.791366 -4.792160 -0.559677
-11.095539 -5.788497 -0.666719
-11.289350 -5.434295 -0.637035
-11.363096 -5.012611 -0.613468
-11.547393 -4.656248 -0.564770
-10.838456 -5.640182 -0.634426
-11.047075 -5.295560 -0.640694
-11.120432 -4.875649 -0.615713
-11.336634 -4.533960 -0.638901
-10.594115 -5.498680 -0.626026
-10.805546 -5.157384 -0.641464
-10.878523 -4.739255 -0.615080
-11.077637 -4.392473 -0.602407
-10.358182 -5.361708 -0.632811
-10.568604 -5.021599 -0.648424
-10.621969 -4.596742 -0.575289
-10.823887 -4.253441 -0.571819
-10.133956 -5.230933 -0.664116
-10.324813 -4.882769 -0.634409
-10.397073 -4.468223 -0.605236
-10.594491 -4.124322 -0.592783
-9.910003 -5.100435 -0.692873
-10.096717 -4.751561 -0.654015
-10.172461 -4.339985 -0.632643
-10.369302 -3.997040 -0.620264
-9.657970 -4.955699 -0.645712
-9.847355 -4.610555 -0.615999
-9.937201 -4.207385 -0.629980
-10.133262 -3.865759 -0.617699
-9.424744 -4.820792 -0.641502
-9.620557 -4.480345 -0.630190
-9.699102 -4.073824 -0.615370
-9.905262 -3.737810 -0.630816
-9.202497 -4.691644 -0.662292
-9.404670 -4.355369 -0.669500
-9.458396 -3.939439 -0.588737
-9.670590 -3.607564 -0.622873
-8.980608 -4.562822 -0.680578
-9.165008 -4.219550 -0.641558
-9.249739 -3.818665 -0.642790
-9.429685 -3.475277 -0.593691
-8.759103 -4.434335 -0.696367
-8.946456 -4.093664 -0.666599
-9.017309 -3.688184 -0.629436
-9.207075 -3.350081 -0.608215
-8.538000 -4.306196 -0.709673
-8.724899 -3.966553 -0.679892
-8.795621 -3.562347 -0.641438
-8.988249 -3.226464 -0.629599
-8.301679 -4.170573 -0.673660
-8.516558 -3.845594 -0.728161
-8.571136 -3.435569 -0.641603
-8.763118 -3.100761 -0.629847
-8.072623 -4.038790 -0.653681
-8.270568 -3.707798 -0.661484
-8.353571 -3.311779 -0.658058
-8.545042 -2.977803 -0.646368
-7.877316 -3.923980 -0.734774
-8.062856 -3.587425 -0.704958
-8.133252 -3.187072 -0.662693
-8.311510 -2.849646 -0.613382
-7.643452 -3.790127 -0.690960
-7.828193 -3.455206 -0.661154
-7.913430 -3.062764 -0.664894
-8.103742 -2.730694 -0.653353
-7.439255 -3.671117 -0.739279
-7.632634 -3.340463 -0.737879
-7.694125 -2.938867 -0.664675
-7.883857 -2.607749 -0.653208
-7.221004 -3.545302 -0.737892
-7.416560 -3.216791 -0.746077
-7.486861 -2.819777 -0.700100
-7.688063 -2.493027 -0.726706
-6.989792 -3.413322 -0.686413
-7.198119 -3.092265 -0.742382
-7.279581 -2.700783 -0.733335
-7.457210 -2.366866 -0.683825
-6.773015 -3.288581 -0.680092
-6.958653 -2.958935 -0.659815
-7.050447 -2.573794 -0.687857
-7.249912 -2.248612 -0.714813
-6.577286 -3.174159 -0.748100
-6.760331 -2.843420 -0.718224
-6.830466 -2.450506 -0.668570
-7.031721 -2.127078 -0.705290
-6.373551 -3.055945 -0.785288
-6.556494 -2.725631 -0.755390
-6.626770 -2.333336 -0.704559
-6.814146 -2.006008 -0.693398
-6.157654 -2.932029 -0.772171
-6.337667 -2.601719 -0.732637
-6.410412 -2.211787 -0.690235
-6.594623 -1.884646 -0.669516
-5.942401 -2.808593 -0.756701
-6.124449 -2.480342 -0.726795
-6.202033 -2.093253 -0.702555
-6.380920 -1.765298 -0.662554
-5.727813 -2.685645 -0.738890
-5.918758 -2.362200 -0.747694
-5.986786 -1.972556 -0.683624
-6.184806 -1.651115 -0.721029
-5.522684 -2.567285 -0.757563
-5.713167 -2.244216 -0.766439
-5.781415 -1.855397 -0.701187
-5.969304 -1.531662 -0.699957
-5.307067 -2.444198 -0.725471
-5.496742 -2.122112 -0.734434
-5.576168 -1.738412 -0.716610
-5.763675 -1.415100 -0.715439
-5.094367 -2.322652 -0.700783
-5.285417 -2.002243 -0.719566
-5.364618 -1.619592 -0.700663
-5.558189 -1.298721 -0.728781
-4.892273 -2.206105 -0.722614
-5.078771 -1.884364 -0.721960
-5.149521 -1.499962 -0.662945
-5.335715 -1.178466 -0.661953
-4.695899 -2.092225 -0.771702
-4.874410 -1.767499 -0.731964
-4.947344 -1.384485 -0.681601
-5.131154 -1.062824 -0.670891
-4.491817 -1.974975 -0.779612
-4.672128 -1.651527 -0.749641
-4.750995 -1.270768 -0.727566
-4.926787 -0.947394 -0.677706
-4.279177 -1.854115 -0.736324
-4.468080 -1.535042 -0.755421
-4.537589 -1.152415 -0.683228
-4.720710 -0.831805 -0.672600
-4.077562 -1.738244 -0.749750
-4.264249 -1.418782 -0.759089
-4.342937 -1.039307 -0.734915
-4.526091 -0.718555 -0.724291
-3.874431 -1.621842 -0.751255
-4.058982 -1.302199 -0.750805
-4.132449 -0.922269 -0.696053
-4.315018 -0.602467 -0.685493
-3.676138 -1.507594 -0.780243
-3.857311 -1.186976 -0.760105
-3.935852 -0.808803 -0.733849
-4.118386 -0.488980 -0.723299
-3.468942 -1.389779 -0.747967
-3.652714 -1.070975 -0.747593
-3.726497 -0.692615 -0.690681
-3.908446 -0.373742 -0.680199
-3.259720 -1.271383 -0.693745
-3.444204 -0.954034 -0.703308
-3.529874 -0.579328 -0.724411
-3.719529 -0.261259 -0.763327
-3.063287 -1.158256 -0.726429
-3.242089 -0.839254 -0.696436
-3.327341 -0.464999 -0.716572
-3.508943 -0.146570 -0.706135
-2.866574 -1.045063 -0.757135
-3.050682 -0.727497 -0.766762
-3.119814 -0.350155 -0.667021
-3.300829 -0.032675 -0.656651
-2.664975 -0.930129 -0.746164
-2.843724 -0.611741 -0.716156
-2.923269 -0.237204 -0.694677
-3.109541 0.080155 -0.723963
-2.459410 -0.813982 -0.693396
-2.637717 -0.496628 -0.663399
-2.726480 -0.124209 -0.720358
-2.902428 0.193283 -0.670311
-2.266861 -0.702502 -0.757818
-2.448777 -0.385368 -0.757614
-2.529463 -0.011180 -0.744057
-2.705675 0.306160 -0.693979
-2.066988 -0.588607 -0.750666
-2.248583 -0.271771 -0.750484
-2.324000 0.102094 -0.686203
-2.508710 0.419064 -0.715670
-1.865654 -0.474451 -0.721565
-2.046790 -0.158157 -0.721413
-2.130990 0.214885 -0.745697
-2.311546 0.531985 -0.735378
-1.669553 -0.361946 -0.750214
-1.851490 -0.045549 -0.760035
-1.930168 0.327557 -0.723576
-2.110412 0.644194 -0.713291
-1.477340 -0.250321 -0.836742
-1.656485 0.067196 -0.806673
-1.732993 0.440294 -0.739292
-1.914072 0.757175 -0.738972
-1.275132 -0.136433 -0.781654
-1.456691 0.180181 -0.791506
-1.535665 0.553022 -0.753029
-1.715835 0.869701 -0.742754
-1.077145 -0.023615 -0.784420
-1.258445 0.292986 -0.794287
-1.335595 0.664978 -0.724874
-1.519053 0.982743 -0.764477
-0.880131 0.089030 -0.805168
-1.059132 0.405505 -0.775101
-1.138310 0.777491 -0.734632
-1.318131 1.093727 -0.724392
-0.682050 0.201710 -0.803959
-0.861564 0.518131 -0.783880
-0.938919 0.888870 -0.702473
-1.118427 1.204643 -0.692265
-0.484669 0.314374 -0.820745
-0.663897 0.630720 -0.790674
-0.743433 1.002407 -0.748205
-0.923179 1.318686 -0.737965
-0.286556 0.426883 -0.815565
-0.466144 0.743261 -0.795483
-0.545871 1.114792 -0.752018
-0.725580 1.431092 -0.741779
-0.088179 0.538969 -0.788397
-0.268081 0.855486 -0.788317
-0.347159 1.225500 -0.713898
-0.527919 1.543439 -0.743610
0.109218 0.651833 -0.819233
-0.070445 0.968169 -0.799152
-0.150576 1.339376 -0.753698
-0.330210 1.655718 -0.743458
0.307172 0.764204 -0.818089
0.127472 1.080519 -0.798006
0.046645 1.453519 -0.791515
-0.133417 1.770979 -0.791224
0.505151 0.876493 -0.814962
0.325372 1.193960 -0.824860
0.244847 1.563652 -0.747452
0.064834 1.882656 -0.777124
0.703270 0.989006 -0.819843
0.523364 1.304966 -0.789770
0.442570 1.675654 -0.741356
0.263048 1.992060 -0.731115
0.899673 1.098307 -0.732815
0.720619 1.414662 -0.732738
0.640279 1.787553 -0.733280
0.460794 2.103980 -0.723036
1.099367 1.213188 -0.803663
0.920091 1.531100 -0.813534
0.838692 1.901992 -0.763128
0.658970 2.218925 -0.752851
1.297369 1.325111 -0.792597
1.118284 1.643129 -0.802456
1.037670 2.016654 -0.790958
0.857708 2.334092 -0.780649
1.497060 1.438846 -0.819462
1.317523 1.756852 -0.819323
1.237196 2.131531 -0.816767
1.057262 2.450344 -0.816381
1.695248 1.550683 -0.804409
1.515826 1.868754 -0.804258
1.435613 2.243448 -0.800699
1.254083 2.557765 -0.750544
1.892770 1.661809 -0.777405
1.711979 1.977751 -0.747362
1.633940 2.355221 -0.782644
1.455484 2.677026 -0.812078
2.096663 1.778824 -0.848026
1.914548 2.095061 -0.808004
1.832165 2.466839 -0.762608
1.654048 2.788836 -0.792007
2.294432 1.889898 -0.817007
2.112866 2.206684 -0.786959
2.037923 2.589322 -0.859837
1.854768 2.904643 -0.809669
2.495990 2.004208 -0.833738
2.314035 2.321416 -0.803682
2.233948 2.697271 -0.796013
2.053381 3.016289 -0.785591
2.697121 2.117942 -0.838476
2.514848 2.435451 -0.808426
2.435532 2.812732 -0.809626
2.254725 3.132254 -0.799166
2.895655 2.229399 -0.811398
2.713270 2.546845 -0.781361
2.634096 2.924157 -0.781540
2.453326 3.243701 -0.771076
3.094018 2.340663 -0.782337
2.920261 2.666562 -0.841486
2.840001 3.044095 -0.830639
2.658715 3.364627 -0.820108
3.297769 2.456060 -0.800793
3.114815 2.773988 -0.770771
3.038793 3.155455 -0.798492
2.857544 3.476008 -0.787952
3.511596 2.578942 -0.896242
3.327638 2.898387 -0.866186
3.241737 3.271293 -0.803839
3.059227 3.591057 -0.783401
3.714503 2.693188 -0.890625
3.530227 3.012935 -0.860579
3.449722 3.392104 -0.846525
3.267716 3.714150 -0.835882
3.913603 2.804478 -0.853355
3.730488 3.125277 -0.833185
3.648737 3.503298 -0.808254
3.466768 3.825365 -0.797604
4.113870 2.916566 -0.823942
3.929302 3.236310 -0.793936
3.852761 3.619446 -0.807308
3.670551 3.942018 -0.796619
4.324459 3.036031 -0.861322
4.144921 3.361479 -0.870611
4.057110 3.735679 -0.804251
3.879949 4.064602 -0.832739
4.529702 3.151434 -0.857204
4.350079 3.477474 -0.866436
4.267635 3.857516 -0.838257
4.079081 4.175567 -0.788311
4.735248 3.266908 -0.850967
4.549249 3.588411 -0.820972
4.472888 3.974056 -0.830891
4.295566 4.304804 -0.859135
4.932501 3.376432 -0.793715
4.761282 3.709663 -0.851717
4.678419 4.090651 -0.821396
4.494970 4.415722 -0.810520
5.159707 3.506729 -0.900427
4.981065 3.836757 -0.919205
4.890968 4.213318 -0.848724
4.707001 4.539378 -0.837780
5.360986 3.618789 -0.858437
5.180743 3.947679 -0.867405
5.097301 4.330159 -0.834875
4.913092 4.656723 -0.823889
5.573686 3.738588 -0.872742
5.385670 4.062642 -0.842768
5.318563 4.459740 -0.896479
5.126483 4.780934 -0.846621
5.789060 3.860020 -0.894476
5.600388 4.184987 -0.864500
5.518275 4.570429 -0.839439
5.333306 4.898485 -0.828341
5.998968 3.977567 -0.884844
5.809843 4.303081 -0.854879
5.725531 4.687481 -0.819042
5.540320 5.016040 -0.807901
6.207045 4.093748 -0.863346
6.032181 4.430680 -0.900961
5.941202 4.811377 -0.835018
5.755471 5.140923 -0.823805
6.421991 4.214387 -0.868580
6.240559 4.547563 -0.877155
6.159752 4.937337 -0.858250
5.979625 5.273612 -0.875765
6.646757 4.341371 -0.909935
6.455801 4.669381 -0.879986
6.365936 5.052918 -0.821539
6.179443 5.383953 -0.810213
6.867918 4.465750 -0.929600
6.676239 4.794795 -0.899652
6.592617 5.184886 -0.868755
6.405325 5.517391 -0.857327
7.080109 4.584047 -0.908585
6.895136 4.918839 -0.907320
6.808805 5.308083 -0.865698
6.623346 5.643448 -0.863728
7.297593 4.705677 -0.904390
7.104878 5.036064 -0.874472
7.020665 5.427637 -0.841261
6.832610 5.761631 -0.829714
7.518191 4.829175 -0.907345
7.327353 5.162290 -0.886938
7.227741 5.543295 -0.795601
7.051658 5.888046 -0.831398
7.731411 4.947729 -0.879440
7.537594 5.279580 -0.849548
7.460435 5.678737 -0.842354
7.271338 6.014703 -0.830660
7.953052 5.071590 -0.877619
7.769287 5.411927 -0.885527
7.681247 5.804637 -0.839247
7.491627 6.141590 -0.827478
8.186561 5.202919 -0.911047
8.002159 5.544816 -0.918833
7.913512 5.939050 -0.871286
7.723092 6.277471 -0.859411
8.398113 5.319974 -0.866638
8.213621 5.662458 -0.874334
8.135773 6.065532 -0.863153
7.942111 6.402705 -0.841843
8.621493 5.444472 -0.857454
8.436638 5.788030 -0.865042
8.358582 6.192208 -0.852549
8.167117 6.532599 -0.840521
8.869673 5.584585 -0.920448
8.672050 5.921989 -0.890581
8.581921 6.319066 -0.839453
8.389933 6.660441 -0.827353
9.094683 5.709757 -0.906048
8.896410 6.048079 -0.876194
8.817775 6.455012 -0.860962
8.624985 6.797856 -0.848759
9.320189 5.835093 -0.889147
9.133694 6.182843 -0.896360
9.054686 6.591424 -0.879707
8.861094 6.935736 -0.867395
9.542928 5.958533 -0.860495
9.356133 6.307234 -0.867596
9.280053 6.719061 -0.858831
9.082862 7.061929 -0.837242
9.795824 6.100783 -0.912195
9.608119 6.451531 -0.919146
9.502649 6.844483 -0.826250
9.311222 7.193108 -0.822960
9.999483 6.211947 -0.823313
9.798615 6.553940 -0.793522
9.745234 6.984250 -0.846037
9.549790 7.331996 -0.833466
10.254422 6.355087 -0.869349
10.052361 6.698973 -0.839546
9.982214 7.119659 -0.844709
9.802462 7.481466 -0.877522
10.510870 6.498933 -0.912264
10.307617 6.844712 -0.882446
10.213141 7.250469 -0.822474
10.026433 7.608407 -0.836901
10.740030 6.625585 -0.879551
10.550242 6.981714 -0.885975
10.469023 7.398916 -0.860804
10.271166 7.751062 -0.847912
10.998859 6.770495 -0.916435
10.793770 7.119089 -0.886627
10.712093 7.537889 -0.859980
10.527407 7.902126 -0.882925
11.210565 6.886024 -0.833336
11.005172 7.234930 -0.803570
10.956027 7.677215 -0.856258
10.770811 8.043066 -0.878939
11.486542 7.041141 -0.900093
11.298364 7.404777 -0.915007
11.211901 7.824704 -0.876366
11.011419 8.181610 -0.863129
11.752825 7.190024 -0.936579
11.544712 7.543329 -0.906775
11.457688 7.964796 -0.866674
11.260100 8.325934 -0.862198
11.981186 7.315370 -0.881065
11.791860 7.682192 -0.895601
11.704262 8.105192 -0.854033
11.521007 8.479050 -0.884724
12.245712 7.462771 -0.902428
12.051600 7.829094 -0.907930
11.986741 8.270356 -0.917582
11.779378 8.629904 -0.895166
12.495223 7.600767 -0.885351
12.304476 7.971262 -0.899477
12.235415 8.411642 -0.898621
12.011564 8.761111 -0.841154
12.745453 7.739028 -0.865286
12.550056 8.108462 -0.870476
12.468636 8.542016 -0.841812
12.275680 8.915590 -0.854111
13.017429 7.890374 -0.885715
12.821047 8.261971 -0.890724
12.747172 8.703455 -0.877684
12.557159 9.082394 -0.898352
13.299293 8.047519 -0.920008
13.084952 8.410625 -0.890217
13.014773 8.857026 -0.884041
12.791111 9.214178 -0.835463
13.534946 8.176353 -0.855911
13.319967 8.540384 -0.826153
13.270811 9.002392 -0.861263
13.075192 9.382126 -0.872751
13.805957 8.326499 -0.857666
13.611506 8.706409 -0.870716
13.536186 9.153889 -0.852404
13.343984 9.538611 -0.872156
14.100455 8.490655 -0.898603
13.878366 8.856263 -0.860296
13.824382 9.320622 -0.882641
13.596660 9.683187 -0.834187
14.387603 8.650120 -0.918680
14.168539 9.020826 -0.888876
14.060923 9.452015 -0.807734
13.884808 9.852925 -0.860617
14.680796 8.813000 -0.943443
14.460279 9.186095 -0.913620
14.391982 9.647096 -0.906416
14.192231 10.035999 -0.916748
14.938152 8.954057 -0.897272
14.735139 9.340307 -0.900978
14.661798 9.800441 -0.883486
14.447731 10.181687 -0.868515
15.233852 9.118007 -0.914648
15.010980 9.494907 -0.884823
14.937080 9.957205 -0.865427
14.740163 10.353309 -0.883493
15.531015 9.282601 -0.928106
15.306696 9.661892 -0.898266
15.232070 10.126894 -0.876831
15.034038 10.525562 -0.894537
15.805288 9.433238 -0.896433
15.603835 9.829497 -0.907766
15.528468 10.297193 -0.884283
15.310564 10.685237 -0.868841
16.090166 9.590034 -0.877666
15.887787 9.988486 -0.888744
15.806952 10.455242 -0.855139
15.602208 10.855220 -0.863998
16.410946 9.768084 -0.912167
16.197321 10.163374 -0.906694
16.125336 10.639531 -0.887211
15.885430 11.018975 -0.839060
16.708281 9.931874 -0.901814
16.478516 10.320124 -0.871929
16.401001 10.795148 -0.842388
16.203707 11.206846 -0.866701
16.991426 10.086986 -0.863415
16.780674 10.489822 -0.865658
16.727385 10.984037 -0.874014
16.503984 11.381784 -0.857908
17.316721 10.266994 -0.885225
17.109612 10.676045 -0.895208
17.004906 11.140345 -0.821577
16.825481 11.571064 -0.876789
17.643709 10.447746 -0.902531
17.435194 10.859841 -0.912220
17.375353 11.357512 -0.907640
17.143585 11.757582 -0.883257
17.972347 10.629218 -0.915297
17.762424 11.044357 -0.924685
17.655073 11.514678 -0.847078
17.447826 11.934163 -0.861778
18.281157 10.798675 -0.892200
18.064806 11.213070 -0.893492
18.003569 11.716626 -0.884111
17.773897 12.125399 -0.867258
18.634398 10.994216 -0.927086
18.394903 11.398786 -0.897058
18.332838 11.905609 -0.885172
18.101509 12.317286 -0.868124
18.962242 11.174448 -0.918343
18.726517 11.585143 -0.895994
18.663601 12.095220 -0.881592
18.430613 12.509803 -0.864349
19.280365 11.348688 -0.889740
19.059607 11.772115 -0.890278
18.995817 12.285430 -0.873339
18.782614 12.717522 -0.886349
19.661133 11.559655 -0.940397
19.416245 11.973370 -0.910263
19.351398 12.490458 -0.890638
19.093132 12.896607 -0.842762
19.976349 11.731677 -0.894911
19.730026 12.147791 -0.864765
19.686613 12.681908 -0.872734
19.475760 13.124249 -0.892370
20.338152 11.930894 -0.905035
20.089853 12.350382 -0.874844
20.045567 12.888364 -0.879866
19.827526 13.330499 -0.891552
20.742107 12.154606 -0.961926
20.497066 12.581841 -0.939081
20.411911 13.099198 -0.889143
20.164120 13.526102 -0.863459
21.090279 12.345222 -0.939045
20.814714 12.757771 -0.879284
20.774324 13.307112 -0.885693
20.518881 13.733568 -0.852528
21.451525 12.543245 -0.925840
21.202921 12.976804 -0.902805
21.132584 13.511981 -0.869663
20.909401 13.964630 -0.879978
21.820196 12.745343 -0.914684
21.593180 13.196724 -0.920528
21.521471 13.736127 -0.884466
21.290524 14.188897 -0.887087
22.238400 12.976144 -0.955692
21.961704 13.402965 -0.903667
21.888762 13.946033 -0.864815
21.656038 14.402273 -0.867037
22.610546 13.179678 -0.933313
22.349678 13.620777 -0.902800
22.305079 14.186885 -0.896471
22.046515 14.631891 -0.869907
23.033003 13.412307 -0.962053
22.775667 13.861452 -0.938524
22.723684 14.428728 -0.921709
22.438837 14.862272 -0.866856
23.402241 13.613548 -0.921312
23.143061 14.065979 -0.897678
23.096073 14.640701 -0.884779
22.832945 15.093383 -0.857847
23.542419 14.289667 -0.886171
23.469759 14.853148 -0.842360
23.228781 15.325189 -0.842848
23.912464 15.109017 -0.869638
23.650652 15.573765 -0.849150
24.345091 15.358022 -0.876423
24.074554 15.823179 -0.848886
24.792324 15.615801 -0.889889
24.494221 16.069309 -0.835318
24.940681 16.332582 -0.841785
0.528826 0.282942 25.099451
0.539839 0.285239 25.096535
0.518289 0.275709 25.115440
0.539256 0.289149 25.098568
0.549168 0.290733 25.094126
0.560499 0.302726 25.082119
0.541838 0.290437 25.102291
0.524565 0.275108 25.121893
0.536366 0.286712 25.110134
0.525682 0.275662 25.123575
0.510417 0.269794 25.135529
0.526786 0.276208 25.125269
0.511430 0.270294 25.137079
0.513976 0.268137 25.138489
0.519311 0.275212 25.132891
0.521961 0.272950 25.134375
0.499567 0.262380 25.151573
0.542277 0.289627 25.119366