# This PCD file was generated using the MATLAB® pcwrite function
# from Computer Vision System Toolbox®.
# .PCD v.7 - Point Cloud Data file format
VERSION .7
FIELDS x y z
SIZE 4 4 4
TYPE F F F
COUNT 1 1 1
WIDTH 774
HEIGHT 1
VIEWPOINT 0 0 0 1 0 0 0
POINTS 774
DATA ascii
-4.445563 -2.553470 -0.775289
-4.514079 -2.467509 -0.784565
-4.329553 -2.484961 -0.747701
-4.390473 -2.396788 -0.750615
-4.305591 -2.468436 -0.811006
-4.333643 -2.362216 -0.780848
-4.164569 -2.386009 -0.753634
-4.276720 -2.327628 -0.810305
-4.095383 -2.344119 -0.768189
-4.161278 -2.261611 -0.778174
-4.013581 -2.295196 -0.768066
-4.104642 -2.227296 -0.805506
-3.938437 -2.250078 -0.773558
-4.003195 -2.168995 -0.783877
-3.857275 -2.201649 -0.770956
-3.940449 -2.131519 -0.802285
-3.788913 -2.160455 -0.781122
-3.846309 -2.077312 -0.784756
-3.733056 -2.126307 -0.804435
-3.802656 -2.050143 -0.822298
-3.616022 -2.058028 -0.755616
-3.672163 -1.976732 -0.759466
-3.536393 -2.010735 -0.748018
-3.628775 -1.949810 -0.795132
-3.445162 -1.957048 -0.724674
-3.524366 -1.890507 -0.757751
-3.437943 -1.950197 -0.802329
-3.499148 -1.873301 -0.813748
-3.323654 -1.883810 -0.747396
-3.383821 -1.808403 -0.759002
-3.286465 -1.860340 -0.787221
-3.352433 -1.787984 -0.806384
-3.225806 -1.823871 -0.796685
-3.279593 -1.745707 -0.801068
-3.165286 -1.787526 -0.805302
-3.218727 -1.709803 -0.809769
-3.082197 -1.738747 -0.782642
-3.129258 -1.658926 -0.779606
-3.027829 -1.705907 -0.797017
-3.108831 -1.644348 -0.839962
-2.962381 -1.666995 -0.795228
-3.008861 -1.588127 -0.792243
-2.891714 -1.625264 -0.784726
-2.965657 -1.561676 -0.820630
-2.821459 -1.583823 -0.773181
-2.867073 -1.506388 -0.770265
-2.789374 -1.563403 -0.815790
-2.845978 -1.491524 -0.828634
-2.740901 -1.534001 -0.834307
-2.775621 -1.451070 -0.815543
-2.644924 -1.478625 -0.780315
-2.732431 -1.424757 -0.841356
-2.602144 -1.452433 -0.805206
-2.652096 -1.379274 -0.810411
-2.548918 -1.420561 -0.813420
-2.619494 -1.358493 -0.851053
-2.480514 -1.380458 -0.796506
-2.534859 -1.310953 -0.810008
-2.559493 -1.223876 -0.821964
-2.628758 -1.160164 -0.857950
-2.452866 -1.362589 -0.844159
-2.512330 -1.295382 -0.865948
-2.480368 -1.180561 -0.787466
-2.538358 -1.112922 -0.807355
-2.370021 -1.314740 -0.800934
-2.418569 -1.243337 -0.806439
-2.447730 -1.159697 -0.826115
-2.515918 -1.096467 -0.862640
-2.307689 -1.278105 -0.789610
-2.375746 -1.217431 -0.828347
-2.384601 -1.124224 -0.814631
-2.411420 -1.043163 -0.785036
-2.274842 -1.257483 -0.827464
-2.322969 -1.186477 -0.833095
-2.331778 -1.093746 -0.818986
-2.378698 -1.022141 -0.822655
-2.203335 -1.215980 -0.797911
-2.270333 -1.155637 -0.837167
-2.269304 -1.058734 -0.805862
-2.310859 -0.985496 -0.801216
-2.160830 -1.190191 -0.817927
-2.208251 -1.120061 -0.823699
-2.241076 -1.040009 -0.851026
-2.282775 -0.966533 -0.846358
-2.108903 -1.159353 -0.820497
-2.170243 -1.096707 -0.851771
-2.159886 -0.996284 -0.802535
-2.200974 -0.923904 -0.797931
-2.061737 -1.131110 -0.830932
-2.113334 -1.063845 -0.845354
-2.126702 -0.975253 -0.838242
-2.167866 -0.902756 -0.833626
-2.001002 -1.095625 -0.815074
-2.070538 -1.038124 -0.863893
-2.060667 -0.938844 -0.813550
-2.106139 -0.869129 -0.817553
-1.949640 -1.065213 -0.815619
-2.000402 -0.998746 -0.830266
-2.027254 -0.917726 -0.848347
-2.072737 -0.847854 -0.852382
-1.885234 -1.027880 -0.789524
-1.948871 -0.968749 -0.830265
-1.948350 -0.875509 -0.796105
-1.993157 -0.806694 -0.800247
-1.860488 -1.011743 -0.840873
-1.906352 -0.943277 -0.847016
-1.914919 -0.854433 -0.829865
-1.959738 -0.785461 -0.834038
-1.809486 -0.981631 -0.839602
-1.863763 -0.917788 -0.863293
-1.876776 -0.831170 -0.854563
-1.917082 -0.760272 -0.850022
-1.729195 -0.936027 -0.776156
-1.748297 -0.856357 -0.729736
-1.821159 -0.799924 -0.843669
-1.865586 -0.731367 -0.847947
-1.674905 -0.904296 -0.764485
-1.706698 -0.831523 -0.744362
-1.782895 -0.776639 -0.867421
-1.805648 -0.698988 -0.827569
-1.653603 -0.890027 -0.823079
-1.685804 -0.816848 -0.802861
-1.715128 -0.740018 -0.828611
-1.754698 -0.670467 -0.824143
-1.607502 -0.862670 -0.828136
-1.668282 -0.803759 -0.870203
-1.672837 -0.714989 -0.842381
-1.712346 -0.645563 -0.837916
-1.565436 -0.837463 -0.841599
-1.609731 -0.770656 -0.848083
-1.634556 -0.691769 -0.864643
-1.661701 -0.617276 -0.833317
-1.492281 -0.795996 -0.782680
-1.575380 -0.749347 -0.879097
-1.560212 -0.652529 -0.805532
-1.599114 -0.584202 -0.801128
-1.469739 -0.781073 -0.840043
-1.517416 -0.716648 -0.855657
-1.526109 -0.631244 -0.835708
-1.573067 -0.566019 -0.849348
-1.409029 -0.746237 -0.806674
-1.467590 -0.687940 -0.849572
-1.487852 -0.608112 -0.856497
-1.526839 -0.539673 -0.852077
-1.382071 -0.729006 -0.854383
-1.425503 -0.662981 -0.861070
-1.434294 -0.578312 -0.840463
-1.473012 -0.510362 -0.836070
-1.318442 -0.692767 -0.810556
-1.376027 -0.634532 -0.853840
-1.395984 -0.555195 -0.860328
-1.434710 -0.487250 -0.855931
-1.266236 -0.662516 -0.793360
-1.297905 -0.592603 -0.772670
-1.346575 -0.527311 -0.852267
-1.385101 -0.459734 -0.847889
-1.228318 -0.639670 -0.812325
-1.284920 -0.581495 -0.855982
-1.304582 -0.502654 -0.862034
-1.357637 -0.440814 -0.894479
-1.200461 -0.621991 -0.858623
-1.243025 -0.556746 -0.865497
-1.266086 -0.479496 -0.880589
-1.300979 -0.410687 -0.866975
-1.118685 -0.576749 -0.756370
-1.177283 -0.520936 -0.809677
-1.199920 -0.444746 -0.824524
-1.237847 -0.378272 -0.820207
-1.097346 -0.562429 -0.820372
-1.152535 -0.504219 -0.864555
-1.175172 -0.427388 -0.879279
-1.213382 -0.360434 -0.874928
-1.036823 -0.528199 -0.772271
-1.091164 -0.470618 -0.816645
-1.123320 -0.398778 -0.859162
-1.161261 -0.332313 -0.854839
-1.008398 -0.510269 -0.817020
-1.062592 -0.452112 -0.861539
-1.097735 -0.380965 -0.913384
-1.122762 -0.309244 -0.871569
-0.954977 -0.479747 -0.786389
-0.999084 -0.417734 -0.802902
-1.033532 -0.347482 -0.854630
-1.074441 -0.282662 -0.859726
-0.911085 -0.454070 -0.783354
-0.942682 -0.386719 -0.762249
-0.982685 -0.319542 -0.832739
-1.016938 -0.252949 -0.819047
-0.873176 -0.431410 -0.798730
-0.922814 -0.372121 -0.834277
-0.944353 -0.296640 -0.848067
-0.997211 -0.236498 -0.891050
-0.812400 -0.397431 -0.737853
-0.855357 -0.336356 -0.754591
-0.905899 -0.273687 -0.863005
-0.940308 -0.207188 -0.849250
-0.796993 -0.385937 -0.828323
-0.843205 -0.325054 -0.854590
-0.867324 -0.250683 -0.877552
-0.904757 -0.185214 -0.873273
-0.737120 -0.352539 -0.766241
-0.768694 -0.286474 -0.744960
-0.817413 -0.223389 -0.853547
-0.854577 -0.158408 -0.849297
-0.701938 -0.331305 -0.789424
-0.755311 -0.274482 -0.844559
-0.767962 -0.196391 -0.828946
-0.804856 -0.131898 -0.824725
-0.648603 -0.301274 -0.745158
-0.693234 -0.241561 -0.771720
-0.750909 -0.181393 -0.918835
-0.777444 -0.112520 -0.876220
-0.615905 -0.281276 -0.777112
-0.670675 -0.225488 -0.842173
-0.691172 -0.150750 -0.854895
-0.730740 -0.087077 -0.860276
-0.580403 -0.259914 -0.799141
-0.612382 -0.194415 -0.777681
-0.652620 -0.127868 -0.867286
-0.686951 -0.062620 -0.853428
-0.542315 -0.237318 -0.811173
-0.586484 -0.176844 -0.837942
-0.613967 -0.104947 -0.879284
-0.653405 -0.041198 -0.884705
-0.504128 -0.214684 -0.822819
-0.536383 -0.149348 -0.801273
-0.565731 -0.078776 -0.852165
-0.609708 -0.016837 -0.876985
-0.454872 -0.186899 -0.785565
-0.507300 -0.130372 -0.851283
-0.527177 -0.055957 -0.863294
-0.566208 0.007386 -0.868785
-0.421108 -0.166373 -0.815777
-0.444659 -0.098124 -0.755289
-0.479630 -0.030236 -0.835141
-0.516023 0.033259 -0.830967
-0.364424 -0.135336 -0.738512
-0.430157 -0.084753 -0.872718
-0.458408 -0.012915 -0.923347
-0.477590 0.055965 -0.841233
-0.336633 -0.117558 -0.797183
-0.375088 -0.055714 -0.804785
-0.402665 0.015216 -0.855287
-0.439073 0.078701 -0.851110
-0.292808 -0.092517 -0.777412
-0.350695 -0.038283 -0.882811
-0.372079 0.035636 -0.903893
-0.400474 0.101465 -0.860596
-0.253003 -0.069324 -0.776745
-0.291015 -0.007867 -0.784405
-0.315714 0.063497 -0.824890
-0.361796 0.124254 -0.869691
-0.209759 -0.044666 -0.756030
-0.274855 0.006835 -0.910885
-0.286611 0.083596 -0.882577
-0.323042 0.147068 -0.878394
-0.182015 -0.026726 -0.823315
-0.214822 0.036987 -0.801517
-0.238858 0.108720 -0.841745
-0.284215 0.169904 -0.886706
-0.140457 -0.002831 -0.811628
-0.188359 0.055556 -0.878392
-0.208873 0.129298 -0.898810
-0.239981 0.193638 -0.865115
-0.105260 0.018377 -0.838940
-0.138349 0.081925 -0.817084
-0.161724 0.154026 -0.857044
-0.192715 0.217627 -0.823344
-0.063867 0.042135 -0.826418
-0.106128 0.102547 -0.863772
-0.130867 0.175075 -0.913467
-0.160805 0.239350 -0.869823
-0.008868 0.071192 -0.714568
-0.045621 0.131609 -0.722373
-0.084337 0.199400 -0.870780
-0.114234 0.262891 -0.827122
0.028685 0.093191 -0.720844
-0.017644 0.150986 -0.797942
-0.046968 0.221869 -0.886958
-0.083166 0.284831 -0.882799
0.052707 0.110160 -0.835783
0.015348 0.172001 -0.843568
-0.006720 0.244828 -0.882950
-0.038635 0.307887 -0.849097
0.101631 0.136394 -0.752106
0.058832 0.195727 -0.809538
0.030905 0.267407 -0.898365
-0.006641 0.330329 -0.904115
0.129718 0.155173 -0.846668
0.097145 0.218112 -0.814757
0.074667 0.290619 -0.863765
0.039981 0.353071 -0.849713
0.175369 0.179983 -0.781923
0.131183 0.239678 -0.859346
0.113424 0.313233 -0.868448
0.082202 0.375466 -0.824597
0.213465 0.202202 -0.786332
0.173909 0.262902 -0.824032
0.152223 0.335852 -0.872740
0.120694 0.397905 -0.828855
0.249880 0.223945 -0.810276
0.208631 0.284828 -0.867913
0.187211 0.358569 -0.916453
0.149935 0.421648 -0.922235
0.292916 0.247433 -0.754126
0.250834 0.307708 -0.831758
0.229937 0.381097 -0.880148
0.197792 0.442792 -0.836205
0.325142 0.268265 -0.837142
0.286230 0.329986 -0.874916
0.265597 0.404165 -0.923129
0.232865 0.466164 -0.879129
0.366222 0.291099 -0.800117
0.327898 0.352516 -0.837929
0.307785 0.426342 -0.885988
0.275023 0.487677 -0.841997
0.405609 0.313449 -0.782630
0.363957 0.375141 -0.880352
0.341460 0.450549 -0.968127
0.307100 0.512991 -0.934023
0.442784 0.335537 -0.804696
0.405078 0.397313 -0.842545
0.385744 0.471571 -0.890256
0.350396 0.533638 -0.876148
0.479465 0.357838 -0.846373
0.441789 0.420277 -0.884220
0.424757 0.494176 -0.891801
0.385845 0.558636 -0.937538
0.519437 0.379950 -0.807730
0.480737 0.442834 -0.885566
0.463789 0.516772 -0.892952
0.429790 0.577390 -0.848907
0.557532 0.402254 -0.818665
0.519702 0.465381 -0.886518
0.502837 0.539357 -0.893710
0.466382 0.602268 -0.899552
0.596887 0.423711 -0.769232
0.560445 0.485994 -0.817128
0.541898 0.561930 -0.894075
0.505864 0.624342 -0.889939
0.633896 0.447679 -0.869371
0.597495 0.510757 -0.897240
0.580968 0.584489 -0.894047
0.544927 0.646897 -0.889910
0.672798 0.469613 -0.849153
0.636670 0.532947 -0.887023
0.620046 0.607032 -0.893625
0.584199 0.668810 -0.879510
0.711314 0.490787 -0.808558
0.675674 0.555438 -0.886406
0.659127 0.629558 -0.892811
0.622435 0.695301 -0.938558
0.750549 0.515204 -0.877521
0.714480 0.576114 -0.845437
0.698209 0.652064 -0.891603
0.662196 0.713747 -0.877491
0.789276 0.537237 -0.866131
0.754567 0.603811 -0.953903
0.738040 0.679630 -0.969836
0.701338 0.740719 -0.935721
0.825408 0.555426 -0.764466
0.790271 0.616362 -0.762396
0.776364 0.697013 -0.888007
0.740284 0.759399 -0.883871
0.865569 0.580059 -0.822232
0.831684 0.645202 -0.880013
0.815431 0.719451 -0.885619
0.779343 0.781833 -0.881484
0.904939 0.603181 -0.839641
0.868203 0.663225 -0.807613
0.855448 0.744160 -0.912736
0.818392 0.804241 -0.878705
0.942110 0.623723 -0.806776
0.910072 0.690606 -0.884432
0.896697 0.770717 -0.959342
0.859057 0.831268 -0.925290
0.985691 0.651039 -0.893156
0.948602 0.712267 -0.871101
0.932553 0.786604 -0.876102
0.896041 0.848000 -0.862024
1.022180 0.670891 -0.849553
0.989859 0.737574 -0.907167
0.975935 0.816088 -0.951704
0.937349 0.875355 -0.907761
1.059491 0.691716 -0.825524
1.026461 0.756828 -0.863204
1.010540 0.831220 -0.867797
0.973862 0.892521 -0.853737
1.099675 0.715206 -0.840909
1.071924 0.786609 -0.948110
1.052288 0.857401 -0.902766
1.015875 0.920239 -0.898604
1.139259 0.738072 -0.845936
1.101806 0.798610 -0.823957
1.090743 0.878769 -0.887679
1.055096 0.942627 -0.893435
1.175162 0.757773 -0.810864
1.149221 0.829888 -0.917854
1.134106 0.906416 -0.931659
1.095063 0.966164 -0.897770
1.219809 0.784797 -0.864672
1.181861 0.845534 -0.842722
1.168951 0.923352 -0.876180
1.137706 0.993439 -0.931353
1.263120 0.810516 -0.898153
1.234029 0.880750 -0.965266
1.212992 0.951345 -0.919258
1.176269 1.014648 -0.915068
1.295238 0.827212 -0.832274
1.268203 0.898077 -0.909206
1.252374 0.973745 -0.912465
1.216647 1.038359 -0.918138
1.330166 0.846278 -0.795784
1.303946 0.917124 -0.872621
1.296306 1.001051 -0.944702
1.254974 1.059394 -0.901088
1.367249 0.867077 -0.778709
1.337939 0.934732 -0.825869
1.331003 1.018407 -0.897693
1.298870 1.087300 -0.932843
1.418135 0.898342 -0.859725
1.385920 0.964941 -0.887092
1.375436 1.045957 -0.929024
1.333490 1.103951 -0.885532
1.449670 0.914891 -0.802471
1.419439 0.982240 -0.839634
1.414922 1.068334 -0.920590
1.381788 1.136554 -0.945785
1.503643 0.948132 -0.892181
1.477462 1.020661 -0.958663
1.460140 1.096288 -0.950939
1.417302 1.154418 -0.907549
1.542811 0.970300 -0.883209
1.506280 1.033975 -0.881028
1.493720 1.112930 -0.902539
1.456663 1.176684 -0.898328
1.585315 0.994869 -0.893399
1.553538 1.062840 -0.920530
1.539411 1.141110 -0.931955
1.503592 1.206954 -0.937465
1.624507 1.017009 -0.883605
1.608287 1.097633 -0.998476
1.585629 1.169567 -0.960828
1.547996 1.234277 -0.956557
1.671018 1.044339 -0.912381
1.642978 1.115921 -0.958849
1.625394 1.191999 -0.950268
1.581057 1.249923 -0.907151
1.702688 1.061112 -0.862844
1.669750 1.127997 -0.880080
1.665085 1.214369 -0.939311
1.627437 1.279070 -0.935044
1.757623 1.094236 -0.929471
1.720436 1.159144 -0.927239
1.712269 1.243309 -0.966670
1.667046 1.301372 -0.923692
1.803322 1.120775 -0.946976
1.767933 1.187608 -0.954402
1.752101 1.265715 -0.954832
1.714157 1.330889 -0.950538
1.836534 1.138626 -0.906019
1.805579 1.208341 -0.932736
1.800007 1.295018 -0.981131
1.763743 1.362531 -0.986434
1.891370 1.171357 -0.961129
1.855866 1.238767 -0.968489
1.831514 1.310324 -0.929962
1.793555 1.375490 -0.925673
1.933417 1.195230 -0.957862
1.911237 1.272897 -1.022820
1.888574 1.347108 -0.993625
1.841584 1.405458 -0.950961
1.963714 1.211105 -0.906227
1.935456 1.283410 -0.942287
1.928642 1.369561 -0.980003
1.890105 1.435682 -0.975656
1.993335 1.226580 -0.854396
1.991664 1.317967 -0.995475
1.977939 1.399559 -1.004124
1.932330 1.460081 -0.971164
2.059878 1.266901 -0.945380
2.014671 1.327758 -0.914497
2.018102 1.422022 -0.989598
1.979269 1.488615 -0.985225
2.102127 1.290801 -0.940322
2.076720 1.366421 -0.985532
2.068069 1.452350 -1.012602
2.021729 1.513101 -0.979776
2.139115 1.311174 -0.915856
2.114146 1.386880 -0.960930
2.108313 1.474814 -0.997165
2.066705 1.539734 -0.983318
2.192193 1.342212 -0.947758
2.167247 1.418729 -0.992668
2.137965 1.488929 -0.943619
2.109310 1.564257 -0.976930
2.240291 1.369879 -0.960134
2.188241 1.427308 -0.910701
2.188469 1.519491 -0.965087
2.146702 1.584322 -0.951305
2.282972 1.393932 -0.953151
2.258482 1.471342 -0.997746
2.250489 1.558870 -1.023392
2.210773 1.626886 -1.018939
2.334495 1.423749 -0.973799
2.307225 1.499802 -1.008865
2.290848 1.581308 -1.006112
2.242829 1.642401 -0.973675
2.374428 1.445939 -0.956476
2.350392 1.524241 -1.000742
2.331083 1.603655 -0.988431
2.291352 1.671663 -0.983985
2.408075 1.464032 -0.920156
2.363456 1.527421 -0.899197
2.371192 1.625909 -0.970349
2.334360 1.696298 -0.975173
2.453920 1.490044 -0.920640
2.449106 1.581730 -1.020161
2.423365 1.657284 -0.988832
2.383337 1.725765 -0.984362
2.516031 1.526526 -0.966772
2.457908 1.582047 -0.908977
2.475970 1.688876 -1.006650
2.438702 1.760296 -1.011353
2.572409 1.559216 -0.993636
2.555437 1.644258 -1.055576
2.529001 1.720679 -1.023796
2.475918 1.780104 -0.982608
2.592355 1.568442 -0.918927
2.563120 1.643909 -0.943998
2.569414 1.743008 -1.003709
2.519232 1.804814 -0.971795
2.645651 1.599082 -0.935555
2.623085 1.679792 -0.978753
2.622998 1.775069 -1.019632
2.585353 1.847556 -1.024179
2.699361 1.629926 -0.951502
2.694044 1.723107 -1.039957
2.666795 1.799840 -1.007665
2.625813 1.869863 -1.003112
2.753479 1.660972 -0.966763
2.731072 1.743045 -1.009557
2.717515 1.829650 -1.013282
2.676313 1.900030 -1.008711
2.786150 1.678339 -0.927199
2.789240 1.777401 -1.032934
2.772030 1.862153 -1.027267
2.720139 1.924927 -0.995715
2.855492 1.718949 -0.977230
2.855223 1.816969 -1.073492
2.798090 1.873953 -0.968911
2.756873 1.944324 -0.964348
2.880428 1.731393 -0.918906
2.832971 1.796723 -0.898523
2.852832 1.906531 -0.981786
2.807722 1.974609 -0.968290
2.904655 1.743423 -0.860498
2.895125 1.833667 -0.929224
2.922925 1.950038 -1.029451
2.869830 2.013424 -0.998200
2.975152 1.784595 -0.908410
2.942546 1.860606 -0.923606
2.963452 1.972234 -1.005389
2.921365 2.044035 -1.000746
3.046566 1.826244 -0.955282
3.021379 1.908546 -0.988000
3.019315 2.005351 -1.016103
2.961710 2.066105 -0.976287
3.131038 1.875975 -1.027455
3.093426 1.951789 -1.033616
3.075539 2.038639 -1.026083
3.017375 2.099723 -0.986408
3.146813 1.882639 -0.949692
3.150173 1.984714 -1.043210
3.116069 2.060759 -1.000483
3.073394 2.133509 -0.995793
3.228549 1.930499 -1.011232
3.190810 2.006880 -1.017281
3.168648 2.091361 -1.000484
3.113729 2.155497 -0.969796
3.273173 1.955141 -0.993604
3.235440 2.031683 -0.999600
3.229726 2.127864 -1.017070
3.186471 2.201568 -1.012329
3.326372 1.985088 -0.992714
3.288507 2.062036 -0.998648
3.270216 2.149883 -0.989917
3.222812 2.220520 -0.976609
3.362240 2.004246 -0.956887
3.324517 2.081112 -0.962776
3.327614 2.183679 -0.996502
3.288268 2.260954 -1.000267
3.455606 2.058995 -1.031543
3.403992 2.128732 -1.011774
3.376650 2.211596 -0.985345
3.320133 2.276607 -0.955130
3.514228 2.092144 -1.036890
3.444436 2.150659 -0.983302
3.461000 2.263906 -1.041147
3.381890 2.314164 -0.968823
3.559424 2.116961 -1.016174
3.520749 2.196009 -1.021833
3.501713 2.285936 -1.011653
3.444085 2.351930 -0.981651
3.585964 2.130269 -0.961432
3.584161 2.232835 -1.034077
3.560357 2.320297 -1.015151
3.515643 2.396379 -1.010289
3.677803 2.183735 -1.023263
3.638721 2.263833 -1.028781
3.619294 2.354788 -1.017863
3.569760 2.428073 -1.004683
3.742201 2.220244 -1.033916
3.712252 2.307086 -1.055920
3.678517 2.389404 -1.019785
3.637816 2.469746 -1.023117
3.811843 2.259907 -1.051913
3.757851 2.332166 -1.032574
3.738019 2.424140 -1.020911
3.697090 2.504994 -1.024169
3.842832 2.275854 -1.003414
3.822660 2.369630 -1.041458
3.816954 2.472016 -1.053843
3.756635 2.540358 -1.024420
3.917977 2.318780 -1.027947
3.897646 2.413579 -1.065702
3.857829 2.493960 -1.020755
3.811661 2.572424 -1.015770
3.953574 2.337509 -0.986680
3.913816 2.419618 -0.991850
3.918122 2.529032 -1.019463
3.871664 2.607973 -1.014454
4.024399 2.377688 -1.001356
3.999346 2.470218 -1.030532
3.978663 2.564208 -1.017356
3.941727 2.650576 -1.028304
4.075130 2.405581 -0.983080
4.106049 2.534253 -1.099788
4.059600 2.613035 -1.046210
3.992406 2.679375 -1.009372
4.136270 2.439765 -0.980053
4.101034 2.526727 -0.992918
4.120860 2.648532 -1.042245
4.058160 2.718759 -1.013480
4.229252 2.493211 -1.023459
4.209059 2.591406 -1.059781
4.182344 2.684117 -1.037447
4.114081 2.751149 -1.000989
4.301867 2.534222 -1.034100
4.286832 2.636659 -1.077934
4.264927 2.733726 -1.062951
4.216448 2.816009 -1.057765
4.321045 2.542851 -0.966011
4.311974 2.648379 -1.017291
4.305952 2.755530 -1.025339
4.257465 2.837809 -1.020160
4.453898 2.620156 -1.059921
4.411803 2.707501 -1.064484
4.389421 2.805544 -1.048716
4.340360 2.888780 -1.043483
4.489347 2.638551 -1.013721
4.480024 2.746473 -1.064137
4.451958 2.841557 -1.040323
4.381292 2.910468 -1.004626
4.580062 2.690233 -1.043234
4.559545 2.792521 -1.078015
4.514677 2.877632 -1.031074
4.459647 2.958089 -1.018243
4.637790 2.721980 -1.026064
4.622923 2.828297 -1.068078
4.572055 2.910122 -1.013462
4.527637 2.998429 -1.015667
4.706939 2.760550 -1.023118
4.664012 2.849981 -1.027351
4.657352 2.960967 -1.032334
4.590405 3.035090 -1.004673
4.782107 2.802678 -1.026620
4.767195 2.910705 -1.067874
4.748899 3.015804 -1.057260
4.675573 3.087091 -1.022335
4.851859 2.841495 -1.021650
4.836955 2.950315 -1.062521
4.812723 3.052320 -1.044079
4.761348 3.139373 -1.038654
4.951144 2.897937 -1.052238
4.941689 3.011781 -1.100003
4.876685 3.088871 -1.030021
4.802322 3.160872 -0.995526
5.039418 2.947699 -1.066730
4.988918 3.037133 -1.063313
4.969780 3.144411 -1.051126
4.917468 3.233017 -1.045621
5.110363 2.987031 -1.058287
5.083121 3.091819 -1.083579
5.051840 3.192626 -1.056443
5.004808 3.286009 -1.058036
5.187555 3.030035 -1.055962
5.142270 3.124529 -1.059600
5.116607 3.229485 -1.039240
5.069339 3.323372 -1.040751
5.258996 3.069549 -1.045430
5.249485 3.187141 -1.091352
5.229206 3.297380 -1.077349
5.151656 3.372742 -1.043625
5.349038 3.120080 -1.054894
5.296924 3.212447 -1.051330
5.294599 3.334486 -1.057853
5.222490 3.414237 -1.031313
5.451972 3.178195 -1.076844
5.429767 3.290780 -1.107916
5.378295 3.383394 -1.058154
5.305521 3.463898 -1.031761
5.530666 3.221821 -1.069613
5.502155 3.331451 -1.093456
5.474639 3.440387 -1.070842
5.395000 3.517803 -1.037752
5.603346 3.261815 -1.054399
5.593385 3.383731 -1.098391
5.540668 3.477698 -1.048111
5.491076 3.576026 -1.049088
5.714259 3.324412 -1.078659
5.659983 3.420686 -1.074905
5.656613 3.547121 -1.078138
5.575402 3.626231 -1.045462
5.806755 3.376005 -1.081032
5.758268 3.477164 -1.083914
5.748289 3.600777 -1.079630
5.691150 3.697388 -1.073713
5.873902 3.412528 -1.055470
5.825200 3.514204 -1.058259
5.815058 3.638338 -1.053355
5.770159 3.743803 -1.060564
6.006076 3.487419 -1.094554
5.962907 3.594789 -1.103752
5.907394 3.692243 -1.052204
5.843071 3.786070 -1.039714
6.067217 3.520264 -1.059984
5.998021 3.612105 -1.043078
6.000143 3.746313 -1.049592
5.947927 3.849552 -1.049999
6.119241 3.817126 -1.071028
6.059799 3.917560 -1.064920
6.219504 3.875771 -1.071510
6.178814 3.990157 -1.084265
6.300471 3.922011 -1.051633
6.213885 4.006969 -1.020486
6.401498 3.980945 -1.049066
6.346890 4.088587 -1.048986
6.543053 4.065519 -1.081510
6.467584 4.161884 -1.062961
6.611558 4.103571 -1.045047
6.555679 4.213532 -1.044715
6.768093 4.197343 -1.085227
6.690926 4.296125 -1.066828
6.857512 4.248459 -1.063630
0.871071 0.466014 4.110249
6.772993 4.343593 -1.039441
0.903116 0.481456 4.090846
0.846160 0.449316 4.137073
0.867858 0.463343 4.121678
0.884868 0.469610 4.112132
0.896743 0.482021 4.101118
0.877125 0.469026 4.119892
0.887305 0.470813 4.116193
0.871273 0.465032 4.127317
0.859964 0.453519 4.139826
0.844131 0.447216 4.150775
0.889681 0.471979 4.120301
0.873479 0.466115 4.131131
0.818668 0.427433 4.174859
0.853120 0.452749 4.148778
0.855701 0.450450 4.150325
0.832501 0.439254 4.165990
0.876681 0.467673 4.136930