# This PCD file was generated using the MATLAB® pcwrite function
# from Computer Vision System Toolbox®.
# .PCD v.7 - Point Cloud Data file format
VERSION .7
FIELDS x y z
SIZE 4 4 4
TYPE F F F
COUNT 1 1 1
WIDTH 749
HEIGHT 1
VIEWPOINT 0 0 0 1 0 0 0
POINTS 749
DATA ascii
-28.497316 -16.093161 -0.617159
-27.596970 -16.251301 -0.531507
-27.979624 -15.795016 -0.607439
-27.158504 -15.991945 -0.582850
-27.544674 -15.543358 -0.666168
-26.668663 -15.702766 -0.575577
-27.051022 -15.259055 -0.659952
-26.154835 -15.399747 -0.534285
-26.559530 -14.976161 -0.645851
-25.747463 -15.158946 -0.590265
-26.175220 -14.753313 -0.729521
-25.315477 -14.903923 -0.613359
-25.713535 -14.487426 -0.727489
-24.885094 -14.649965 -0.629744
-25.228004 -14.208427 -0.691296
-24.475395 -14.408188 -0.659845
-24.847483 -13.988166 -0.756113
-24.054556 -14.160047 -0.669968
-24.391592 -13.726056 -0.733000
-23.629187 -13.909389 -0.666697
-23.963137 -13.479410 -0.730455
-23.248972 -13.685151 -0.705763
-23.561565 -13.247898 -0.749283
-22.857700 -13.454588 -0.725079
-23.167709 -13.020833 -0.769123
-22.413208 -13.193163 -0.674530
-22.738438 -12.774239 -0.740433
-22.043499 -12.975382 -0.703094
-22.341810 -12.545956 -0.741013
-21.722820 -12.786235 -0.784075
-22.001245 -12.348948 -0.800734
-21.331612 -12.556156 -0.773102
-21.577658 -12.106010 -0.753578
-20.942219 -12.327247 -0.756269
-21.215742 -11.897442 -0.773462
-20.583729 -12.116413 -0.770664
-20.849276 -11.686491 -0.780701
-20.220863 -11.903138 -0.772385
-20.484293 -11.476505 -0.782618
-19.859535 -11.690861 -0.768820
-20.097797 -11.254764 -0.749146
-19.522348 -11.492710 -0.790327
-19.781828 -11.072175 -0.800938
-19.186348 -11.295344 -0.807068
-19.421394 -10.865132 -0.787308
-18.807409 -11.073129 -0.757498
-19.040283 -10.646824 -0.737703
-18.518095 -10.903070 -0.826340
-18.749926 -10.478743 -0.806490
-18.185934 -10.708213 -0.828926
-18.410685 -10.283810 -0.801231
-17.855146 -10.514243 -0.826855
-18.105434 -10.107736 -0.838354
-17.504629 -10.308908 -0.788492
-17.752794 -9.905689 -0.800171
-17.831871 -9.406752 -0.801600
-18.078070 -9.002871 -0.810816
-17.197868 -10.129064 -0.808838
-17.444475 -9.728167 -0.820684
-17.495996 -9.218122 -0.780140
-17.680904 -8.788028 -0.701757
-16.892138 -9.949900 -0.825031
-17.116234 -9.539812 -0.804968
-17.188154 -9.044230 -0.794224
-17.393602 -8.627349 -0.747625
-16.567045 -9.759584 -0.804811
-16.789541 -9.352444 -0.784708
-16.881401 -8.871053 -0.804192
-17.091051 -8.459356 -0.765528
-16.283918 -9.593698 -0.845055
-16.505375 -9.188538 -0.824903
-16.555157 -8.687943 -0.777494
-16.763397 -8.279301 -0.738749
-15.961568 -9.405138 -0.816246
-16.181427 -9.002927 -0.796051
-16.250944 -8.516400 -0.779100
-16.458048 -8.110328 -0.740261
-15.665513 -9.231911 -0.824091
-15.879132 -8.829309 -0.795628
-15.947936 -8.345638 -0.776669
-16.174303 -7.952025 -0.770689
-15.360835 -9.053762 -0.811462
-15.578062 -8.656481 -0.791180
-15.685925 -8.196142 -0.836559
-15.871158 -7.784487 -0.764347
-15.081538 -8.890407 -0.836336
-15.297732 -8.495109 -0.816004
-15.365322 -8.016621 -0.793146
-15.569295 -7.617769 -0.754013
-14.784098 -8.716608 -0.824144
-15.018201 -8.334273 -0.837240
-15.090131 -7.860597 -0.820881
-15.312955 -7.473157 -0.815180
-14.487993 -8.543658 -0.807995
-14.701562 -8.153295 -0.787577
-14.791763 -7.692828 -0.802967
-15.013201 -7.307809 -0.797373
-14.211701 -8.382266 -0.821775
-14.442953 -8.004086 -0.835155
-14.494789 -7.525940 -0.781137
-14.733976 -7.152496 -0.809563
-13.918129 -8.210932 -0.797983
-14.147814 -7.835071 -0.811508
-14.217853 -7.369444 -0.789534
-14.436789 -6.988782 -0.784132
-13.648406 -8.053488 -0.813089
-13.858672 -7.669442 -0.792538
-13.941866 -7.213570 -0.794430
-14.159687 -6.834841 -0.789120
-13.375107 -7.894040 -0.816206
-13.606773 -7.524166 -0.838598
-13.684954 -7.067521 -0.830324
-13.897341 -6.688064 -0.816469
-13.115857 -7.742800 -0.841778
-13.324276 -7.362364 -0.821133
-13.410705 -6.912788 -0.828459
-13.626567 -6.537439 -0.823307
-12.865820 -7.596959 -0.881542
-13.073561 -7.217906 -0.860849
-13.137502 -6.758729 -0.823160
-13.334405 -6.376919 -0.783291
-12.590864 -7.436756 -0.865927
-12.797509 -7.059811 -0.845192
-12.882680 -6.614089 -0.849432
-13.096580 -6.242119 -0.844437
-12.337904 -7.289353 -0.890682
-12.543801 -6.913912 -0.869900
-12.611396 -6.461274 -0.837482
-12.824179 -6.091236 -0.832581
-12.056917 -7.125792 -0.850683
-12.278213 -6.761684 -0.865114
-12.341249 -6.309183 -0.822163
-12.552914 -5.941078 -0.817347
-11.801612 -6.977160 -0.860205
-12.005461 -6.605698 -0.839338
-12.088780 -6.166097 -0.838972
-12.299598 -5.799437 -0.834225
-11.554996 -6.833622 -0.884413
-11.758172 -6.463544 -0.863501
-11.836973 -6.023456 -0.852772
-12.030432 -5.650620 -0.812469
-11.305034 -6.688209 -0.896761
-11.507466 -6.319637 -0.875805
-11.585855 -5.881276 -0.863575
-11.794978 -5.517505 -0.858971
-11.025213 -6.525581 -0.834332
-11.230235 -6.161572 -0.822315
-11.335451 -5.739570 -0.871401
-11.527756 -5.369938 -0.830927
-10.810991 -6.400968 -0.921516
-11.008188 -6.033239 -0.891466
-11.085789 -5.598355 -0.876255
-11.293218 -5.237472 -0.871792
-10.529985 -6.237779 -0.843540
-10.729636 -5.874696 -0.822468
-10.821739 -5.450167 -0.841911
-11.028047 -5.091214 -0.837536
-10.294378 -6.100914 -0.870989
-10.515612 -5.750798 -0.904383
-10.588793 -5.317449 -0.877146
-10.794525 -4.959453 -0.872820
-10.052073 -5.960231 -0.877491
-10.264991 -5.607403 -0.892822
-10.341510 -5.177788 -0.873207
-10.531515 -4.814566 -0.832428
-9.820895 -5.826042 -0.908634
-10.033077 -5.474078 -0.924059
-10.095072 -5.038673 -0.866371
-10.299106 -4.683563 -0.862185
-9.576386 -5.684202 -0.900394
-9.787554 -5.333585 -0.915922
-9.849504 -4.900118 -0.856657
-10.067012 -4.552800 -0.889343
-9.346116 -5.550651 -0.926186
-9.542911 -5.193659 -0.904909
-9.618603 -4.768813 -0.881033
-9.824721 -4.417648 -0.886202
-9.090036 -5.402234 -0.875313
-9.285816 -5.047235 -0.854002
-9.377942 -4.632887 -0.875010
-9.579766 -4.281497 -0.871010
-8.861044 -5.269534 -0.895672
-9.056367 -4.915562 -0.874323
-9.147994 -4.502243 -0.894135
-9.349241 -4.151808 -0.890182
-8.632445 -5.137117 -0.913467
-8.843306 -4.792612 -0.938696
-8.915218 -4.370340 -0.901361
-9.115819 -4.020983 -0.897469
-8.404262 -5.004994 -0.928707
-8.601799 -4.654723 -0.916637
-8.689333 -4.241831 -0.924713
-8.886192 -3.891923 -0.911501
-8.164562 -4.866269 -0.903860
-8.370468 -4.522286 -0.919945
-8.445207 -4.104766 -0.889202
-8.647536 -3.759148 -0.894817
-7.925889 -4.728189 -0.876242
-8.133763 -4.387119 -0.901827
-8.208299 -3.971282 -0.869720
-8.391243 -3.619133 -0.818901
-7.713874 -4.605576 -0.930870
-7.906712 -4.257102 -0.909344
-7.990003 -3.846676 -0.904282
-8.188014 -3.501624 -0.900604
-7.485003 -4.473269 -0.926437
-7.688693 -4.131876 -0.942764
-7.751649 -3.712785 -0.870131
-7.948807 -3.369173 -0.866520
-7.262201 -4.344524 -0.938450
-7.465220 -4.003871 -0.954855
-7.539650 -3.591277 -0.918856
-7.725075 -3.243301 -0.877249
-7.034535 -4.213019 -0.928974
-7.236745 -3.873350 -0.945459
-7.313818 -3.463438 -0.917686
-7.507356 -3.119990 -0.904619
-6.812694 -4.084932 -0.936079
-7.014233 -3.746004 -0.952633
-7.099203 -3.340844 -0.952295
-7.295236 -2.999000 -0.948790
-6.588805 -3.955712 -0.931189
-6.787047 -3.616330 -0.938240
-6.863892 -3.208917 -0.907946
-7.069699 -2.872723 -0.942841
-6.372761 -3.831079 -0.952660
-6.565576 -3.489688 -0.940544
-6.649904 -3.086787 -0.937847
-6.844776 -2.746850 -0.934441
-6.149880 -3.702542 -0.942949
-6.351815 -3.367071 -0.969337
-6.426194 -2.960377 -0.926964
-6.630531 -2.625269 -0.962126
-5.938983 -3.580986 -0.979061
-6.138114 -3.244538 -0.995884
-6.212619 -2.838586 -0.952288
-6.406601 -2.500070 -0.948956
-5.723629 -3.456902 -0.993635
-5.913167 -3.116358 -0.971832
-5.989942 -2.712872 -0.936657
-6.180976 -2.374424 -0.923697
-5.512761 -3.335463 -1.025322
-5.702197 -2.995344 -1.003489
-5.776853 -2.591462 -0.957430
-5.960774 -2.250996 -0.915384
-5.281374 -3.202203 -0.957661
-5.472131 -2.864783 -0.945522
-5.553134 -2.465565 -0.927368
-5.756670 -2.133543 -0.972752
-5.045515 -3.066400 -0.858200
-5.251552 -2.739113 -0.923950
-5.336524 -2.342860 -0.924112
-5.534956 -2.009821 -0.950161
-4.851506 -2.954863 -0.960926
-5.045509 -2.620774 -0.968290
-5.114360 -2.217955 -0.889290
-5.322277 -1.889440 -0.964231
-4.630751 -2.827894 -0.924950
-4.827810 -2.496704 -0.951897
-4.910473 -2.100776 -0.940096
-5.101783 -1.766517 -0.936991
-4.428456 -2.711662 -0.984514
-4.623500 -2.379306 -1.001732
-4.696914 -1.979658 -0.939863
-4.889769 -1.646617 -0.946579
-4.215548 -2.589332 -0.983196
-4.403061 -2.254066 -0.961227
-4.487277 -1.860214 -0.957031
-4.677967 -1.526888 -0.953976
-3.998191 -2.464472 -0.950178
-4.191957 -2.133474 -0.967493
-4.276013 -1.740199 -0.962215
-4.466394 -1.407338 -0.959187
-3.781668 -2.340137 -0.914843
-3.974689 -2.010001 -0.932207
-4.064995 -1.620373 -0.965216
-4.253367 -1.287476 -0.952372
-3.577645 -2.223099 -0.956070
-3.772004 -1.893578 -0.983330
-3.848011 -1.498422 -0.926594
-4.037499 -1.166980 -0.923637
-3.374679 -2.106724 -1.005119
-3.561588 -1.773527 -0.983072
-3.637836 -1.379176 -0.925194
-3.833219 -1.049866 -0.961742
-3.159492 -1.983302 -0.963169
-3.351461 -1.653689 -0.980646
-3.433588 -1.262129 -0.961184
-3.622731 -0.931132 -0.958260
-2.955065 -1.866176 -0.998137
-3.145543 -1.535859 -1.005751
-3.218393 -1.141348 -0.915915
-3.412556 -0.812626 -0.952618
-2.750360 -1.748939 -1.031050
-2.937044 -1.416900 -1.008955
-3.014190 -1.024423 -0.947697
-3.208019 -0.695509 -0.984451
-2.535657 -1.625926 -0.972610
-2.726432 -1.297078 -0.990187
-2.809734 -0.907400 -0.977427
-3.003227 -0.578294 -1.014229
-2.327093 -1.506531 -0.961578
-2.517402 -1.178059 -0.979187
-2.596182 -0.787702 -0.925632
-2.784083 -0.458567 -0.922804
-2.122627 -1.389575 -0.988178
-2.308743 -1.059301 -0.966045
-2.391869 -0.670856 -0.951174
-2.575331 -0.341065 -0.908594
-1.914523 -1.270537 -0.972918
-2.103248 -0.941952 -0.980627
-2.187349 -0.553940 -0.974657
-2.371077 -0.224301 -0.932049
-1.709946 -1.153612 -0.995369
-1.896856 -0.824287 -0.983173
-1.982639 -0.436962 -0.996084
-2.166633 -0.107475 -0.953449
-1.499545 -1.033309 -0.936033
-1.685163 -0.704681 -0.913876
-1.771308 -0.318724 -0.935724
-1.962014 0.009403 -0.972794
-1.293333 -0.915507 -0.924397
-1.478855 -0.587306 -0.902231
-1.566869 -0.201995 -0.952986
-1.754041 0.126271 -0.950211
-1.093519 -0.801542 -1.020443
-1.279705 -0.472434 -0.998260
-1.362285 -0.085231 -0.968189
-1.550145 0.243112 -0.975393
-0.886618 -0.683428 -0.994703
-1.072639 -0.354870 -0.972519
-1.157575 0.031559 -0.981339
-1.344675 0.359865 -0.978569
-0.681813 -0.566609 -1.006826
-0.867946 -0.238114 -0.984636
-0.952752 0.148365 -0.992430
-1.140388 0.476836 -0.999645
-0.476904 -0.449777 -1.016891
-0.664733 -0.121657 -1.034662
-0.744414 0.264660 -0.921539
-0.932876 0.592782 -0.958757
-0.271907 -0.332941 -1.024900
-0.459544 -0.004712 -1.042677
-0.540020 0.381128 -0.928493
-0.728143 0.709444 -0.965723
-0.066661 -0.215998 -1.020849
-0.253303 0.112194 -1.008642
-0.336663 0.498192 -0.973379
-0.523345 0.826095 -0.970636
0.138292 -0.099295 -1.034737
-0.048962 0.229152 -1.052523
-0.131851 0.614805 -0.976234
-0.318497 0.942728 -0.973490
0.343462 0.017498 -1.036566
0.156772 0.345676 -1.014359
0.072994 0.731390 -0.977034
-0.114387 1.060769 -1.014254
0.548451 0.134193 -0.996336
0.361857 0.462373 -1.014128
0.278052 0.846815 -0.935787
0.091285 1.175903 -0.973028
0.752843 0.250502 -0.954052
0.566481 0.577581 -0.931852
0.482726 0.964442 -0.972458
0.296188 1.292426 -0.969711
0.959068 0.367650 -1.029694
0.771907 0.695412 -0.997492
0.687581 1.080891 -0.967087
0.501078 1.408896 -0.964340
1.164249 0.484261 -1.023285
0.977112 0.812184 -1.001083
0.892407 1.197277 -0.959661
0.706382 1.527428 -0.996853
1.369394 0.600805 -1.014814
1.183291 0.929906 -1.032583
1.097189 1.313591 -0.950176
0.911503 1.643935 -0.987356
1.576212 0.718201 -1.044239
1.388575 1.046482 -1.022047
1.303235 1.431810 -0.978569
1.116564 1.760361 -0.975800
1.781541 0.834755 -1.031637
1.593793 1.162973 -1.009451
1.509813 1.550283 -1.004868
1.322901 1.879339 -1.002077
1.986786 0.951215 -1.016975
1.800468 1.280688 -1.024729
1.716905 1.669001 -1.029064
1.528099 1.995748 -0.986387
2.191275 1.067210 -0.990282
2.003373 1.395181 -0.968113
1.922263 1.785454 -1.011293
1.737103 2.118021 -1.048317
2.405039 1.188258 -1.091091
2.216199 1.517623 -1.068922
2.127499 1.901790 -0.991461
1.942677 2.234550 -1.028452
2.610772 1.304853 -1.070175
2.421081 1.633587 -1.038057
2.338273 2.023689 -1.049166
2.150674 2.354280 -1.046307
2.812820 1.419360 -1.007397
2.627298 1.750557 -1.025047
2.543821 2.140108 -1.025152
2.356258 2.470720 -1.022287
3.021786 1.537644 -1.022154
2.832613 1.866820 -1.000019
2.752642 2.259569 -1.038799
2.564046 2.589767 -1.025986
3.230142 1.655546 -1.024839
3.041618 1.985721 -1.012650
2.961880 2.379219 -1.050306
2.773834 2.710840 -1.047396
3.433200 1.770460 -0.975813
3.246864 2.101849 -0.983465
3.171520 2.499048 -1.059666
2.983232 2.831174 -1.056732
3.651175 1.893620 -1.053574
3.465315 2.227192 -1.071104
3.381544 2.619047 -1.066872
3.191997 2.950632 -1.054022
3.861747 2.012621 -1.059742
3.671029 2.343491 -1.037664
3.587290 2.735340 -1.032375
3.398795 3.067990 -1.029409
4.078026 2.134758 -1.103283
3.886648 2.466537 -1.081213
3.792787 2.851444 -0.995817
3.608997 3.188634 -1.032318
4.283952 2.251081 -1.065590
4.093808 2.583707 -1.053413
4.008512 2.975761 -1.036064
3.819533 3.309420 -1.033051
4.497039 2.371349 -1.075111
4.310771 2.707417 -1.092491
4.214063 3.091799 -0.995275
4.025118 3.425477 -0.992254
4.709024 2.490957 -1.072578
4.522670 2.827618 -1.089920
4.431006 3.216708 -1.031046
4.241542 3.551375 -1.027981
4.921301 2.610681 -1.067862
4.728591 2.943792 -1.045870
4.642688 3.337355 -1.025259
4.452981 3.672525 -1.022165
5.132142 2.729555 -1.051144
4.940759 3.064047 -1.038977
4.854637 3.458102 -1.017275
4.664687 3.793777 -1.014154
5.352020 2.853433 -1.081203
5.158337 3.187758 -1.059252
5.073575 3.583991 -1.046196
4.883105 3.920653 -1.043032
5.567154 2.974612 -1.079605
5.380183 3.314131 -1.096756
5.293341 3.710296 -1.072765
5.095590 4.042246 -1.030542
5.778792 3.093789 -1.056255
5.591804 3.433778 -1.073355
5.506581 3.831624 -1.058016
5.315346 4.169778 -1.054775
6.002535 3.219689 -1.089119
5.807360 3.555898 -1.067236
5.720018 3.953014 -1.041044
5.521187 4.285637 -0.998922
6.200140 3.330915 -0.993309
6.011171 3.670438 -1.000591
5.935616 4.075885 -1.031544
5.741912 4.413616 -1.018553
6.439852 3.465657 -1.089411
6.243637 3.803204 -1.067577
6.155633 4.201819 -1.039125
5.963388 4.541967 -1.035782
6.652501 3.585204 -1.057076
6.458135 3.924426 -1.044937
6.380494 4.331057 -1.063639
6.185597 4.670680 -1.050600
6.876654 3.711141 -1.070770
6.679470 4.049906 -1.048990
6.593002 4.451411 -1.027906
6.397858 4.791374 -1.014862
7.094380 3.833431 -1.053169
6.894439 4.171292 -1.021797
6.816848 4.579663 -1.038002
6.623313 4.922286 -1.034538
7.314801 3.957180 -1.042866
7.119031 4.298656 -1.030746
7.041368 4.708242 -1.045652
6.847311 5.051852 -1.042139
7.553250 4.090974 -1.097221
7.356555 4.434013 -1.085096
7.256859 4.830434 -1.012617
7.069610 5.179938 -1.037731
7.772311 4.213861 -1.072475
7.580294 4.560639 -1.079454
7.479884 4.957755 -1.005911
7.285127 5.302733 -1.002319
7.999562 4.341284 -1.073969
7.809710 4.690714 -1.090420
7.708510 5.088802 -1.015781
7.500677 5.425497 -0.964642
8.227418 4.468994 -1.072975
8.026516 4.812876 -1.051378
7.935238 5.218415 -1.013632
7.739364 5.565485 -1.009941
8.441796 4.589103 -1.022152
8.254302 4.941775 -1.047918
8.173382 5.355649 -1.046772
7.974064 5.702230 -1.033569
8.696393 4.731686 -1.101227
8.491097 5.076148 -1.070255
8.412655 5.493463 -1.077166
8.204322 5.835475 -1.035683
8.914400 4.853723 -1.054945
8.723093 5.207459 -1.071079
8.627346 5.614576 -1.020287
8.429688 5.964967 -1.016432
9.153546 4.987546 -1.072020
8.964627 5.344541 -1.097445
8.871087 5.755107 -1.054764
8.661131 6.098769 -1.013418
9.384324 5.116629 -1.058319
9.179961 5.465455 -1.036890
9.086063 5.876273 -0.993095
8.901989 6.239230 -1.035763
9.615581 5.245926 -1.042061
9.426073 5.605151 -1.067249
9.343744 6.025782 -1.059341
9.143882 6.380215 -1.055298
9.863496 5.384497 -1.069658
9.670179 5.743509 -1.085438
9.587455 6.165811 -1.076111
9.374512 6.512919 -1.034956
10.105931 5.519944 -1.075850
9.902316 5.874470 -1.063778
9.819319 6.297870 -1.053099
9.614984 6.652517 -1.039707
10.355963 5.659588 -1.097685
10.148116 6.013665 -1.076401
10.051582 6.430098 -1.027494
9.862696 6.797074 -1.060053
10.589830 5.790125 -1.070658
10.381336 6.145120 -1.049412
10.311019 6.580043 -1.072590
10.108211 6.939863 -1.068287
10.834629 5.926726 -1.068460
10.628736 6.285097 -1.056402
10.544580 6.712883 -1.041477
10.354639 7.083106 -1.073618
11.087373 6.067716 -1.081657
10.877039 6.425522 -1.060488
10.792426 6.854943 -1.044104
10.584864 7.214820 -1.030594
11.322831 6.198973 -1.046467
11.111853 6.557697 -1.025341
11.041140 6.997429 -1.043800
10.836188 7.361167 -1.039307
11.588423 6.347037 -1.080957
11.376253 6.707655 -1.059868
11.290691 7.140326 -1.040550
11.081375 7.503060 -1.026972
11.825008 6.478807 -1.040165
11.627113 6.849334 -1.055132
11.552143 7.290781 -1.061274
11.348991 7.660324 -1.065601
12.104379 6.634460 -1.095320
11.893968 7.000543 -1.083275
11.803504 7.434569 -1.051958
11.595918 7.803069 -1.047241
12.342196 6.766800 -1.048756
12.142811 7.140811 -1.063496
12.055627 7.578722 -1.039646
11.850991 7.951271 -1.043756
12.612240 6.917109 -1.070593
12.396201 7.283722 -1.049671
12.324080 7.733229 -1.059771
12.129913 8.115631 -1.090326
12.846913 7.047568 -1.009474
12.650312 7.426975 -1.032825
12.593784 7.888371 -1.076538
12.398798 8.272871 -1.106842
13.122985 7.201123 -1.033777
12.921397 7.580299 -1.048159
12.852605 8.036400 -1.063591
12.637184 8.409151 -1.049776
13.417216 7.364767 -1.089666
13.197823 7.736705 -1.068869
13.120414 8.190032 -1.064970
12.907936 8.567307 -1.059849
13.674845 7.507875 -1.063238
13.467150 7.888754 -1.068647
13.376745 8.336223 -1.036930
13.163456 8.714961 -1.031736
13.946100 7.658538 -1.059757
13.746028 8.046397 -1.082432
13.650609 8.493427 -1.040403
13.419574 8.862885 -1.000532
14.222739 7.812142 -1.061546
14.000134 8.189164 -1.040884
13.925570 8.651178 -1.040417
13.727015 9.045188 -1.069460
14.464702 7.946297 -0.991152
14.259067 8.334724 -1.004894
14.201597 8.809458 -1.036951
13.985032 9.194038 -1.031492
14.779227 8.120941 -1.054699
14.554261 8.501763 -1.034122
14.478661 8.968246 -1.029980
14.261001 9.354773 -1.024439
15.059015 8.276099 -1.046017
14.832867 8.658820 -1.025486
14.752230 9.124692 -1.011021
14.555674 9.527806 -1.047728
15.358447 8.442163 -1.067612
15.149234 8.838183 -1.080931
15.054000 9.298741 -1.039164
14.851830 9.701595 -1.067108
15.654619 8.606330 -1.076880
15.425635 8.993705 -1.056435
15.352726 9.470695 -1.054893
15.126669 9.861002 -1.040674
15.942510 8.765798 -1.065571
15.712279 9.155196 -1.045170
15.652866 9.643364 -1.066658
15.411516 10.026889 -1.027407
16.241125 8.931182 -1.067188
16.014303 9.325682 -1.055143
15.935378 9.804834 -1.041304
15.711403 10.202538 -1.035265
16.511452 9.080696 -1.015335
16.274017 9.471030 -0.986773
16.233170 9.975720 -1.037025
16.031610 10.391373 -1.072027
16.832050 9.258202 -1.042259
16.622393 9.668680 -1.063051
16.561399 10.165440 -1.077896
16.334394 10.568481 -1.071632
17.159357 9.439370 -1.072996
16.943316 9.849962 -1.085419
16.827309 10.316135 -1.008482
16.614092 10.730229 -1.026527
17.467978 9.610029 -1.066811
17.250738 10.023149 -1.079071
17.173477 10.516661 -1.065088
16.938780 10.921324 -1.050535
17.777805 9.781281 -1.056517
17.538961 10.184902 -1.036386
17.481314 10.693155 -1.052521
17.225203 11.087149 -1.005814
18.088799 9.953101 -1.042101
17.848515 10.359118 -1.022013
17.810799 10.882921 -1.067722
17.557775 11.282954 -1.029127
18.422092 10.137279 -1.055349
18.180092 10.546175 -1.035309
18.115952 11.057433 -1.038712
17.902296 11.486295 -1.063591
18.756958 10.322247 -1.064003
18.513247 10.734025 -1.044001
18.427298 11.235635 -1.013489
18.233206 11.680517 -1.069519
19.115009 10.520053 -1.099419
18.847933 10.922642 -1.048067
18.760895 11.427437 -1.015329
18.523737 11.848303 -1.008301
19.431240 10.694452 -1.067394
19.184105 11.111998 -1.047474
19.117420 11.633209 -1.043545
18.920683 12.084914 -1.098446
19.770565 10.881639 -1.062075
19.521719 11.302067 -1.042196
19.454142 11.826570 -1.035789
19.229441 12.264124 -1.051615
20.066555 11.044584 -0.990576
19.838638 11.479874 -1.001480
19.814169 12.034105 -1.053917
19.571461 12.464657 -1.046495
20.475954 11.270636 -1.067774
20.223419 11.697321 -1.047979
20.175991 12.242543 -1.066835
19.931339 12.676483 -1.059277
20.836685 11.469468 -1.070717
20.565321 11.889501 -1.028252
20.517160 12.438100 -1.044359
20.270840 12.874944 -1.036686
21.210548 11.675516 -1.083544
20.954060 12.108951 -1.063824
20.842585 12.623834 -0.994637
20.628332 13.084767 -1.031708
21.504671 11.837060 -0.986597
21.275864 12.289106 -1.004200
21.248854 12.858966 -1.044329
20.998640 13.302586 -1.036381
21.951803 12.083707 -1.078163
21.691362 12.523891 -1.058517
21.617111 13.070589 -1.036327
21.387754 13.532207 -1.057680
22.342609 12.298880 -1.089474
22.079990 12.742805 -1.069864
22.010216 13.297215 -1.052176
21.778854 13.762825 -1.073141
22.741251 12.518305 -1.102325
22.452690 12.952270 -1.053644
22.358183 13.496058 -1.004196
22.125374 13.964694 -1.024807
23.117598 12.725216 -1.080414
22.856743 13.179873 -1.068090
22.778397 13.738831 -1.037479
22.513956 14.193217 -1.021782
23.495342 12.932798 -1.053053
23.232573 13.390864 -1.040710
23.176893 13.968127 -1.035839
22.933857 14.441446 -1.048529
23.948324 13.182118 -1.105377
23.652376 13.627322 -1.057520
23.577141 14.198282 -1.028219
23.308125 14.660345 -1.012348
24.292080 13.370577 -1.024096
24.031219 13.839768 -1.018732
23.979082 14.429267 -1.014589
23.756031 14.925827 -1.054594
24.423691 14.060000 -0.988356
24.407276 14.676005 -1.022661
24.182083 15.177117 -1.062061
24.812635 14.908651 -0.996653
24.567163 15.402159 -1.014858
25.263327 15.168602 -1.012201
24.990578 15.651259 -1.002758
25.703569 15.421980 -1.007219
25.440714 15.916999 -1.011093
25.905546 16.191723 -1.025702
0.576787 0.195598 25.856510
0.559547 0.184555 25.878849
0.573935 0.193472 25.867992
0.597161 0.203297 25.851170
0.608568 0.215046 25.838997
0.591672 0.199910 25.859180
0.589772 0.203165 25.859285
0.599781 0.204699 25.855049
0.611375 0.216549 25.843151
0.573474 0.188822 25.880758
0.558128 0.183191 25.892719
0.602343 0.206067 25.858978
0.586624 0.200869 25.870815
0.554677 0.177411 25.901537
0.567036 0.188562 25.890034
0.597811 0.203187 25.868685
0.581984 0.197773 25.880232
0.562059 0.185285 25.898973