# This PCD file was generated using the MATLAB® pcwrite function
# from Computer Vision System Toolbox®.
# .PCD v.7 - Point Cloud Data file format
VERSION .7
FIELDS x y z
SIZE 4 4 4
TYPE F F F
COUNT 1 1 1
WIDTH 776
HEIGHT 1
VIEWPOINT 0 0 0 1 0 0 0
POINTS 776
DATA ascii
-0.630501 -0.800155 -0.321513
-0.692944 -0.798491 -0.367514
-0.605939 -0.785609 -0.323859
-0.654914 -0.776397 -0.357130
-0.600565 -0.782766 -0.345805
-0.623603 -0.758229 -0.352762
-0.582340 -0.772087 -0.354313
-0.630806 -0.762583 -0.388240
-0.545304 -0.749919 -0.342204
-0.529862 -0.703683 -0.308549
-0.446424 -0.689948 -0.260937
-0.537095 -0.708055 -0.343467
-0.484463 -0.713638 -0.329931
-0.525207 -0.701244 -0.357894
-0.472679 -0.706886 -0.343985
-0.531752 -0.705222 -0.393142
-0.412337 -0.670418 -0.301592
-0.501107 -0.687436 -0.386388
-0.412777 -0.671144 -0.329119
-0.446380 -0.655548 -0.350725
-0.406951 -0.668043 -0.349609
-0.410363 -0.634608 -0.335577
-0.353759 -0.635909 -0.312307
-0.362749 -0.606872 -0.305372
-0.353794 -0.636402 -0.339604
-0.345247 -0.596768 -0.310757
-0.313021 -0.611857 -0.315614
-0.392162 -0.624409 -0.396703
-0.272710 -0.587577 -0.290914
-0.356681 -0.603776 -0.380052
-0.283918 -0.594947 -0.332664
-0.350266 -0.600177 -0.400122
-0.204736 -0.546737 -0.254457
-0.241296 -0.536451 -0.284819
-0.260234 -0.581379 -0.356586
-0.319923 -0.582718 -0.417506
-0.204251 -0.547408 -0.307305
-0.262914 -0.549447 -0.368669
-0.192650 -0.540762 -0.318517
-0.234306 -0.532829 -0.357261
-0.180964 -0.534067 -0.329612
-0.238690 -0.535569 -0.391873
-0.169194 -0.527325 -0.340588
-0.221051 -0.525388 -0.395490
-0.115212 -0.494501 -0.288618
-0.214118 -0.521493 -0.414585
-0.145407 -0.513698 -0.362185
-0.196427 -0.511282 -0.417847
-0.112806 -0.494073 -0.340962
-0.168338 -0.494961 -0.404953
-0.111125 -0.493584 -0.367274
-0.150843 -0.484862 -0.407648
-0.068922 -0.467984 -0.329157
-0.123197 -0.468796 -0.393981
-0.057160 -0.461246 -0.338999
-0.126045 -0.470657 -0.428588
-0.020813 -0.439237 -0.307889
-0.073748 -0.440086 -0.373525
-0.101281 -0.424143 -0.411184
-0.104734 -0.394594 -0.394475
-0.023734 -0.441623 -0.341893
-0.081292 -0.444714 -0.416153
-0.044359 -0.392294 -0.346891
-0.072409 -0.377057 -0.371303
0.016789 -0.416984 -0.301682
-0.015542 -0.406207 -0.335042
-0.061781 -0.401769 -0.405970
-0.080147 -0.380509 -0.413936
0.009481 -0.422122 -0.343914
-0.042020 -0.421988 -0.410742
-0.010853 -0.373270 -0.348744
-0.048177 -0.363177 -0.390126
0.077173 -0.380494 -0.252608
0.027024 -0.381517 -0.319804
0.020093 -0.355880 -0.324182
-0.040784 -0.358696 -0.407740
0.060821 -0.391287 -0.311429
-0.003216 -0.399530 -0.404252
0.031814 -0.349166 -0.332864
-0.004606 -0.339198 -0.374723
0.063395 -0.390288 -0.336871
0.050464 -0.368090 -0.337167
0.020440 -0.355261 -0.383837
0.016899 -0.327370 -0.366557
0.093051 -0.372350 -0.311360
0.012447 -0.390712 -0.439227
0.037179 -0.345756 -0.383984
0.024303 -0.322884 -0.383664
0.091486 -0.373960 -0.345208
0.056301 -0.365054 -0.388259
0.067363 -0.328803 -0.358198
0.045616 -0.311166 -0.375026
0.146671 -0.339972 -0.267488
0.086109 -0.347673 -0.362322
0.079340 -0.321943 -0.366403
0.062227 -0.301896 -0.374703
0.119569 -0.357636 -0.352888
0.085110 -0.348476 -0.396386
0.091378 -0.315048 -0.374487
0.069887 -0.297264 -0.391489
0.139904 -0.345513 -0.343459
0.110185 -0.333882 -0.378491
0.120703 -0.298587 -0.347630
0.090865 -0.285738 -0.382131
0.143499 -0.343930 -0.368637
0.122314 -0.326935 -0.386393
0.115635 -0.301154 -0.390291
0.090094 -0.285445 -0.416208
0.171823 -0.326755 -0.341263
0.138640 -0.317507 -0.385404
0.127852 -0.294156 -0.398010
0.110994 -0.273963 -0.406475
0.179667 -0.322500 -0.357478
0.146749 -0.312939 -0.401829
0.152450 -0.280319 -0.379113
0.114982 -0.271190 -0.431768
0.195569 -0.313154 -0.355955
0.163058 -0.303521 -0.400512
0.168622 -0.271140 -0.377591
0.135731 -0.259795 -0.421621
0.234595 -0.289136 -0.300894
0.202913 -0.280155 -0.345641
0.176768 -0.266390 -0.393690
0.140101 -0.256802 -0.446826
0.234732 -0.289770 -0.334450
0.187700 -0.289407 -0.415126
0.208537 -0.248614 -0.356042
0.176590 -0.237371 -0.400472
0.246523 -0.283017 -0.341220
0.211510 -0.275538 -0.395337
0.216654 -0.243881 -0.371819
0.204506 -0.222361 -0.371502
0.258365 -0.276234 -0.347870
0.223762 -0.268521 -0.402218
0.217420 -0.243190 -0.405606
0.201226 -0.223261 -0.414308
0.255875 -0.278613 -0.390577
0.236067 -0.261473 -0.408976
0.240852 -0.230021 -0.385109
0.228700 -0.208504 -0.384790
0.289252 -0.258068 -0.342651
0.262810 -0.245848 -0.379279
0.256658 -0.221052 -0.382470
0.240871 -0.201533 -0.391250
0.304561 -0.249062 -0.339753
0.274939 -0.238901 -0.385644
0.279500 -0.208221 -0.361364
0.263986 -0.189028 -0.370184
0.319779 -0.240108 -0.336664
0.287116 -0.231927 -0.391886
0.294986 -0.199436 -0.358268
0.279607 -0.180326 -0.367124
0.331583 -0.233347 -0.342574
0.302729 -0.222907 -0.388817
0.300106 -0.196335 -0.382601
0.291643 -0.173433 -0.373078
0.336933 -0.230759 -0.366807
0.311609 -0.217899 -0.404002
0.318967 -0.185701 -0.369988
0.290032 -0.173377 -0.415862
0.352145 -0.221809 -0.363291
0.323924 -0.210846 -0.409875
0.340876 -0.173404 -0.347849
0.315847 -0.159570 -0.384621
0.361041 -0.216952 -0.378162
0.336282 -0.203768 -0.415624
0.343122 -0.171866 -0.381225
0.314884 -0.159143 -0.427422
0.388354 -0.200119 -0.337062
0.348684 -0.196665 -0.421248
0.348976 -0.168346 -0.405333
0.340223 -0.145610 -0.395675
0.409064 -0.187544 -0.314227
0.385435 -0.175000 -0.351929
0.379734 -0.151233 -0.354503
0.352473 -0.138594 -0.401018
0.414901 -0.184677 -0.337996
0.388450 -0.173504 -0.385207
0.373662 -0.154208 -0.415959
0.364762 -0.131555 -0.406238
0.415406 -0.185340 -0.380588
0.386138 -0.175214 -0.437370
0.415365 -0.131162 -0.326813
0.386088 -0.120076 -0.383058
0.438560 -0.171127 -0.347775
0.412827 -0.159543 -0.395283
0.412798 -0.132213 -0.378807
0.401168 -0.111684 -0.378489
0.450445 -0.164321 -0.352486
0.411306 -0.160801 -0.447487
0.427705 -0.123760 -0.374059
0.413285 -0.104745 -0.383224
0.462364 -0.157494 -0.357077
0.437353 -0.145497 -0.404867
0.437073 -0.118311 -0.388157
0.414302 -0.103183 -0.425874
0.479398 -0.147263 -0.342502
0.436622 -0.146302 -0.457097
0.451905 -0.109900 -0.383110
0.437625 -0.090805 -0.392327
0.486306 -0.143783 -0.365898
0.462021 -0.131370 -0.413956
0.448634 -0.111272 -0.444835
0.439288 -0.088874 -0.434943
0.503116 -0.133680 -0.350979
0.474405 -0.124278 -0.418314
0.486231 -0.090577 -0.353318
0.472366 -0.071887 -0.362592
0.517345 -0.125293 -0.345439
0.486822 -0.117167 -0.422548
0.495730 -0.085053 -0.366931
0.474384 -0.069754 -0.405061
0.526959 -0.120025 -0.358978
0.496951 -0.111443 -0.436281
0.510109 -0.076902 -0.361199
0.496385 -0.058132 -0.370519
0.534572 -0.116142 -0.382090
0.511750 -0.102891 -0.430639
0.519812 -0.071261 -0.374618
0.499045 -0.055630 -0.412933
0.574058 -0.090433 -0.260135
0.532952 -0.090440 -0.395812
0.534102 -0.063162 -0.368597
0.520520 -0.044311 -0.377962
0.579183 -0.088213 -0.292546
0.545196 -0.083428 -0.399457
0.544008 -0.057405 -0.381819
0.530427 -0.038392 -0.391203
0.574990 -0.092519 -0.373531
0.547336 -0.082589 -0.451547
0.566441 -0.044977 -0.336616
0.544764 -0.030427 -0.384918
0.583299 -0.088237 -0.396332
0.569766 -0.069358 -0.406375
0.566323 -0.044542 -0.398277
0.548707 -0.027190 -0.427182
0.595545 -0.081224 -0.399585
0.572693 -0.068067 -0.458418
0.590053 -0.031455 -0.342889
0.575051 -0.013815 -0.362101
0.607817 -0.074197 -0.402715
0.594436 -0.055230 -0.412798
0.585357 -0.033391 -0.433884
0.573693 -0.012882 -0.433555
0.633401 -0.057640 -0.327410
0.605076 -0.049214 -0.425614
0.613758 -0.017880 -0.348686
0.600880 0.000731 -0.358172
0.637189 -0.056662 -0.379186
0.624171 -0.037970 -0.389299
0.623953 -0.011958 -0.361222
0.604045 0.003766 -0.409981
0.653842 -0.046411 -0.352425
0.625285 -0.037873 -0.460800
0.637546 -0.004258 -0.354005
0.618077 0.011557 -0.402847
0.671507 -0.035342 -0.315610
0.650082 -0.023054 -0.384788
0.647930 0.001772 -0.366333
0.628762 0.017920 -0.415250
0.685867 -0.026642 -0.298261
0.666539 -0.013398 -0.357686
0.661412 0.009409 -0.358845
0.642684 0.025648 -0.407837
0.692211 -0.023962 -0.339947
0.674414 -0.009121 -0.389597
0.665027 0.011980 -0.420348
0.653555 0.032117 -0.420022
0.701598 -0.019063 -0.361863
0.680186 -0.006202 -0.441237
0.680083 0.020435 -0.402766
0.667362 0.039780 -0.412332
0.719277 -0.007749 -0.314448
0.698814 0.004852 -0.393915
0.696098 0.029355 -0.375106
0.678416 0.046354 -0.424294
0.729834 -0.001942 -0.326233
0.705368 0.008218 -0.445435
0.709345 0.036857 -0.367082
0.692105 0.053948 -0.416330
0.735609 -0.000064 -0.387515
0.723277 0.018860 -0.397742
0.720274 0.043199 -0.378765
0.703338 0.060625 -0.428065
0.753268 0.011478 -0.329659
0.731594 0.023313 -0.439194
0.733398 0.050630 -0.370476
0.721244 0.069656 -0.380094
0.763326 0.016760 -0.351073
0.746885 0.032301 -0.411018
0.744502 0.057073 -0.381937
0.728314 0.074927 -0.431335
0.776751 0.024924 -0.332614
0.759237 0.039374 -0.412509
0.757498 0.064431 -0.373386
0.745490 0.083540 -0.383021
0.787132 0.030392 -0.353826
0.772357 0.046964 -0.403918
0.764827 0.069129 -0.434430
0.753336 0.089255 -0.434102
0.800275 0.038394 -0.335096
0.781924 0.052133 -0.445016
0.781639 0.078255 -0.375810
0.768994 0.097243 -0.395428
0.812050 0.045137 -0.336159
0.796960 0.061052 -0.406264
0.793084 0.084892 -0.386816
0.778395 0.103604 -0.436365
0.821985 0.049873 -0.377011
0.806617 0.066195 -0.457145
0.805813 0.092097 -0.377749
0.794098 0.111374 -0.387411
0.834850 0.057716 -0.357895
0.822962 0.076173 -0.378164
0.819373 0.099610 -0.348578
0.805155 0.118194 -0.408171
0.847417 0.065389 -0.338639
0.834302 0.082512 -0.398867
0.831660 0.106563 -0.339240
0.817964 0.125284 -0.398861
0.858512 0.071027 -0.369199
0.845036 0.088271 -0.449440
0.841785 0.112778 -0.389739
0.828598 0.132351 -0.439378
0.871022 0.078904 -0.339698
0.858361 0.096133 -0.419958
0.854232 0.119821 -0.380167
0.842480 0.139321 -0.399838
0.882662 0.085093 -0.360041
0.870776 0.103242 -0.420328
0.865238 0.126624 -0.440457
0.853727 0.146739 -0.440127
0.894687 0.093884 -0.280301
0.883504 0.110839 -0.380577
0.878461 0.133695 -0.380645
0.867186 0.153223 -0.390325
0.906856 0.097993 -0.400384
0.895613 0.117463 -0.420694
0.890378 0.141020 -0.440700
0.879375 0.160203 -0.390382
0.918261 0.105953 -0.340393
0.908033 0.124575 -0.420689
0.902694 0.147570 -0.380636
0.891538 0.167412 -0.400313
0.929853 0.112829 -0.330273
0.920302 0.131677 -0.410560
0.915519 0.155415 -0.440438
0.903949 0.175251 -0.430112
0.941292 0.119616 -0.320037
0.931967 0.138588 -0.380316
0.926147 0.160665 -0.340155
0.915941 0.181140 -0.389816
0.953318 0.126264 -0.329674
0.944983 0.145809 -0.409931
0.939304 0.168616 -0.389703
0.929126 0.189911 -0.439340
0.964601 0.132962 -0.319208
0.957696 0.153011 -0.419422
0.949760 0.174185 -0.339196
0.940306 0.195090 -0.388827
0.976771 0.139693 -0.328604
0.969651 0.159933 -0.408805
0.963665 0.182564 -0.388468
0.954239 0.204290 -0.438068
0.987893 0.146299 -0.317910
0.982506 0.167216 -0.418039
0.975341 0.189166 -0.377686
0.965079 0.209519 -0.397326
1.002223 0.153551 -0.356990
0.994903 0.174314 -0.417161
0.990864 0.198555 -0.436619
0.980837 0.220252 -0.466209
1.011163 0.159622 -0.316144
1.007292 0.181407 -0.416158
0.999514 0.203006 -0.375729
0.989550 0.223530 -0.395345
1.027731 0.167679 -0.374865
1.021937 0.189561 -0.444926
1.012312 0.210417 -0.384530
1.004388 0.233003 -0.434008
1.034402 0.172928 -0.313910
1.034535 0.196774 -0.443651
1.023655 0.216828 -0.373286
1.013987 0.237522 -0.392872
1.045033 0.179253 -0.302671
1.047124 0.203981 -0.442249
1.036584 0.224314 -0.381827
1.028604 0.246624 -0.421280
1.060754 0.187301 -0.341023
1.063624 0.213119 -0.480482
1.047755 0.230626 -0.370358
1.037504 0.250742 -0.379975
1.071439 0.193657 -0.329540
1.069098 0.216794 -0.409277
1.060811 0.238185 -0.378637
1.054383 0.261628 -0.427934
1.085563 0.201267 -0.347712
1.089343 0.227844 -0.476964
1.071806 0.244397 -0.366946
1.062731 0.265430 -0.386454
1.084668 0.203137 -0.246847
1.092531 0.230288 -0.395747
1.084987 0.252027 -0.374961
1.082619 0.278527 -0.453844
1.111971 0.215910 -0.363773
1.115005 0.242537 -0.472930
1.095803 0.258136 -0.363051
1.090563 0.282097 -0.412174
1.128228 0.224503 -0.391348
1.122387 0.247072 -0.431188
1.109102 0.265834 -0.370798
1.107928 0.293018 -0.449476
1.137416 0.230240 -0.369384
1.140602 0.257192 -0.468380
1.125333 0.275377 -0.398122
1.115240 0.296226 -0.407660
1.157313 0.240441 -0.416326
1.147351 0.261365 -0.426493
1.140520 0.284239 -0.415388
1.133168 0.307468 -0.444599
1.153196 0.240465 -0.315429
1.155064 0.266013 -0.394440
1.151342 0.290351 -0.402974
1.139845 0.310313 -0.402652
1.176876 0.252356 -0.381697
1.172239 0.275614 -0.421298
1.165240 0.298392 -0.410099
1.158329 0.321873 -0.439216
1.190789 0.260082 -0.388784
1.198486 0.290022 -0.496969
1.167388 0.299120 -0.348479
1.164370 0.324354 -0.397149
1.206701 0.268716 -0.405502
1.204259 0.293636 -0.454761
1.189876 0.312496 -0.404314
1.183406 0.336230 -0.433327
1.215101 0.274002 -0.382947
1.224435 0.304878 -0.490739
1.198470 0.317249 -0.381712
1.197685 0.344649 -0.439954
1.215102 0.275431 -0.321342
1.213957 0.299807 -0.370399
1.212502 0.325366 -0.388291
1.208389 0.350533 -0.426935
1.222569 0.280182 -0.298775
1.234084 0.311021 -0.406126
1.222672 0.331104 -0.375264
1.213153 0.352282 -0.384668
1.255731 0.296786 -0.392699
1.254776 0.322558 -0.441569
1.245065 0.344343 -0.420368
1.241258 0.370328 -0.458841
1.263443 0.301677 -0.369812
1.276029 0.334416 -0.476720
1.246772 0.344901 -0.368331
1.237395 0.366161 -0.377694
1.273150 0.307472 -0.356557
1.279877 0.336928 -0.434214
1.269845 0.358529 -0.412973
1.258047 0.378962 -0.412649
1.287458 0.315425 -0.362517
1.301659 0.349089 -0.468934
1.279906 0.364205 -0.399454
1.279256 0.392082 -0.447299
1.296962 0.321105 -0.349067
1.304863 0.351232 -0.426354
1.294509 0.372649 -0.405082
1.275840 0.388414 -0.375930
1.316425 0.331532 -0.373935
1.327168 0.363692 -0.460634
1.304364 0.378207 -0.391364
1.294990 0.400111 -0.400628
1.328475 0.338431 -0.369817
1.329726 0.365465 -0.417994
1.319050 0.386698 -0.396696
1.307242 0.407125 -0.396374
1.340494 0.345311 -0.365579
1.355156 0.379638 -0.461372
1.339000 0.398370 -0.420926
1.331993 0.422517 -0.439668
1.352480 0.352173 -0.361219
1.354458 0.379624 -0.409135
1.356701 0.408671 -0.435364
1.339383 0.426259 -0.416020
1.375723 0.364527 -0.394715
1.380542 0.394170 -0.451998
1.363774 0.412552 -0.411640
1.357051 0.436862 -0.430276
1.376351 0.365838 -0.352139
1.390355 0.399865 -0.437652
1.381692 0.422977 -0.425719
1.366803 0.442200 -0.415939
1.400098 0.378480 -0.385171
1.405782 0.408619 -0.442115
1.388404 0.426652 -0.401858
1.367994 0.441904 -0.373266
1.412230 0.385426 -0.380215
1.403503 0.407700 -0.389931
1.403597 0.435433 -0.406177
1.391496 0.456336 -0.405854
1.418108 0.389266 -0.356380
1.430869 0.422980 -0.431726
1.400859 0.433447 -0.354120
1.403784 0.463370 -0.400625
1.436380 0.399250 -0.369939
1.443352 0.430126 -0.426342
1.431215 0.451326 -0.404928
1.428058 0.478244 -0.432603
1.432146 0.398016 -0.318035
1.452613 0.435505 -0.411515
1.437201 0.454585 -0.380815
1.428239 0.477369 -0.389797
1.453730 0.409658 -0.340609
1.468194 0.444347 -0.415200
1.465385 0.471138 -0.421600
1.452994 0.492519 -0.421274
1.465523 0.416409 -0.335114
1.490517 0.456894 -0.437204
1.461352 0.468411 -0.369561
1.465397 0.499618 -0.415422
1.491116 0.430107 -0.366375
1.492864 0.458469 -0.403560
1.480078 0.479298 -0.382159
1.464605 0.498187 -0.372639
1.496042 0.433403 -0.342138
1.515517 0.471205 -0.425114
1.512746 0.498501 -0.431175
1.503494 0.522406 -0.440014
1.522244 0.447450 -0.372819
1.531478 0.480265 -0.428032
1.528718 0.507727 -0.433978
1.502332 0.520761 -0.397121
1.541616 0.458063 -0.384868
1.554730 0.493344 -0.448987
1.537649 0.512756 -0.418388
1.528531 0.536737 -0.427158
1.550003 0.463102 -0.369418
1.571009 0.502585 -0.451440
1.557295 0.524170 -0.429930
1.526720 0.534721 -0.384304
1.565817 0.471917 -0.372002
1.579899 0.507751 -0.435606
1.562355 0.526898 -0.405103
1.553369 0.550955 -0.413802
1.589468 0.484741 -0.392397
1.596212 0.517012 -0.437732
1.578402 0.536168 -0.407260
1.587916 0.572198 -0.460843
1.589820 0.485656 -0.358651
1.604861 0.522039 -0.421721
1.602211 0.550047 -0.427113
1.593076 0.574662 -0.435731
1.613776 0.498655 -0.378574
1.621204 0.531317 -0.423519
1.599027 0.547890 -0.384248
1.613255 0.586703 -0.446274
1.589149 0.486699 -0.291498
1.633619 0.538423 -0.416225
1.627039 0.564259 -0.412524
1.618034 0.588949 -0.421066
1.637871 0.512447 -0.364264
1.645977 0.545497 -0.408807
1.659573 0.583301 -0.449182
1.650282 0.608631 -0.457676
1.645624 0.517123 -0.348122
1.670709 0.559423 -0.427685
1.651643 0.578342 -0.397439
1.658916 0.613328 -0.441040
1.674581 0.532746 -0.375762
1.670523 0.559547 -0.393598
1.688900 0.600172 -0.442178
1.675564 0.623102 -0.441847
1.647529 0.519402 -0.289566
1.704090 0.578376 -0.429425
1.692973 0.602335 -0.416668
1.683944 0.627654 -0.425042
1.654518 0.523640 -0.273451
1.690494 0.571055 -0.369217
1.709638 0.611958 -0.417181
1.700602 0.637434 -0.425512
1.710557 0.553338 -0.352292
1.755386 0.607275 -0.464867
1.717630 0.616448 -0.400254
1.708727 0.641840 -0.408544
1.713346 0.555410 -0.327047
1.736798 0.597174 -0.396080
1.752044 0.636566 -0.434710
1.725390 0.651622 -0.408676
1.761877 0.581286 -0.387319
1.785303 0.624322 -0.456004
1.760037 0.641057 -0.417444
1.746548 0.664222 -0.417117
1.755329 0.578489 -0.344745
1.779548 0.621335 -0.413056
1.776965 0.650830 -0.417101
1.749918 0.665661 -0.391344
1.795553 0.600086 -0.386956
1.829210 0.649146 -0.471815
1.803212 0.666105 -0.433405
1.793996 0.692604 -0.441506
1.798086 0.602011 -0.361231
1.756834 0.609103 -0.311081
1.801616 0.664939 -0.398993
1.792671 0.691111 -0.407054
1.775986 0.591025 -0.293778
1.811537 0.639722 -0.377675
1.809081 0.669127 -0.381418
1.814326 0.703995 -0.414439
1.861296 0.636288 -0.409724
1.833312 0.652031 -0.385096
1.845265 0.690258 -0.413546
1.855156 0.728834 -0.454654
1.863621 0.638094 -0.383632
1.894626 0.686356 -0.458313
1.852713 0.694437 -0.395627
1.838928 0.718076 -0.395305
1.885826 0.650328 -0.390467
1.912276 0.696382 -0.456489
1.889627 0.715985 -0.426821
1.875488 0.740226 -0.426493
1.918431 0.668039 -0.413305
1.940062 0.712054 -0.470767
1.897050 0.720149 -0.408554
1.887915 0.747338 -0.416367
1.941106 0.680541 -0.419392
1.957928 0.722203 -0.468386
1.934677 0.742105 -0.438793
1.945236 0.782350 -0.478894
1.953478 0.687622 -0.409028
1.965503 0.726615 -0.449650
1.921553 0.734173 -0.388028
1.912535 0.761429 -0.395742
1.971067 0.697451 -0.406549
1.983331 0.736742 -0.446911
1.985577 0.771658 -0.457423
1.970795 0.796978 -0.457088
1.951199 0.687505 -0.348148
2.017063 0.755741 -0.467814
1.987736 0.772725 -0.430463
1.978271 0.801012 -0.438064
2.000950 0.714316 -0.393003
2.008404 0.751091 -0.424928
2.032044 0.798589 -0.466614
2.016975 0.824388 -0.466277
2.035026 0.732869 -0.413438
2.064081 0.782343 -0.476557
2.012557 0.786930 -0.408105
2.024400 0.828392 -0.446891
2.058421 0.745783 -0.417727
2.033140 0.765248 -0.402445
2.057406 0.813103 -0.443354
2.058404 0.848834 -0.466325
2.065181 0.749889 -0.398452
2.111696 0.809288 -0.483918
2.058981 0.813836 -0.416106
2.049462 0.842735 -0.423492
2.088696 0.762872 -0.402218
2.102211 0.804165 -0.440957
2.099045 0.837186 -0.442563
2.094704 0.870098 -0.457544
2.118066 0.778968 -0.413266
2.154239 0.833405 -0.482247
2.105983 0.841073 -0.422721
2.112889 0.880751 -0.452794
2.159228 0.801338 -0.438995
2.127176 0.818452 -0.416590
2.124033 0.851486 -0.417957
2.119917 0.884527 -0.432716
2.154263 0.799208 -0.403911
2.179822 0.848046 -0.456832
2.153536 0.868624 -0.427929
2.166258 0.912519 -0.465028
2.201804 0.824992 -0.436160
2.198282 0.858534 -0.451391
2.194829 0.892677 -0.452286
2.178965 0.919791 -0.451951
2.184600 0.816332 -0.386203
2.228498 0.875596 -0.460506
2.230756 0.913575 -0.468561
2.214608 0.941170 -0.468223
2.142760 0.794523 -0.307353
2.199686 0.859642 -0.395733
2.249373 0.924314 -0.462302
2.238966 0.955600 -0.469276
2.251075 0.852713 -0.411451
2.277667 0.903429 -0.462730
2.250178 0.924605 -0.434043
2.234095 0.952076 -0.433712
2.281690 0.869521 -0.419653
2.272244 0.900554 -0.427186
2.292621 0.949316 -0.456234
2.288032 0.984660 -0.470278
2.287892 0.873307 -0.398732
2.302936 0.917889 -0.434842
2.299209 0.953001 -0.434912
2.312731 0.999285 -0.470224
2.331161 0.896882 -0.420397
2.346137 0.942229 -0.456205
2.348300 0.981601 -0.463066
2.325472 1.006576 -0.455662
2.374860 0.920704 -0.441323
2.389765 0.966814 -0.476827
2.354831 0.985254 -0.441305
2.338103 1.013804 -0.440972
2.400022 0.934628 -0.440580
2.371296 0.956626 -0.426944
2.392187 1.006969 -0.454262
2.356760 1.024725 -0.433099
2.412537 0.941790 -0.425639
2.402622 0.974323 -0.432863
2.398544 1.010522 -0.432184
2.406362 1.054583 -0.459372
2.424939 0.948886 -0.410572
2.370583 0.956522 -0.369785
2.417308 1.021343 -0.423743
2.412775 1.058007 -0.437046
2.450179 0.962855 -0.408949
2.485092 1.020830 -0.463542
2.474244 1.054517 -0.455568
2.463024 1.088234 -0.461984
2.508144 0.994365 -0.440546
2.523615 1.042569 -0.474466
2.486869 1.061741 -0.439544
2.482043 1.099362 -0.452586
2.454876 0.966252 -0.357976
2.510342 1.035277 -0.431494
2.551098 1.099173 -0.476382
2.481854 1.098762 -0.423064
2.533045 1.008613 -0.408381
2.549025 1.057108 -0.441644
2.544331 1.095045 -0.439908
2.565126 1.149115 -0.478915
2.605412 1.047891 -0.450827
2.587981 1.079095 -0.451143
2.576530 1.113724 -0.442653
2.538959 1.132666 -0.422848
2.631452 1.062317 -0.446753
2.627205 1.101234 -0.459986
2.622123 1.140237 -0.457724
2.610222 1.175655 -0.463812
2.601448 1.127981 -0.408418
2.583354 1.158806 -0.408091
2.674103 1.170319 -0.447728
2.662011 1.206270 -0.453683
2.706934 1.189359 -0.448356
2.721422 1.241986 -0.479127
2.733105 1.204503 -0.442293
2.747684 1.257503 -0.472722
2.759322 1.219673 -0.435828
2.787549 1.281296 -0.478081
2.820064 1.255023 -0.459038
2.813984 1.296913 -0.470729
2.846587 1.270368 -0.451416
2.812968 1.295839 -0.439191
1.084532 0.240543 1.060629
2.901087 1.302062 -0.466887
1.082622 0.243793 1.060661
2.860037 1.323999 -0.448926
1.108131 0.254300 1.047268
1.063984 0.232391 1.081693
1.073836 0.234252 1.077725
1.086161 0.245817 1.066434
1.096383 0.247408 1.062762
1.073132 0.237870 1.079557
1.054345 0.222845 1.097893
1.059920 0.229819 1.092402
1.069747 0.231827 1.088612
1.089567 0.247766 1.072311
1.070729 0.232389 1.090374
1.054602 0.226530 1.101138
1.071699 0.232944 1.092145
1.077254 0.240229 1.086876
1.092839 0.249637 1.078289
1.066193 0.229708 1.100865
1.079232 0.241360 1.090596
1.050710 0.224056 1.112756