# This PCD file was generated using the MATLAB® pcwrite function
# from Computer Vision System Toolbox®.
# .PCD v.7 - Point Cloud Data file format
VERSION .7
FIELDS x y z
SIZE 4 4 4
TYPE F F F
COUNT 1 1 1
WIDTH 773
HEIGHT 1
VIEWPOINT 0 0 0 1 0 0 0
POINTS 773
DATA ascii
21.683973 21.036396 6.761557
20.914700 20.806154 6.501553
24.370140 24.824310 1.269306
23.597385 24.757847 1.232237
24.044670 24.369389 1.281715
23.302563 24.337368 1.210499
23.750206 23.958088 1.253613
23.029209 23.948301 1.160872
23.448492 23.536560 1.245993
22.720484 23.507250 1.180262
23.156338 23.128479 1.231234
22.433247 23.097639 1.171564
22.894093 22.762497 1.173637
22.159098 22.707167 1.148039
22.587835 22.334518 1.199980
21.870338 22.295130 1.159338
22.307329 21.942785 1.190229
21.621763 21.942097 1.104832
22.067932 21.608948 1.114298
21.381567 21.601343 1.041058
21.809219 21.247894 1.079823
21.096287 21.194153 1.070627
21.535711 20.865974 1.080317
20.857733 20.855688 1.017666
21.278946 20.507629 1.057127
20.619825 20.518129 0.969721
21.023130 20.150614 1.039415
20.367834 20.159739 0.956888
20.783525 19.816435 0.997025
20.116865 19.802769 0.949480
20.544636 19.483255 0.959591
19.881409 19.468626 0.916880
20.291586 19.130087 0.957680
19.618137 19.093296 0.950796
20.039629 18.778444 0.961128
19.412867 18.803646 0.866385
19.817993 18.469561 0.907839
19.179844 18.472897 0.848440
19.596884 18.161415 0.858965
18.920055 18.102413 0.898245
19.333506 17.793592 0.908880
18.716455 17.815098 0.827013
19.128136 17.507643 0.837742
18.486151 17.488134 0.823481
18.898640 17.187616 0.826334
18.270151 17.182322 0.792593
18.680374 16.883436 0.795494
18.058111 16.882334 0.757936
18.449156 16.560942 0.801262
17.853188 16.592876 0.711203
18.259340 16.296938 0.714184
17.626274 16.270634 0.725668
18.029709 15.976653 0.728697
18.318268 15.525584 0.738245
18.722391 15.235410 0.736290
17.413115 15.968781 0.711857
17.811005 15.671798 0.723160
18.090933 15.214074 0.751442
18.471546 14.899111 0.798941
17.200735 15.668012 0.702259
17.596403 15.372724 0.713655
17.901283 14.953184 0.677809
18.284231 14.643935 0.717264
17.004572 15.391377 0.655218
17.385803 15.079292 0.700006
17.685467 14.657207 0.674376
18.069765 14.354216 0.705673
16.781450 15.074412 0.687218
17.169641 14.777974 0.707176
17.457512 14.344995 0.708685
17.839268 14.044207 0.740116
16.592499 14.808447 0.631113
16.982422 14.517602 0.642775
17.269201 14.085977 0.646156
17.636503 13.769562 0.711510
16.371332 14.494196 0.671600
16.761650 14.209719 0.674891
17.068457 13.810318 0.620943
17.450649 13.516433 0.644176
16.174704 14.216607 0.648441
16.572290 13.946300 0.626228
16.855822 13.518769 0.633589
17.245565 13.238965 0.631304
15.990128 13.957054 0.594740
16.377291 13.674884 0.598106
16.644131 13.228534 0.650286
17.034796 12.954392 0.639368
15.797338 13.685126 0.570169
16.191620 13.416681 0.547758
16.457636 12.972052 0.601995
16.843750 12.694853 0.599617
15.602310 13.409770 0.557821
15.983084 13.126051 0.569912
16.247557 12.684060 0.626362
16.646887 12.428026 0.580589
15.418871 13.151809 0.514343
15.795492 12.865102 0.535206
16.064951 12.432833 0.576275
16.435339 12.142772 0.608660
15.214226 12.861809 0.544018
15.602697 12.596764 0.521334
15.865215 12.158747 0.581907
16.245882 11.885450 0.579399
15.042381 12.621247 0.472319
15.418787 12.341019 0.484644
15.694777 11.923808 0.503229
16.062790 11.636183 0.535877
14.849728 12.349201 0.474073
15.235231 12.085772 0.451204
15.496206 11.651345 0.515764
15.877056 11.383645 0.504345
14.657810 12.078179 0.479389
15.033369 11.804505 0.483013
15.315031 11.402121 0.478653
15.680222 11.117263 0.511547
14.476690 11.823455 0.452650
14.858774 11.561964 0.429611
15.120600 11.135259 0.489267
15.492636 10.862551 0.495522
14.295986 11.569309 0.429115
14.655960 11.279295 0.477499
14.937635 10.883707 0.467552
15.311127 10.615500 0.464853
14.115715 11.315768 0.408764
14.477102 11.030670 0.448402
14.755112 10.632775 0.449017
15.116297 10.351909 0.482260
13.926405 11.048377 0.427645
14.306067 10.793168 0.395344
14.573051 10.382488 0.433638
14.943810 10.116216 0.430866
13.756548 10.810606 0.377569
14.125372 10.541913 0.381359
14.391474 10.132872 0.421408
14.760862 9.867567 0.418602
13.586809 10.573005 0.330336
13.952348 10.301572 0.343245
14.210394 9.883952 0.412308
14.578415 9.619614 0.409464
13.399337 10.308171 0.358940
13.765469 10.041473 0.362795
14.029833 9.635755 0.406322
14.386286 9.359781 0.440008
13.230259 10.071494 0.317657
13.593198 9.802187 0.330702
13.859367 9.400975 0.366722
14.215088 9.125896 0.400518
13.052788 9.821860 0.315971
13.414429 9.553617 0.329082
13.689081 9.166447 0.329924
14.053894 8.904345 0.326988
12.886343 9.589174 0.271221
13.247253 9.321589 0.284391
13.509803 8.920040 0.332918
13.873246 8.658902 0.329941
12.709776 9.340800 0.275515
13.078026 9.086626 0.251694
13.340107 8.686340 0.301842
13.702631 8.425838 0.298840
12.533804 9.093256 0.282852
12.892120 8.827800 0.296152
13.161833 8.441332 0.310795
13.513731 8.170499 0.344994
12.366247 8.858710 0.255919
12.723721 8.593995 0.269276
12.992794 8.208551 0.285397
13.355295 7.952405 0.272987
12.197038 8.621542 0.241108
12.563637 8.372095 0.207729
12.824013 7.976132 0.262751
13.183327 7.717862 0.259659
12.031897 8.390684 0.210340
12.387686 8.127453 0.223806
12.655504 7.744092 0.242859
13.016068 7.489083 0.230337
11.865131 8.157249 0.191673
12.220079 7.894760 0.205194
12.487283 7.512457 0.225704
12.844756 7.255454 0.222555
11.693385 7.915913 0.204079
12.050895 7.659789 0.198765
12.319364 7.281246 0.211271
12.684213 7.034842 0.170259
11.532500 7.691633 0.162535
11.885765 7.430630 0.176167
12.144112 7.040448 0.237520
12.499293 6.785040 0.234312
11.360016 7.448949 0.190054
11.711987 7.189014 0.203739
11.993816 6.832376 0.142971
12.341183 6.567427 0.177811
11.209234 7.240682 0.096615
11.561385 6.980759 0.110338
11.826653 6.602222 0.136530
12.179078 6.345047 0.142828
11.043848 7.009176 0.091393
11.395160 6.749999 0.105165
11.659851 6.372574 0.132774
12.020801 6.127212 0.091236
10.865191 6.756277 0.175076
11.221157 6.507988 0.150583
11.493425 6.143453 0.131699
11.845937 5.889831 0.128401
10.706863 6.535899 0.137014
11.062249 6.287759 0.112467
11.332397 5.921385 0.104433
11.686106 5.670235 0.091497
10.542873 6.306339 0.139933
10.892632 6.052022 0.144228
11.161764 5.686868 0.137527
11.517628 5.440566 0.105259
10.390242 6.095198 0.068285
10.745945 5.849504 0.033976
11.009117 5.475709 0.067093
11.359765 5.223322 0.063738
10.233292 5.877075 0.027937
10.581316 5.620976 0.041929
10.843950 5.248345 0.076431
11.193675 4.996589 0.073048
10.068671 5.646320 0.048174
10.415745 5.391049 0.062212
10.690998 5.036774 0.010725
11.034369 4.777736 0.046156
9.916801 5.436586 -0.026096
10.264057 5.181330 -0.012030
10.524922 4.808302 0.034859
10.873593 4.557231 0.031441
9.753977 5.208661 -0.010492
10.100395 4.954154 0.003616
10.362166 4.584148 0.042133
10.714479 4.338654 0.009455
9.590515 4.979522 0.017466
9.942150 4.734872 -0.017170
10.209051 4.372365 -0.016409
10.556890 4.121814 -0.019855
9.428720 4.753031 0.038275
9.779268 4.508784 0.003586
10.049282 4.152075 -0.023741
10.397923 3.903445 -0.036989
9.276615 4.542990 -0.026480
9.624830 4.295078 -0.041651
9.892173 3.935192 -0.048218
10.239070 3.685243 -0.051695
9.118315 4.322354 -0.030127
9.466966 4.076337 -0.055124
9.738607 3.722799 -0.099762
10.080347 3.467224 -0.063978
8.957490 4.097219 -0.001841
9.305104 3.851674 -0.026871
9.575813 3.498754 -0.070332
9.926702 3.254725 -0.113178
8.801564 3.880553 -0.020229
9.144776 3.629237 -0.005917
9.413576 3.275485 -0.038364
9.762156 3.030546 -0.071444
8.648156 3.668390 -0.065813
8.991439 3.417171 -0.051479
9.260073 3.063190 -0.082800
9.605082 2.814442 -0.086336
8.494518 3.455913 -0.109110
8.837873 3.204792 -0.094755
9.102467 2.845780 -0.085428
9.442672 2.592849 -0.049467
8.340663 3.243140 -0.150118
8.684089 2.992117 -0.135744
8.948730 2.633173 -0.125233
9.289117 2.380493 -0.089226
8.186602 3.030086 -0.188833
8.530099 2.779162 -0.174442
8.791319 2.416042 -0.123123
9.131435 2.163941 -0.087080
8.029263 2.810812 -0.175703
8.372264 2.560394 -0.161287
8.637397 2.203187 -0.158295
8.977695 1.951338 -0.122211
7.873380 2.594233 -0.180008
8.216113 2.344159 -0.165569
8.480230 1.986403 -0.151464
8.813218 1.728408 -0.035942
7.718662 2.379946 -0.201811
8.064497 2.134900 -0.237020
8.326171 1.773368 -0.182009
8.659747 1.516187 -0.066368
7.561100 2.159700 -0.161654
7.905381 1.914073 -0.186943
8.171959 1.560125 -0.210253
8.503790 1.301659 -0.064672
7.410309 1.953898 -0.268318
7.752729 1.703291 -0.243889
8.017607 1.346694 -0.236204
8.349452 1.088624 -0.080545
7.253852 1.735866 -0.243364
7.596306 1.486596 -0.228868
7.858616 1.127957 -0.180147
8.193058 0.873878 -0.064228
7.099341 1.522221 -0.265862
7.442291 1.273738 -0.261318
7.708528 0.919324 -0.281202
8.041962 0.663451 -0.125313
6.944719 1.308426 -0.286053
7.287316 1.059355 -0.271536
7.550130 0.701417 -0.220436
7.885754 0.448972 -0.104364
6.789368 1.092613 -0.274010
7.132666 0.845527 -0.289419
7.395741 0.487951 -0.237133
7.731956 0.236324 -0.120996
6.635188 0.880454 -0.319530
6.977929 0.631582 -0.304996
7.241270 0.274378 -0.251530
7.579968 0.024678 -0.175278
6.479979 0.664847 -0.302847
6.823115 0.417536 -0.318272
7.085804 0.059846 -0.233654
7.424129 -0.189279 -0.147390
6.325183 0.450829 -0.313810
6.668238 0.203407 -0.329239
6.932131 -0.153030 -0.273426
7.270123 -0.402202 -0.157146
6.170307 0.235013 -0.272497
6.512476 -0.012642 -0.267929
6.776661 -0.367420 -0.240931
7.116070 -0.615184 -0.164612
6.015309 0.023434 -0.358805
6.358676 -0.224072 -0.394243
6.622342 -0.580906 -0.256111
6.961984 -0.828210 -0.169783
5.860239 -0.190950 -0.362854
6.203355 -0.439202 -0.358301
6.467690 -0.794571 -0.248995
6.808743 -1.041566 -0.212646
5.705151 -0.405353 -0.364594
6.048185 -0.653419 -0.390036
6.313234 -1.008236 -0.259579
6.653754 -1.254326 -0.173239
5.549063 -0.619442 -0.414013
5.892530 -0.868100 -0.439466
6.158674 -1.221765 -0.247862
6.500094 -1.468253 -0.211512
5.393971 -0.834180 -0.401133
5.737056 -1.083028 -0.436579
6.003982 -1.436163 -0.283834
6.345783 -1.681571 -0.207500
5.235989 -1.049525 -0.485895
5.581600 -1.297927 -0.431379
5.849307 -1.649980 -0.277506
6.191547 -1.896287 -0.241163
5.080287 -1.264760 -0.478365
5.425457 -1.513470 -0.453846
5.694668 -1.863743 -0.268875
6.036938 -2.111514 -0.272505
4.924628 -1.479931 -0.468519
5.271373 -1.726966 -0.394053
5.539266 -2.079108 -0.297901
5.885640 -2.306735 0.107948
4.769023 -1.695023 -0.456354
5.116488 -1.941163 -0.371931
5.384785 -2.292507 -0.274666
5.727774 -2.538869 -0.248339
4.611462 -1.911461 -0.481798
4.960593 -2.156451 -0.377455
5.230172 -2.506221 -0.259117
5.573293 -2.752400 -0.232801
4.451900 -2.129644 -0.534807
4.803685 -2.372934 -0.400602
5.072439 -2.725485 -0.331032
5.416955 -2.971505 -0.294743
4.295968 -2.345175 -0.515627
4.647942 -2.588104 -0.391479
4.917546 -2.939577 -0.310822
5.262244 -3.185345 -0.274557
4.140138 -2.560561 -0.494131
4.491107 -2.804577 -0.399960
4.760928 -3.156601 -0.328148
5.106263 -3.402442 -0.291901
3.978035 -2.781566 -0.559898
4.333484 -3.022037 -0.416040
4.604022 -3.374020 -0.343103
4.951575 -3.616242 -0.267080
3.819705 -2.999383 -0.563524
4.175578 -3.239882 -0.429739
4.446840 -3.591815 -0.355684
4.795232 -3.833830 -0.279718
3.660397 -3.218210 -0.574705
4.020196 -3.454634 -0.401304
4.287562 -3.812916 -0.395678
4.636636 -4.056034 -0.329704
3.504280 -3.433974 -0.543783
3.861218 -3.673852 -0.420193
4.132358 -4.027417 -0.363762
4.479574 -4.274606 -0.337538
3.344674 -3.653203 -0.550198
3.699494 -3.896561 -0.466415
3.973760 -4.247293 -0.379093
4.322273 -4.493505 -0.342981
3.184836 -3.872748 -0.554197
3.541384 -4.114770 -0.460615
3.815597 -4.466427 -0.382099
4.164745 -4.712713 -0.346022
3.028836 -4.088338 -0.516212
3.384959 -4.330847 -0.432642
3.653967 -4.690900 -0.422247
4.004203 -4.937587 -0.386194
2.864516 -4.312715 -0.554937
3.218160 -4.560154 -0.511007
3.495187 -4.910877 -0.420372
3.846058 -5.157640 -0.384361
2.707404 -4.529493 -0.522068
3.062386 -4.775423 -0.468334
3.336218 -5.131110 -0.416077
3.688526 -5.376464 -0.370253
2.543420 -4.753735 -0.545948
2.898413 -5.001217 -0.502161
3.177074 -5.351582 -0.409349
3.529215 -5.598495 -0.373430
2.377750 -4.979964 -0.577133
2.734971 -5.226373 -0.523588
3.017767 -5.572274 -0.400192
3.366935 -5.825752 -0.403622
2.217854 -5.199901 -0.556648
2.574531 -5.447676 -0.513016
2.854048 -5.799611 -0.427837
3.207911 -6.047001 -0.392004
2.055283 -5.422853 -0.553341
2.412744 -5.670734 -0.509794
2.685329 -6.034406 -0.492075
3.040733 -6.282525 -0.456282
1.881549 -5.658521 -0.625816
2.243206 -5.903901 -0.562794
2.525009 -6.256484 -0.475363
2.881047 -6.504680 -0.439621
1.720965 -5.879395 -0.597832
2.080673 -6.127982 -0.554468
2.359716 -6.485981 -0.495216
2.716841 -6.734580 -0.459526
1.545714 -6.117151 -0.664879
1.915229 -6.355881 -0.563131
2.195193 -6.714274 -0.502707
2.553291 -6.963194 -0.467073
1.395253 -6.326393 -0.563730
1.757817 -6.573276 -0.510826
2.027656 -6.947001 -0.527035
2.386955 -7.196406 -0.491459
1.220456 -6.563850 -0.615723
1.586096 -6.809441 -0.553240
1.866376 -7.170387 -0.500189
2.221302 -7.428293 -0.503458
1.044802 -6.802486 -0.664881
1.416621 -7.042696 -0.573498
1.699382 -7.402218 -0.509550
2.055196 -7.660801 -0.512796
0.874967 -7.034429 -0.672537
1.241944 -7.282835 -0.620031
1.520237 -7.651939 -0.593468
1.877847 -7.911851 -0.596676
0.711561 -7.258836 -0.638943
1.074450 -7.513543 -0.615490
1.351984 -7.885499 -0.597290
1.699284 -8.164574 -0.677496
0.534023 -7.500061 -0.679764
0.903336 -7.749049 -0.627535
1.183321 -8.119620 -0.598408
1.525321 -8.409430 -0.716816
0.372007 -7.722875 -0.631346
0.733422 -7.982992 -0.627226
1.014266 -8.354280 -0.596813
1.344580 -8.665152 -0.791538
0.198924 -7.958949 -0.637859
0.563122 -8.217463 -0.624193
0.838188 -8.599192 -0.630714
1.162678 -8.922474 -0.863115
0.011996 -8.211782 -0.708378
0.385258 -8.461982 -0.656603
0.676738 -8.822640 -0.575899
0.979633 -9.181369 -0.931526
-0.160391 -8.447223 -0.699606
0.214035 -8.697719 -0.647984
0.492573 -9.079268 -0.642147
0.782308 -9.463002 -1.072752
-0.341152 -8.692876 -0.726023
0.036784 -8.941480 -0.665077
0.319943 -9.318984 -0.638859
0.535693 -9.823273 -1.475588
-0.522624 -8.939507 -0.749443
-0.152746 -9.201603 -0.736006
0.141334 -9.567374 -0.661083
0.361133 -10.067416 -1.457510
-0.704792 -9.187094 -0.769852
-0.325526 -9.439476 -0.718735
-0.053191 -9.838853 -0.755644
0.179125 -10.323352 -1.474255
-0.887638 -9.435612 -0.787220
-0.514922 -9.699504 -0.773899
-0.227691 -10.081139 -0.743410
0.011161 -10.556865 -1.412800
-1.053535 -9.663413 -0.726555
-0.669860 -9.913612 -0.666412
-0.430548 -10.364535 -0.859322
-0.173649 -10.817038 -1.432930
-1.246299 -9.924272 -0.775414
-0.862652 -10.178222 -0.724836
-0.622809 -10.632455 -0.915504
-0.355311 -11.072103 -1.431217
-1.430884 -10.175179 -0.783695
-1.052182 -10.438517 -0.761244
-0.837111 -10.932206 -1.061228
-0.533522 -11.321640 -1.407837
-1.606700 -10.415315 -0.751760
-1.229216 -10.682141 -0.738676
-1.032012 -11.203763 -1.110218
-0.691749 -11.539797 -1.288872
-1.801863 -10.679472 -0.790926
-1.411115 -10.932283 -0.731682
-1.223584 -11.470438 -1.137266
-0.843086 -11.747303 -1.139912
-1.985780 -10.929778 -0.780630
-1.607452 -11.201769 -0.776897
-1.418233 -11.741498 -1.170132
-1.033812 -12.016375 -1.163540
-2.182590 -11.196199 -0.813139
-1.800068 -11.466306 -0.800264
-1.613798 -12.013816 -1.199530
-1.229699 -12.293324 -1.202091
-2.380311 -11.463875 -0.842194
-1.995924 -11.735214 -0.829390
-1.807926 -12.284005 -1.216312
-1.415489 -12.554435 -1.191458
-2.571184 -11.723097 -0.840454
-2.200072 -12.015273 -0.882370
-1.998081 -12.548422 -1.211472
-1.610833 -12.830245 -1.213951
-2.781030 -12.006161 -0.898922
-2.410396 -12.303661 -0.949776
-2.196080 -12.824087 -1.230471
-1.807029 -13.107229 -1.232908
-2.970718 -12.264072 -0.881310
-2.627154 -12.600730 -1.031361
-2.394911 -13.100895 -1.245907
-1.994633 -13.370830 -1.212246
-3.158145 -12.519194 -0.851452
-2.834960 -12.885825 -1.072870
-2.594553 -13.378817 -1.257759
-2.201898 -13.664598 -1.260115
-3.381861 -12.820048 -0.934858
-3.049151 -13.179535 -1.128490
-2.792424 -13.654145 -1.257069
-2.400527 -13.944922 -1.268318
-3.584612 -13.094640 -0.942703
-3.259186 -13.467698 -1.162273
-2.985756 -13.922922 -1.235025
-2.599922 -14.226302 -1.272894
-3.788129 -13.370281 -0.946936
-3.486715 -13.779422 -1.245468
-3.198130 -14.218969 -1.271589
-2.800063 -14.508703 -1.273817
-4.006894 -13.665290 -0.991718
-3.690699 -14.059511 -1.244724
-3.411593 -14.516512 -1.304159
-3.011265 -14.807887 -1.306334
-4.209152 -13.939515 -0.979652
-3.923734 -14.378729 -1.328285
-3.615143 -14.799802 -1.297594
-3.213012 -15.092494 -1.299726
-4.450903 -14.263906 -1.077803
-4.129572 -14.661367 -1.319740
-3.841678 -15.115944 -1.357193
-3.418111 -15.382103 -1.298130
-4.657970 -14.544425 -1.066677
-4.359465 -14.976429 -1.377176
-4.046921 -15.401560 -1.342825
-3.640269 -15.697530 -1.344858
-4.899574 -14.868932 -1.147184
-4.564003 -15.257355 -1.352131
-4.264302 -15.704491 -1.359293
-3.844338 -15.985326 -1.326689
-5.124030 -15.171771 -1.171223
-4.784132 -15.559317 -1.366537
-4.479725 -16.004572 -1.363018
-4.071475 -16.307993 -1.373556
-5.387553 -15.524516 -1.294012
-5.032717 -15.899682 -1.454037
-4.701928 -16.314285 -1.379787
-2.845684 -14.431591 2.948902
-4.285642 -16.610855 -1.373112
-5.621018 -15.839110 -1.326107
-5.242712 -16.188030 -1.425558
-4.931146 -16.633961 -1.409307
-3.006759 -14.656986 3.024151
-4.503527 -16.919224 -1.377083
-5.875182 -16.180262 -1.404673
-5.462686 -16.489853 -1.418711
-5.167614 -16.963921 -1.451271
-2.036445 -13.174573 6.361959
-3.238320 -14.988776 2.898973
-4.731114 -17.242113 -1.402239
-6.111200 -16.498367 -1.427511
-5.699378 -16.814266 -1.449947
-2.535812 -13.203501 6.318707
-5.399180 -17.286825 -1.471678
-2.153944 -13.336389 6.500574
-4.986652 -17.606997 -1.498653
-6.355007 -16.826550 -1.462606
-5.940489 -17.144676 -1.484951
-5.622417 -17.597805 -1.462402
-2.270688 -13.497158 6.640881
-5.186583 -17.887907 -1.430578
-6.596672 -17.152103 -1.484589
-6.179574 -17.472378 -1.506840
-3.730903 -14.895589 4.088408
-5.859183 -17.928013 -1.482134
-3.297724 -15.027143 4.310377
-5.417391 -18.215225 -1.442123
-6.836039 -17.474813 -1.493574
-6.419786 -17.801632 -1.524031
-3.901660 -15.132984 4.140186
-6.109958 -18.278122 -1.530264
-3.456656 -15.249931 4.385714
-5.674111 -18.581341 -1.515261
-7.079893 -17.803373 -1.506180
-6.661097 -18.132395 -1.536488
-4.121647 -15.440447 4.071676
-6.362157 -18.630190 -1.573254
-3.656559 -15.534200 4.356928
-5.916746 -18.926109 -1.541836
-7.324813 -18.133404 -1.514023
-6.903478 -18.464630 -1.544180
-6.592590 -18.951214 -1.553816
-2.822581 -14.268408 6.981659
-6.141438 -19.243828 -1.514368
-7.574330 -18.469433 -1.525229
-7.157223 -18.812252 -1.571541
-6.833844 -19.287592 -1.554251
-6.395942 -19.606106 -1.555637
-7.832129 -18.816221 -1.547714
-7.415709 -19.166317 -1.601877
-7.086263 -19.639801 -1.574083
-2.990883 -14.493087 7.428761
-6.632188 -19.940897 -1.543104
-8.065691 -19.131886 -1.508692
-7.633202 -19.464949 -1.530325
-7.329592 -19.979031 -1.564653
-6.885907 -20.301699 -1.565928
-8.329300 -19.486343 -1.529182
-7.897340 -19.826702 -1.558714
-7.573852 -20.319536 -1.550329
-7.124084 -20.639139 -1.543575
-8.597866 -19.847301 -1.552296
-8.151981 -20.175631 -1.557825
-3.946388 -15.159863 7.196907
-7.829550 -20.676249 -1.554834
-3.490070 -15.199480 7.502689
-7.393681 -21.023357 -1.587669
-8.856441 -20.195465 -1.546255
-8.414959 -20.535866 -1.567568
-8.118347 -21.079916 -1.624863
-3.621883 -15.383277 7.615271
-7.668230 -21.414785 -1.633816
-9.123629 -20.554838 -1.550707
-8.693861 -20.917686 -1.603270
-8.365805 -21.424812 -1.594858
-3.826416 -15.675418 7.566065
-7.923446 -21.777243 -1.627140
-9.376589 -20.895906 -1.518597
-8.914574 -21.220724 -1.508537
-8.632233 -21.796595 -1.598625
-8.197302 -22.167316 -1.653894
-9.680773 -21.303322 -1.581930
-9.229622 -21.651554 -1.602909
-8.892473 -22.159546 -1.581394
-8.444073 -22.516962 -1.613115
-9.947540 -21.662424 -1.562035
-9.508692 -22.033678 -1.613596
-9.190813 -22.576492 -1.635214
-8.738367 -22.937128 -1.666639
-10.254839 -22.074123 -1.612888
-9.792868 -22.422747 -1.626024
-9.483362 -22.985153 -1.667290
-9.012539 -23.327234 -1.668068
-10.523855 -22.436316 -1.581556
-10.078346 -22.813604 -1.632429
-9.781214 -23.401266 -1.700512
-9.335716 -23.789906 -1.761467
-10.846214 -22.867779 -1.642273
-10.396473 -23.248745 -1.692812
-10.065290 -23.797792 -1.697289
-9.616465 -24.189453 -1.757725
-11.154110 -23.280607 -1.666193
-10.684736 -23.643429 -1.686596
-10.381510 -24.239803 -1.747280
-9.913424 -24.612879 -1.777515
-11.496384 -23.738207 -1.742599
-11.006176 -24.083124 -1.733343
-10.668243 -24.639980 -1.731312
-10.196672 -25.015856 -1.761250
-11.807501 -24.155460 -1.752804
-11.313206 -24.503305 -1.743658
-11.019178 -25.131023 -1.825928
-4.966870 -17.262976 8.768887
-10.519320 -25.477003 -1.811760
-12.103256 -24.552845 -1.727243
-5.880005 -17.136444 8.494499
-11.650148 -24.964090 -1.798168
-5.465456 -17.262163 8.829758
-11.320633 -25.551922 -1.818289
-5.121365 -17.480682 8.856039
-10.839918 -25.934929 -1.847601
-12.446531 -25.012125 -1.774719
-11.964283 -25.393967 -1.801853
-5.786154 -17.712208 8.625854
-11.639402 -25.997274 -1.832733
-5.389052 -17.865616 8.738123
-11.162203 -26.395174 -1.876087
-12.766054 -25.440619 -1.771698
-12.275644 -25.820093 -1.791496
-5.805781 -17.736082 8.963802
-11.983990 -26.479099 -1.882717
-5.548517 -18.090546 8.826040
-13.151365 -25.954891 -1.868029
-12.634293 -26.310419 -1.852282
-12.330458 -26.963511 -1.924759
-11.803690 -27.310616 -1.896683
-13.469696 -26.382057 -1.843153
-12.969612 -26.769121 -1.862703
-12.674625 -27.444593 -1.951815
-12.162764 -27.824642 -1.958874
-13.806665 -26.833595 -1.839231
-13.319220 -27.247234 -1.886501
-13.020489 -27.928009 -1.970953
-12.483418 -28.281832 -1.943230
-14.180264 -27.333004 -1.883064
-13.670502 -27.727652 -1.902359
-13.384787 -28.437422 -2.009596
-12.842110 -28.794928 -1.982046
-14.591286 -27.881380 -1.973089
-14.075338 -28.280811 -1.992264
-13.750957 -28.949406 -2.039713
-5.888566 -18.541861 10.068882
-13.182079 -29.280273 -1.978329
-14.964436 -28.380480 -1.992611
-14.425861 -28.760254 -1.984568
-14.118935 -29.463871 -2.061255
-13.548431 -29.804298 -2.007109
-15.397924 -28.958500 -2.090849
-14.852577 -29.343201 -2.082945
-14.471460 -29.956429 -2.047468
-13.891479 -30.293871 -1.987101
-15.228657 -29.857409 -2.091406
-14.877428 -30.524435 -2.104849
-14.303425 -30.884590 -2.064802
-15.263718 -31.064562 -2.119726
-14.670938 -31.409800 -2.060373
-15.642975 -31.594687 -2.112478
-10.058147 -23.703308 6.526693
-9.382210 -23.617334 6.916409
-9.569336 -23.881475 7.056511
6.054758 -0.956671 29.825848
6.008985 -1.015877 29.775513
6.026148 -0.998428 29.793343
6.029875 -0.992903 29.801174
6.021273 -0.998490 29.797264
6.038275 -0.980551 29.814665
6.028274 -0.995111 29.805016
6.000530 -1.027678 29.778688
6.013503 -1.016631 29.790020
6.038044 -0.974776 29.825592
6.054852 -0.956153 29.842339
6.018032 -1.002956 29.805330
6.011788 -1.018992 29.794365
6.056133 -0.949244 29.850801
6.044175 -0.971643 29.834545
6.040915 -0.970667 29.836206
6.033990 -0.986454 29.825529
6.028507 -0.994398 29.822096