# This PCD file was generated using the MATLAB® pcwrite function
# from Computer Vision System Toolbox®.
# .PCD v.7 - Point Cloud Data file format
VERSION .7
FIELDS x y z
SIZE 4 4 4
TYPE F F F
COUNT 1 1 1
WIDTH 768
HEIGHT 1
VIEWPOINT 0 0 0 1 0 0 0
POINTS 768
DATA ascii
0.448623 -0.227924 -0.181407
0.447106 -0.210924 -0.174261
0.441458 -0.231697 -0.202182
0.388239 -0.242819 -0.249225
0.485084 -0.206279 -0.168354
0.451813 -0.207368 -0.195329
0.478028 -0.209994 -0.189014
0.451155 -0.207236 -0.209327
0.545810 -0.170775 -0.126156
0.551240 -0.151895 -0.111834
0.513996 -0.188693 -0.174607
0.493955 -0.182806 -0.188277
0.531747 -0.178198 -0.166945
0.474857 -0.192758 -0.223325
0.537219 -0.174741 -0.173303
0.462362 -0.199072 -0.251646
0.566763 -0.157530 -0.150719
0.486699 -0.185283 -0.236962
0.566167 -0.157554 -0.164005
0.498722 -0.178225 -0.236410
0.577520 -0.150757 -0.162672
0.522628 -0.164718 -0.221003
0.577124 -0.150665 -0.175966
0.510767 -0.170652 -0.249558
0.588461 -0.143888 -0.174403
0.534445 -0.157298 -0.233674
0.588265 -0.143679 -0.187699
0.523013 -0.162973 -0.262456
0.622290 -0.124019 -0.155612
0.546457 -0.149775 -0.246100
0.661419 -0.101498 -0.115270
0.580997 -0.130622 -0.214087
0.672086 -0.095156 -0.112630
0.609381 -0.114833 -0.189133
0.671663 -0.095105 -0.125310
0.587145 -0.126305 -0.233319
0.671393 -0.094963 -0.138048
0.620737 -0.107755 -0.200064
0.687453 -0.085584 -0.127288
0.642868 -0.095400 -0.181899
0.697984 -0.079343 -0.124164
0.632261 -0.100590 -0.210760
0.671512 -0.093982 -0.176584
0.616701 -0.108396 -0.247835
0.708371 -0.072900 -0.133457
0.643949 -0.093340 -0.221217
0.687840 -0.084158 -0.178335
0.628945 -0.100809 -0.258590
0.718901 -0.066382 -0.142537
0.655797 -0.086006 -0.231434
0.699042 -0.077232 -0.187816
0.671993 -0.076895 -0.220129
0.764392 -0.040266 -0.093900
0.703122 -0.059905 -0.183931
0.725129 -0.061975 -0.172275
0.668878 -0.077487 -0.254559
0.759782 -0.042278 -0.126791
0.714421 -0.052942 -0.192968
0.709469 -0.026626 -0.185776
0.741038 -0.052454 -0.172639
0.681235 -0.069879 -0.264255
0.789133 -0.025307 -0.101196
0.745053 -0.035838 -0.168153
0.683580 -0.052065 -0.270847
0.715907 -0.021909 -0.202841
0.747502 -0.048216 -0.189496
0.726892 -0.044843 -0.214537
0.707161 -0.025012 -0.232512
0.780788 -0.029372 -0.142650
0.774814 -0.019284 -0.142358
0.719752 -0.032825 -0.237519
0.722731 -0.016969 -0.219857
0.799730 -0.018543 -0.120839
0.738658 -0.037629 -0.223078
0.738080 -0.009066 -0.206959
0.773575 -0.032756 -0.184621
0.749136 -0.031635 -0.218670
0.750207 -0.016517 -0.211638
0.748552 -0.003403 -0.202420
0.814501 -0.009760 -0.119431
0.777444 -0.016410 -0.179583
0.765098 -0.008573 -0.198340
0.740573 -0.006051 -0.232304
0.832696 0.000603 -0.096882
0.778637 -0.015266 -0.192055
0.757488 -0.011488 -0.228273
0.760157 0.003688 -0.210273
0.816281 -0.008171 -0.143804
0.784342 -0.011783 -0.195837
0.781026 0.000574 -0.197255
0.757087 0.003291 -0.231567
0.842703 0.006709 -0.103448
0.777215 -0.014899 -0.225845
0.786775 0.004079 -0.200949
0.767489 0.008897 -0.226658
0.860195 0.016634 -0.080235
0.795838 -0.004775 -0.203226
0.775517 -0.000498 -0.239859
0.782118 0.016340 -0.212794
0.824218 -0.002846 -0.171741
0.801630 -0.001249 -0.206832
0.798357 0.011129 -0.208161
0.796513 0.023637 -0.198705
0.857901 0.015961 -0.112912
0.807449 0.002290 -0.210378
0.804191 0.014676 -0.211678
0.793887 0.023498 -0.219966
0.866969 0.021233 -0.107035
0.813296 0.005843 -0.213865
0.810051 0.018235 -0.215135
0.791554 0.023533 -0.241325
0.848729 0.011572 -0.163792
0.819170 0.009409 -0.217293
0.831911 0.029257 -0.182624
0.826079 0.039416 -0.182046
0.877136 0.027403 -0.112902
0.813403 0.007101 -0.247664
0.837556 0.032680 -0.185810
0.819737 0.037736 -0.212255
0.878503 0.028463 -0.124799
0.830998 0.016580 -0.223967
0.843227 0.036114 -0.188937
0.837392 0.046272 -0.188358
0.898444 0.039620 -0.091323
0.836951 0.020185 -0.227213
0.833759 0.032602 -0.228362
0.816066 0.038387 -0.255000
0.899787 0.040659 -0.103080
0.846616 0.025641 -0.221287
0.854640 0.043019 -0.195019
0.845011 0.051598 -0.203556
0.897740 0.039873 -0.124009
0.848933 0.027430 -0.233523
0.860382 0.046488 -0.197972
0.847097 0.053571 -0.215697
0.899467 0.041139 -0.135840
0.858511 0.032827 -0.227405
0.866148 0.049968 -0.200867
0.856654 0.058629 -0.209473
0.918401 0.051676 -0.101587
0.861013 0.034722 -0.239588
0.857870 0.047163 -0.240615
0.855338 0.059254 -0.230784
0.910076 0.047538 -0.141038
0.867089 0.038384 -0.242528
0.877746 0.056961 -0.206480
0.871905 0.067114 -0.205897
0.918683 0.052504 -0.134270
0.886557 0.048586 -0.208277
0.883579 0.060472 -0.209197
0.870841 0.067886 -0.227187
0.920766 0.053974 -0.146019
0.882582 0.047332 -0.238908
0.889432 0.063994 -0.211855
0.883589 0.074146 -0.211272
0.929273 0.058875 -0.139079
0.898265 0.055629 -0.213593
0.895307 0.067525 -0.214454
0.882846 0.075105 -0.232568
0.931534 0.060447 -0.150782
0.894750 0.054647 -0.244290
0.901202 0.071065 -0.216992
0.892118 0.079973 -0.225787
0.939938 0.065280 -0.143671
0.910055 0.062710 -0.218670
0.904019 0.073293 -0.228887
0.907605 0.087168 -0.200068
0.951141 0.071579 -0.127009
0.904011 0.060578 -0.258860
0.925160 0.083293 -0.184111
0.916494 0.091800 -0.192991
0.939272 0.065720 -0.185914
0.910238 0.064310 -0.261361
0.916049 0.080503 -0.233720
0.907104 0.089656 -0.242592
0.972747 0.083691 -0.093183
0.927887 0.073399 -0.225834
0.924978 0.085316 -0.226544
0.916173 0.094390 -0.235451
0.961480 0.078186 -0.152202
0.936648 0.078272 -0.218582
0.939410 0.092356 -0.200201
0.933767 0.102141 -0.199635
0.974819 0.085547 -0.125554
0.950700 0.085571 -0.192128
0.936977 0.092491 -0.230956
0.928313 0.101649 -0.239914
0.972350 0.084683 -0.156138
0.956430 0.088995 -0.194171
0.951015 0.099289 -0.204338
0.945370 0.109073 -0.203771
1.002746 0.100803 -0.062040
0.972435 0.097089 -0.157775
0.969835 0.107885 -0.158307
0.951196 0.112549 -0.205750
0.992969 0.096179 -0.121363
0.960463 0.092495 -0.226939
0.952578 0.102327 -0.246741
0.957037 0.116032 -0.207670
0.995819 0.098078 -0.132689
0.964038 0.094988 -0.238519
0.970996 0.110678 -0.200450
0.962894 0.119522 -0.209531
1.010212 0.105854 -0.095666
0.972469 0.099647 -0.230753
0.964889 0.109659 -0.250584
0.966315 0.122244 -0.220996
1.013016 0.107720 -0.106865
0.985319 0.106213 -0.203507
0.982612 0.117590 -0.203950
0.974652 0.126519 -0.213074
1.011714 0.107537 -0.137478
0.982332 0.105875 -0.244031
0.995149 0.123478 -0.176471
0.980553 0.130026 -0.214756
1.017038 0.110701 -0.138967
0.996977 0.113142 -0.206830
0.994282 0.124524 -0.207213
0.986467 0.133539 -0.216377
1.030316 0.117804 -0.101396
1.002825 0.116615 -0.208403
0.998048 0.127278 -0.218509
0.992394 0.137056 -0.217939
1.041108 0.123623 -0.073390
1.016618 0.123372 -0.170848
1.006005 0.131479 -0.210240
0.998333 0.140579 -0.219441
1.047792 0.127392 -0.064801
1.022198 0.126680 -0.172229
1.009942 0.134329 -0.221452
1.004285 0.144106 -0.220882
1.043746 0.125958 -0.114962
1.013101 0.124129 -0.251974
1.017776 0.138451 -0.213028
1.010249 0.147637 -0.222263
1.045521 0.127392 -0.135775
1.021055 0.128483 -0.243556
1.027269 0.143037 -0.194688
1.016224 0.151172 -0.223584
1.054073 0.132068 -0.117245
1.032250 0.134045 -0.215372
1.022705 0.143427 -0.254928
1.022210 0.154711 -0.224844
1.062338 0.136573 -0.098600
1.039783 0.138144 -0.206736
1.033867 0.148480 -0.226614
1.028206 0.158254 -0.226043
1.064436 0.138191 -0.119317
1.037935 0.138811 -0.257201
1.041448 0.152442 -0.217886
1.040786 0.162979 -0.187743
1.078005 0.145065 -0.060984
1.057366 0.147119 -0.169443
1.050389 0.156691 -0.199190
1.040228 0.165348 -0.228259
1.076155 0.144915 -0.111285
1.055982 0.148054 -0.219871
1.053342 0.159455 -0.219955
1.046253 0.168899 -0.229275
1.081291 0.147941 -0.112125
1.061938 0.151564 -0.220845
1.062003 0.163534 -0.201090
1.052286 0.172453 -0.230231
1.080572 0.148454 -0.162504
1.059202 0.152397 -0.291164
1.065270 0.166478 -0.221782
1.058327 0.176009 -0.231125
1.088291 0.152622 -0.143436
1.070369 0.157573 -0.252389
1.070045 0.169797 -0.232531
1.064377 0.179567 -0.231959
1.097763 0.157446 -0.104394
1.084227 0.163283 -0.183662
1.077228 0.173509 -0.223368
1.070433 0.183126 -0.232731
1.099057 0.158949 -0.144808
1.082783 0.164868 -0.253972
1.082166 0.176918 -0.234014
1.076496 0.186686 -0.233442
1.103576 0.161787 -0.155369
1.091831 0.169139 -0.224809
1.089213 0.180544 -0.224712
1.082565 0.190248 -0.234091
1.112242 0.166131 -0.116071
1.095224 0.172169 -0.255303
1.094313 0.184043 -0.235252
1.088640 0.193810 -0.234679
1.115249 0.168448 -0.146458
1.103834 0.176177 -0.225971
1.101221 0.187583 -0.225813
1.098306 0.196796 -0.195371
1.120656 0.171615 -0.146899
1.109843 0.179696 -0.226461
1.108734 0.190967 -0.206329
1.100806 0.200936 -0.235671
1.124921 0.174479 -0.167250
1.113926 0.183124 -0.256828
1.115952 0.194176 -0.186765
1.109880 0.203570 -0.196197
1.130985 0.177842 -0.157604
1.124147 0.186683 -0.187323
1.120469 0.197830 -0.207048
1.112989 0.208062 -0.236417
1.139436 0.181497 -0.087948
1.130360 0.189969 -0.177627
1.127392 0.200862 -0.187350
1.119086 0.211624 -0.236697
1.142322 0.184282 -0.148116
1.133920 0.193773 -0.227812
1.130866 0.205422 -0.237489
1.125186 0.215185 -0.236916
1.148289 0.187398 -0.128290
1.139947 0.197291 -0.227998
1.138844 0.207545 -0.187703
1.131289 0.218746 -0.237074
1.152581 0.190816 -0.178389
1.146244 0.200618 -0.218129
1.143076 0.212543 -0.237743
1.137394 0.222304 -0.237169
1.158598 0.193773 -0.148453
1.152008 0.204322 -0.228188
1.150304 0.214223 -0.187824
1.143500 0.225861 -0.237203
1.164027 0.196934 -0.148456
1.158506 0.206727 -0.188209
1.155738 0.218398 -0.207779
1.149608 0.229417 -0.237176
1.169486 0.200294 -0.158402
1.164075 0.211346 -0.228133
1.161768 0.220894 -0.187715
1.155716 0.232969 -0.237087
1.174046 0.201299 -0.068325
1.169970 0.213396 -0.188041
1.167512 0.226761 -0.237509
1.161825 0.236520 -0.236936
1.180315 0.206405 -0.148136
1.176144 0.218360 -0.227835
1.173544 0.229758 -0.227312
1.167933 0.240068 -0.236723
1.185745 0.209557 -0.147920
1.182177 0.221863 -0.227595
1.179271 0.232071 -0.207079
1.173709 0.240752 -0.196553
1.190180 0.211581 -0.117686
1.188210 0.225363 -0.227294
1.184695 0.234205 -0.186802
1.179514 0.244118 -0.196234
1.196601 0.215853 -0.147323
1.193905 0.228320 -0.216952
1.191032 0.238889 -0.206374
1.186252 0.250691 -0.235717
1.200581 0.217608 -0.117010
1.200271 0.232353 -0.226509
1.197669 0.243744 -0.225865
1.192355 0.254225 -0.235258
1.205221 0.220111 -0.106621
1.205812 0.235215 -0.216057
1.204149 0.248000 -0.235311
1.198455 0.257755 -0.234738
1.208443 0.221423 -0.076264
1.207824 0.233962 -0.145789
1.211837 0.253965 -0.264588
1.206391 0.265014 -0.273939
1.218289 0.228403 -0.145474
1.218345 0.242807 -0.224877
1.216343 0.255048 -0.234086
1.210646 0.264801 -0.233514
1.222138 0.230257 -0.124977
1.224363 0.246283 -0.224211
1.221753 0.257665 -0.223445
1.216736 0.268317 -0.232809
1.226541 0.232613 -0.114402
1.230376 0.249753 -0.223485
1.226254 0.259247 -0.202836
1.222821 0.271828 -0.232044
1.232656 0.236325 -0.123654
1.238975 0.255751 -0.252479
1.233771 0.264596 -0.221872
1.228902 0.275333 -0.231217
1.233875 0.236285 -0.083235
1.242389 0.256679 -0.221852
1.240678 0.269082 -0.230901
1.234977 0.278833 -0.230329
1.238823 0.239134 -0.082487
1.244335 0.256410 -0.181325
1.245768 0.271504 -0.220058
1.241046 0.282327 -0.229380
1.247240 0.244537 -0.111377
1.257645 0.266502 -0.249655
1.249647 0.272717 -0.199297
1.247109 0.285814 -0.228369
1.253635 0.248401 -0.120373
1.260366 0.267023 -0.218949
1.253219 0.273752 -0.178529
1.248926 0.284178 -0.187854
1.257558 0.250467 -0.109552
1.266346 0.270458 -0.217860
1.261306 0.279416 -0.197175
1.254677 0.287481 -0.186778
1.262708 0.253424 -0.108562
1.265756 0.268374 -0.167452
1.269684 0.285244 -0.215705
1.265256 0.296236 -0.224974
1.267851 0.256374 -0.107520
1.282442 0.280743 -0.245015
1.272936 0.286087 -0.194819
1.271289 0.299696 -0.223720
1.274518 0.260385 -0.116250
1.290083 0.285473 -0.253520
1.281595 0.292072 -0.213169
1.277314 0.303148 -0.222406
1.282932 0.265585 -0.134704
1.294792 0.287819 -0.242321
1.284533 0.292730 -0.192230
1.283330 0.306592 -0.221032
1.291635 0.270947 -0.153036
1.302562 0.292618 -0.250669
1.293471 0.298869 -0.210393
1.289336 0.310028 -0.219597
1.300626 0.276472 -0.171242
1.307103 0.294863 -0.239380
1.301046 0.303712 -0.218671
1.295333 0.313456 -0.218101
1.306247 0.279684 -0.169811
1.315002 0.299729 -0.247567
1.305308 0.305633 -0.207380
1.301319 0.316876 -0.216546
1.306154 0.279051 -0.139122
1.321205 0.303272 -0.245922
1.313009 0.310543 -0.215499
1.307294 0.320286 -0.214930
1.305607 0.278158 -0.108498
1.325491 0.305362 -0.234505
1.324591 0.318696 -0.242908
1.320464 0.330502 -0.252006
1.316903 0.285182 -0.136102
1.333577 0.310327 -0.242447
1.324927 0.317338 -0.212088
1.319209 0.327079 -0.211520
1.307405 0.278401 -0.066816
1.329481 0.306212 -0.192279
1.328849 0.319054 -0.200642
1.325149 0.330461 -0.209725
1.334196 0.295618 -0.161811
1.345899 0.317344 -0.238723
1.336797 0.324094 -0.208438
1.331076 0.333834 -0.207870
1.342020 0.300265 -0.169668
1.352040 0.320836 -0.236769
1.357868 0.339708 -0.273756
1.345369 0.344678 -0.244347
1.345294 0.301927 -0.158220
1.355895 0.322668 -0.225155
1.348613 0.330809 -0.204550
1.342891 0.340548 -0.203984
1.365310 0.314491 -0.213798
1.373659 0.334556 -0.270967
1.370676 0.346981 -0.269404
1.357738 0.351701 -0.240144
1.366288 0.314644 -0.192609
1.377630 0.336448 -0.259180
1.372290 0.346851 -0.248073
1.354649 0.347219 -0.199860
1.356724 0.308010 -0.133367
1.376461 0.334697 -0.228338
1.373599 0.346546 -0.226784
1.370046 0.358678 -0.235693
1.359436 0.309343 -0.121879
1.382528 0.338134 -0.226077
1.384714 0.353888 -0.243445
1.366348 0.353845 -0.195502
1.367397 0.314053 -0.129332
1.388579 0.341559 -0.223756
1.396100 0.361381 -0.259932
1.382290 0.365608 -0.230997
1.367162 0.313508 -0.108351
1.391908 0.343075 -0.211936
1.394399 0.358838 -0.229149
1.390987 0.371211 -0.237969
1.375165 0.318237 -0.115671
1.400631 0.348371 -0.218933
1.408708 0.368505 -0.254816
1.394466 0.372487 -0.226056
1.400808 0.334173 -0.179177
1.415178 0.357689 -0.244569
1.409355 0.367811 -0.233444
1.389552 0.366956 -0.186085
1.400525 0.333593 -0.158032
1.412613 0.355132 -0.213868
1.421241 0.375574 -0.249447
1.420642 0.390704 -0.267479
1.412182 0.340586 -0.174240
1.418576 0.358493 -0.211246
1.421566 0.374692 -0.228076
1.401051 0.373436 -0.181029
1.424106 0.347725 -0.190265
1.436768 0.370228 -0.245708
1.433696 0.382587 -0.243829
1.418597 0.386087 -0.215446
1.423485 0.346947 -0.169077
1.452373 0.380131 -0.270597
1.446088 0.390626 -0.259390
1.424582 0.389452 -0.212643
1.435652 0.354218 -0.184857
1.449162 0.377198 -0.239903
1.446069 0.389542 -0.237962
1.430546 0.392803 -0.209780
1.434711 0.353255 -0.163688
1.455327 0.380660 -0.236908
1.458698 0.397709 -0.253263
1.449156 0.406043 -0.243484
1.430059 0.349986 -0.133447
1.461471 0.384108 -0.233851
1.458356 0.396436 -0.231849
1.455357 0.409521 -0.240362
1.424969 0.346470 -0.103362
1.467592 0.387539 -0.230733
1.471219 0.404728 -0.246885
1.445007 0.400214 -0.191750
1.430097 0.349342 -0.100689
1.470210 0.388623 -0.218475
1.470554 0.403268 -0.225490
1.467691 0.416429 -0.233933
1.456925 0.365702 -0.152241
1.490418 0.401469 -0.251442
1.483647 0.411682 -0.240258
1.460047 0.409334 -0.194578
1.469803 0.373354 -0.167259
1.485819 0.397739 -0.221014
1.482658 0.410035 -0.218889
1.483443 0.425941 -0.236232
1.467905 0.371838 -0.146187
1.502910 0.408449 -0.244554
1.492325 0.415981 -0.224441
1.486013 0.426668 -0.223829
1.473361 0.374883 -0.143077
1.497851 0.404456 -0.214232
1.479786 0.406233 -0.176434
1.477476 0.419065 -0.184754
1.447649 0.358690 -0.068777
1.484710 0.395170 -0.166308
1.504418 0.422723 -0.217400
1.501821 0.436192 -0.225646
1.484207 0.380926 -0.136696
1.525349 0.421351 -0.242604
1.506571 0.423367 -0.204967
1.519247 0.448037 -0.248444
1.505708 0.393836 -0.168668
1.527587 0.422200 -0.230034
1.532097 0.440348 -0.245246
1.513942 0.442937 -0.218285
1.503149 0.391936 -0.147637
1.529663 0.422956 -0.217484
1.518374 0.429928 -0.197650
1.516045 0.443387 -0.205781
1.500297 0.389871 -0.126720
1.543857 0.431639 -0.231130
1.544513 0.447243 -0.237389
1.553849 0.470136 -0.271515
1.526755 0.405765 -0.166709
1.533333 0.424190 -0.192459
1.546556 0.447813 -0.224714
1.544074 0.461824 -0.232734
1.528080 0.406254 -0.154366
1.556054 0.438403 -0.223174
1.561002 0.456947 -0.237895
1.550208 0.465222 -0.228652
1.555410 0.422626 -0.193634
1.574982 0.450106 -0.244884
1.558666 0.454518 -0.216577
1.556313 0.468601 -0.224510
1.539107 0.412356 -0.146883
1.568134 0.445088 -0.214977
1.586271 0.472631 -0.255019
1.566635 0.475037 -0.228820
1.517633 0.398973 -0.092023
1.569707 0.445545 -0.202285
1.588191 0.473118 -0.242097
1.568430 0.475296 -0.216043
1.550024 0.418385 -0.139181
1.580092 0.451692 -0.206539
1.598847 0.479572 -0.246061
1.596330 0.494361 -0.253825
1.578542 0.435400 -0.177314
1.617883 0.475452 -0.261099
1.582520 0.467684 -0.199584
1.598189 0.494649 -0.240832
1.579565 0.435703 -0.164725
1.605772 0.467100 -0.222952
1.611290 0.486426 -0.236853
1.590876 0.488403 -0.211219
1.608919 0.453172 -0.202081
1.635227 0.485422 -0.259953
1.594258 0.474143 -0.190734
1.610563 0.501456 -0.231503
1.590759 0.441859 -0.156206
1.636829 0.485876 -0.246814
1.623597 0.493190 -0.227400
1.602800 0.494956 -0.202060
1.601184 0.447851 -0.160082
1.662296 0.501572 -0.274791
1.605865 0.480515 -0.181652
1.622798 0.508173 -0.221929
1.616640 0.456872 -0.171973
1.649283 0.492709 -0.236979
1.616448 0.486907 -0.185160
1.638379 0.518215 -0.233309
1.592314 0.441894 -0.118656
1.640664 0.486684 -0.207623
1.636903 0.499890 -0.204679
1.654173 0.528369 -0.244425
1.592519 0.441727 -0.106235
1.661592 0.499447 -0.226897
1.647788 0.506440 -0.207765
1.645766 0.521501 -0.215142
1.643803 0.472290 -0.174024
1.692961 0.518795 -0.261827
1.648730 0.506353 -0.194726
1.646840 0.521327 -0.202058
1.602834 0.447360 -0.097476
1.673751 0.506088 -0.216573
1.679967 0.526417 -0.229303
1.677780 0.542023 -0.236550
1.660397 0.481629 -0.172124
1.705654 0.525719 -0.250854
1.701500 0.539973 -0.247538
1.673834 0.538339 -0.215372
1.660771 0.481540 -0.159225
1.670046 0.502722 -0.182449
1.686979 0.529625 -0.210643
1.695233 0.552294 -0.233421
1.671720 0.487790 -0.161982
1.734074 0.542542 -0.263028
1.692963 0.532878 -0.205188
1.685840 0.544868 -0.204524
1.688176 0.497327 -0.172323
1.724387 0.535906 -0.233927
1.698907 0.536104 -0.199674
1.723250 0.569838 -0.245238
1.699347 0.503690 -0.174694
1.746794 0.549447 -0.251227
1.704811 0.539304 -0.194100
1.724203 0.569574 -0.231683
1.699508 0.503471 -0.161625
1.758563 0.556288 -0.252865
1.710673 0.542478 -0.188469
1.714270 0.561842 -0.202993
1.733124 0.523213 -0.194090
1.764872 0.559702 -0.246752
1.738460 0.560023 -0.212949
1.736467 0.576209 -0.219798
1.755961 0.536497 -0.210883
1.771135 0.563086 -0.240576
1.750019 0.566898 -0.214457
1.769924 0.598237 -0.251156
1.761947 0.539727 -0.204877
1.794298 0.577018 -0.256722
1.750435 0.566484 -0.200936
1.748555 0.582731 -0.207672
1.704368 0.505144 -0.117343
1.783525 0.569767 -0.228040
1.756355 0.569672 -0.194841
1.765716 0.593574 -0.216243
1.773786 0.546102 -0.192690
1.806936 0.583823 -0.243712
1.739350 0.557941 -0.159452
1.732217 0.569927 -0.158797
1.779637 0.549246 -0.186509
1.819001 0.590796 -0.244398
1.796942 0.594725 -0.218723
1.794871 0.611661 -0.225253
1.767613 0.541784 -0.158586
1.819381 0.590505 -0.230454
1.820500 0.609323 -0.233721
1.795227 0.611038 -0.211442
1.767207 0.541226 -0.145305
1.831459 0.597476 -0.230897
1.809017 0.601194 -0.205524
1.830318 0.633916 -0.240422
1.796915 0.558503 -0.167622
1.861551 0.615592 -0.252465
1.832807 0.615906 -0.220036
1.830684 0.633288 -0.226367
1.802581 0.561530 -0.161213
1.843715 0.604027 -0.217151
1.814900 0.603669 -0.185083
1.842739 0.640550 -0.226372
1.820524 0.571811 -0.168714
1.892419 0.633603 -0.259040
1.844910 0.622361 -0.206110
1.842893 0.639799 -0.212319
1.838633 0.582177 -0.175909
1.880354 0.625620 -0.230830
1.856987 0.629467 -0.205937
1.873046 0.659194 -0.232698
1.819292 0.570428 -0.141655
1.886514 0.628894 -0.223496
1.856805 0.628685 -0.191946
1.879230 0.662479 -0.225271
1.850051 0.588242 -0.162198
1.892620 0.632135 -0.216101
1.893716 0.651713 -0.218538
1.891497 0.669832 -0.224529
1.868430 0.598736 -0.168716
1.942803 0.662475 -0.255720
1.893531 0.650918 -0.204301
1.891434 0.668945 -0.210236
1.861264 0.594178 -0.148264
1.930092 0.654127 -0.227772
1.899498 0.654072 -0.196757
1.928654 0.692913 -0.235708
1.905652 0.619954 -0.180807
1.961866 0.673094 -0.246317
1.930861 0.673449 -0.215382
1.922287 0.687824 -0.214613
1.950596 0.646017 -0.212506
1.942322 0.660579 -0.212043
1.936918 0.676639 -0.207458
1.966393 0.716279 -0.245597
1.936890 0.637600 -0.185153
1.974384 0.679686 -0.229940
1.942916 0.679792 -0.199474
1.991865 0.732301 -0.256470
1.909572 0.621212 -0.145342
1.928085 0.650845 -0.170492
1.981418 0.703625 -0.223218
1.978924 0.722860 -0.228773
1.948468 0.643674 -0.169474
1.986656 0.686125 -0.213319
1.980980 0.702662 -0.208490
2.004566 0.738958 -0.239119
1.981070 0.662417 -0.186609
1.972731 0.677103 -0.186136
1.993603 0.709999 -0.206282
1.991204 0.729284 -0.211704
2.019575 0.725786 -0.216185
2.010422 0.741115 -0.215374
2.025651 0.728948 -0.207362
2.003229 0.735549 -0.194397
2.031662 0.732070 -0.198480
2.022506 0.747398 -0.197673
2.030807 0.730859 -0.183594
2.041904 0.759303 -0.200612
2.070864 0.755457 -0.204040
2.088514 0.789007 -0.226686
2.125089 0.788928 -0.235330
2.108324 0.801111 -0.228662
2.145196 0.800864 -0.236901
2.135106 0.817746 -0.236020
2.137489 0.795303 -0.215478
1.789048 0.591177 0.062489
2.154483 0.828647 -0.221347
1.356194 0.308536 0.422663
1.343271 0.299981 0.435506
1.367571 0.310944 0.421073
1.379726 0.323483 0.410517
1.359610 0.310273 0.428600
1.340950 0.294055 0.446104
1.296255 0.269118 0.477551
1.341922 0.294546 0.447893
1.296984 0.269485 0.478892
1.342882 0.295028 0.449691
1.355649 0.307251 0.439703
1.351182 0.300077 0.446500
1.363956 0.312460 0.436669
1.366939 0.309752 0.438548
1.350362 0.303554 0.448545
1.358678 0.308764 0.445606