# This PCD file was generated using the MATLAB® pcwrite function
# from Computer Vision System Toolbox®.
# .PCD v.7 - Point Cloud Data file format
VERSION .7
FIELDS x y z
SIZE 4 4 4
TYPE F F F
COUNT 1 1 1
WIDTH 759
HEIGHT 1
VIEWPOINT 0 0 0 1 0 0 0
POINTS 759
DATA ascii
33.094692 6.136676 0.271925
33.151897 5.564599 0.303808
28.530407 4.482111 4.886869
28.529573 4.500544 4.441292
27.348328 4.711176 5.257843
28.055145 4.405391 4.529535
27.712652 4.341687 4.474270
24.534554 3.696448 5.266897
23.515081 3.499160 5.296202
23.428988 3.942182 4.859594
23.586290 3.536595 4.733942
23.032850 3.857148 4.962763
23.238920 3.468605 4.763296
22.728258 3.797320 4.939999
22.926752 3.409297 4.747700
22.381020 3.725242 4.986660
22.577339 3.340254 4.793451
22.100491 3.671731 4.938107
22.278728 3.283965 4.768814
21.777971 3.606078 4.959333
21.927658 3.213940 4.830997
21.409979 3.527069 5.059853
24.588402 4.439422 -0.030350
21.589489 3.146937 4.880703
21.132772 3.473804 5.021650
24.251671 4.374448 -0.071768
21.305353 3.093728 4.850103
20.876505 3.426455 4.952555
23.890259 4.302089 -0.067104
20.950283 3.021748 4.941431
20.555033 3.359942 4.996922
23.535406 4.231338 -0.066835
20.719074 2.982056 4.832392
20.270126 3.303842 4.985106
23.157276 4.153436 -0.019709
20.442438 2.930294 4.802725
22.800846 4.081560 -0.002604
20.146879 2.873324 4.810528
22.465265 4.015571 -0.016092
19.833321 2.811303 4.856318
19.833389 2.404291 4.718407
19.905462 2.005675 4.708815
22.111919 3.943987 0.008900
19.540670 2.754632 4.870922
19.544611 2.350831 4.725357
19.616354 1.954282 4.715839
21.783554 3.879613 -0.005836
19.244705 2.696830 4.897556
19.271030 2.300857 4.709171
19.328463 1.903002 4.726055
21.451660 3.813913 -0.008245
18.959476 2.641706 4.909945
18.998245 2.250926 4.695911
19.078695 1.859637 4.668877
21.138966 3.753829 -0.042347
18.684559 2.589191 4.907814
18.726288 2.201044 4.685558
18.783663 1.806577 4.702808
20.720907 3.660950 0.139614
18.397312 2.533068 4.935272
20.934877 3.235280 -0.131460
18.459616 2.152304 4.669195
18.516989 1.759393 4.686628
20.389687 3.594422 0.157507
18.111553 2.477108 4.965916
20.570435 3.162191 -0.052198
18.206738 2.106818 4.628820
18.264183 1.715053 4.646420
20.115391 3.545474 0.062719
17.861641 2.430949 4.928104
20.281496 3.109896 -0.120949
17.919931 2.052814 4.662809
17.994463 1.666984 4.644680
19.811312 3.487049 0.033405
17.557276 2.369279 5.009697
19.920912 3.037253 -0.034027
17.647284 2.002129 4.672905
17.742582 1.622626 4.609713
19.536627 3.437829 -0.055943
17.342117 2.332652 4.905191
19.633276 2.984973 -0.096476
17.384007 1.953616 4.667805
17.474459 1.574655 4.613497
19.217171 3.374122 -0.043064
17.089563 2.285314 4.884180
19.309156 2.922122 -0.074528
17.121567 1.905161 4.665440
17.223606 1.530301 4.583729
18.895081 3.309252 -0.017706
19.002428 2.864023 -0.085527
16.844133 1.852743 4.702295
16.993105 1.490277 4.510834
18.586115 3.248362 -0.016304
18.684875 2.802562 -0.065964
16.575994 1.802488 4.723822
16.723110 1.441545 4.531715
18.297197 3.193860 -0.057528
18.395458 2.749106 -0.107260
16.297668 1.749423 4.775759
16.473515 1.397154 4.509453
17.975138 3.128088 -0.013119
18.106348 2.695604 -0.145718
16.035999 1.700441 4.793795
16.228140 1.353588 4.480438
17.662115 3.064989 0.016260
17.784597 2.632193 -0.098179
15.775465 1.651572 4.814548
17.760881 2.169717 -0.223631
15.964722 1.305921 4.500153
17.403934 3.020342 -0.090073
17.486145 2.575490 -0.102865
15.498241 1.598130 4.884474
17.475939 2.118145 -0.264303
15.727621 1.263981 4.457514
17.117044 2.965800 -0.119738
17.181553 2.516704 -0.085934
15.240456 1.549576 4.910769
17.163317 2.059120 -0.227625
15.483547 1.220394 4.435793
16.844160 2.916001 -0.183916
16.885027 2.460143 -0.084566
14.997520 1.504796 4.902298
16.865881 2.003911 -0.225132
15.222698 1.172928 4.463251
16.547855 2.857826 -0.180031
16.582741 2.401566 -0.061493
14.751854 1.459144 4.905609
16.569384 1.948770 -0.219667
14.989910 1.131671 4.418261
16.223375 2.789248 -0.088675
16.288256 2.345170 -0.054138
14.523205 1.417963 4.864283
16.257610 1.889289 -0.164165
14.717804 1.081382 4.488489
15.910795 2.724450 -0.022100
16.042479 2.304042 -0.185238
14.281881 1.373228 4.862883
15.985641 1.840450 -0.218781
14.434855 1.028426 4.599386
15.606348 2.662176 0.028845
15.782873 2.258578 -0.276459
15.701216 1.788082 -0.232975
14.173174 0.980149 4.656492
15.285635 2.593380 0.139765
15.498358 2.205013 -0.289518
15.417347 1.735717 -0.244431
13.934353 0.937003 4.649769
15.005465 2.539353 0.130575
15.214413 2.151456 -0.299833
15.134062 1.683363 -0.253151
13.681334 0.890433 4.693012
14.737213 2.489711 0.085970
14.916784 2.093134 -0.259739
14.874105 1.637512 -0.335581
13.398174 0.836618 4.843927
14.446959 2.431351 0.120285
14.598413 2.027447 -0.140175
14.569344 1.578706 -0.262444
13.285212 0.822844 4.423000
14.598816 1.133966 -0.099836
14.179331 2.381638 0.080845
14.277447 1.960310 0.001915
14.309362 1.532667 -0.339865
13.300631 0.840044 3.521828
14.364676 1.094000 -0.263264
13.911720 2.331839 0.043875
14.001362 1.908226 -0.006353
14.028000 1.480287 -0.337963
14.068197 1.039080 -0.203323
13.626657 2.274719 0.076765
13.710659 1.850766 0.045797
13.747344 1.427942 -0.333378
13.768351 0.983142 -0.121126
13.347649 2.219766 0.093138
13.436167 1.798787 0.042883
13.421310 1.361622 -0.142342
13.512253 0.937687 -0.200405
13.081223 2.169909 0.063829
13.157538 1.745088 0.061916
13.150752 1.311813 -0.161106
13.262524 0.893769 -0.306530
12.817154 2.120973 0.027277
12.893507 1.696583 0.025414
12.846573 1.251347 -0.031635
13.009287 0.848973 -0.400803
12.548716 2.069993 0.012560
12.627247 1.647146 0.001038
12.553913 1.194068 0.061996
12.739604 0.800013 -0.424719
12.268098 2.013225 0.058722
12.344267 1.591069 0.057024
12.286445 1.144548 0.051229
12.461602 0.748830 -0.407135
12.010815 1.967001 0.000313
12.087101 1.544865 -0.001358
12.023348 1.096330 0.023382
12.162071 0.691931 -0.279390
11.745397 1.916886 -0.016733
11.821695 1.495320 -0.018351
11.756439 1.046737 0.017506
11.869162 0.636454 -0.168243
11.487516 1.870381 -0.070505
11.547220 1.441841 0.016060
11.491769 0.997761 0.004272
11.587994 0.583801 -0.103268
11.208241 1.812922 -0.004326
11.277370 1.389995 0.033434
11.222076 0.946892 0.022928
11.308423 0.531350 -0.035603
10.950521 1.766273 -0.053329
11.026860 1.346414 -0.054792
10.956507 0.897283 0.024406
11.037262 0.480965 -0.004646
10.679783 1.712518 -0.021351
10.749619 1.290852 0.016634
10.692986 0.848257 0.018457
10.773520 0.432468 -0.010605
10.420476 1.664827 -0.055813
10.498338 1.246961 -0.067030
10.437290 0.802060 -0.034445
10.516203 0.385677 -0.053658
10.156757 1.614504 -0.058359
10.233114 1.196491 -0.059671
10.172575 0.752349 -0.025793
10.245551 0.334973 -0.005449
9.900000 1.568268 -0.107906
9.969755 1.146715 -0.059782
9.909717 0.703189 -0.024624
9.988329 0.288029 -0.043819
9.641518 1.521052 -0.145296
9.711818 1.099598 -0.097094
9.653473 0.656636 -0.070616
9.725709 0.239395 -0.040266
9.375820 1.468951 -0.120983
9.450047 1.050381 -0.102390
9.390961 0.607370 -0.064751
9.464674 0.191121 -0.044260
9.114073 1.419228 -0.123981
9.187418 1.000484 -0.095415
9.128864 0.558095 -0.056517
9.207193 0.143877 -0.075705
8.855530 1.371746 -0.154396
8.929251 0.953071 -0.125786
8.871174 0.510728 -0.085672
8.945397 0.095141 -0.065096
8.601239 1.327856 -0.232174
8.670849 0.905530 -0.153862
8.613258 0.463235 -0.112543
8.687788 0.047704 -0.091934
8.345067 1.282956 -0.297802
8.411391 0.857274 -0.169703
8.355138 0.415620 -0.137125
8.429974 0.000146 -0.116489
8.081471 1.231397 -0.271660
8.149651 0.807203 -0.153366
8.093887 0.366164 -0.119564
8.168928 -0.048704 -0.098888
7.822402 1.184059 -0.302870
7.893089 0.761059 -0.204414
7.838357 0.320038 -0.179419
7.913807 -0.095323 -0.158731
7.562449 1.135894 -0.321825
7.634694 0.713619 -0.233267
7.576914 0.270085 -0.147249
7.653133 -0.144272 -0.136501
7.300007 1.084294 -0.288645
7.374998 0.664981 -0.239887
7.317158 0.220949 -0.132692
7.393017 -0.193200 -0.111940
7.040227 1.035993 -0.302963
7.117818 0.619342 -0.304070
7.060563 0.174373 -0.185719
7.135156 -0.241186 -0.125008
6.779452 0.985691 -0.285051
6.858061 0.570961 -0.316078
6.801964 0.126165 -0.196524
6.878541 -0.288418 -0.175755
6.520392 0.939088 -0.324686
6.598226 0.522482 -0.325783
6.543297 0.077862 -0.205038
6.620182 -0.336664 -0.184256
6.260378 0.890490 -0.332090
6.338332 0.473907 -0.333181
6.285128 0.030741 -0.251228
6.362422 -0.384276 -0.230455
6.000200 0.840047 -0.307238
6.078400 0.425241 -0.338276
6.026041 -0.017808 -0.255157
6.103339 -0.433430 -0.194386
5.740386 0.791319 -0.310020
5.818450 0.376487 -0.341061
5.766521 -0.063004 -0.376734
5.844819 -0.480747 -0.275999
5.480574 0.742507 -0.310501
5.559229 0.324739 -0.271605
5.506409 -0.111914 -0.376060
5.586082 -0.530004 -0.235332
5.220782 0.693615 -0.308674
5.298573 0.278732 -0.339714
5.247362 -0.162174 -0.323103
5.327156 -0.578623 -0.242363
4.961031 0.644647 -0.304543
5.038686 0.229738 -0.335581
4.986297 -0.209965 -0.367786
5.067575 -0.627147 -0.267086
4.700180 0.597119 -0.328045
4.778498 0.181039 -0.339127
4.724823 -0.258211 -0.400150
4.806846 -0.675670 -0.309484
4.437950 0.550401 -0.369179
4.516878 0.133291 -0.370316
4.466467 -0.308300 -0.350286
4.546226 -0.724558 -0.329573
4.178314 0.500624 -0.348131
4.257337 0.083674 -0.349262
4.204508 -0.356807 -0.378006
4.282583 -0.773345 -0.397268
3.918324 0.451274 -0.334755
3.994377 0.035940 -0.385771
3.941995 -0.405503 -0.403383
4.022576 -0.822741 -0.382729
3.651910 0.405820 -0.408743
3.734924 -0.013829 -0.360096
3.681830 -0.455013 -0.386518
3.762718 -0.872193 -0.365885
3.391451 0.356212 -0.390697
3.471066 -0.061903 -0.391914
3.418610 -0.504013 -0.407213
3.496788 -0.921668 -0.426487
3.131172 0.306553 -0.370340
3.210907 -0.111539 -0.371567
3.154896 -0.553191 -0.425541
3.236607 -0.971351 -0.404976
2.867150 0.258409 -0.387447
2.947108 -0.160208 -0.388710
2.898527 -0.603410 -0.361887
2.976635 -1.021078 -0.381153
2.602665 0.210091 -0.402180
2.682845 -0.209051 -0.403484
2.634570 -0.652805 -0.375532
2.708602 -1.071210 -0.434593
2.342364 0.160173 -0.374826
2.422663 -0.258947 -0.376144
2.374771 -0.702669 -0.347065
2.448427 -1.121147 -0.406086
2.078598 0.111244 -0.374916
2.154229 -0.307447 -0.415958
2.100449 -0.751859 -0.435373
2.183697 -1.171429 -0.414974
1.818581 0.061209 -0.342911
1.897895 -0.358088 -0.354187
1.840189 -0.801983 -0.402166
1.918575 -1.221873 -0.421471
1.540514 0.015160 -0.437237
1.621580 -0.406084 -0.438707
1.569016 -0.851923 -0.445858
1.647577 -1.272916 -0.465181
1.280013 -0.035139 -0.400463
1.361198 -0.456361 -0.401951
1.308718 -0.902226 -0.407932
1.387244 -1.323226 -0.427252
1.007204 -0.083251 -0.440342
1.088712 -0.505547 -0.441904
1.048770 -0.952548 -0.367701
1.121078 -1.374129 -0.426527
0.746727 -0.133719 -0.398838
0.828354 -0.555991 -0.400419
0.775938 -1.003067 -0.404053
0.856236 -1.425017 -0.413519
0.472631 -0.182253 -0.433767
0.561478 -0.606023 -0.396023
0.502145 -1.053860 -0.437866
0.587848 -1.476368 -0.417816
0.214097 -0.233100 -0.377695
0.288900 -0.655927 -0.418701
0.242019 -1.104476 -0.390474
0.320827 -1.527696 -0.409817
-0.045765 -0.283708 -0.329159
0.034500 -0.706798 -0.340666
-0.023405 -1.155311 -0.370218
0.046031 -1.579996 -0.438658
-0.323213 -0.332572 -0.366470
-0.240708 -0.756946 -0.368250
-0.300844 -1.206776 -0.406351
-0.229659 -1.632557 -0.464926
-0.605883 -0.381374 -0.420729
-0.525043 -0.807193 -0.432390
-0.577243 -1.258426 -0.430077
-0.498012 -1.684408 -0.449465
-0.885572 -0.430852 -0.452763
-0.802327 -0.857923 -0.454729
-0.863135 -1.310816 -0.490259
-0.775081 -1.737415 -0.470613
-1.164009 -0.480759 -0.472412
-1.080444 -0.908904 -0.474455
-1.123578 -1.361933 -0.430748
-1.044097 -1.789573 -0.450157
-1.440917 -0.531042 -0.479713
-1.350121 -0.960098 -0.452646
-1.399784 -1.414113 -0.436993
-1.310944 -1.841554 -0.417509
-1.711183 -0.581873 -0.455313
-1.627107 -1.011481 -0.457489
-1.681421 -1.466843 -0.460051
-1.592045 -1.895459 -0.440666
-1.994065 -0.632334 -0.476835
-1.909646 -1.063154 -0.479105
-1.961482 -1.519657 -0.470730
-1.869128 -1.948987 -0.441767
-2.275264 -0.683143 -0.486000
-2.190529 -1.115037 -0.488350
-2.242270 -1.572705 -0.478754
-2.149323 -2.003056 -0.449913
-2.567857 -0.733932 -0.531038
-2.480058 -1.167375 -0.523859
-2.531741 -1.626641 -0.513010
-2.440757 -2.058781 -0.493950
-2.848037 -0.785312 -0.525137
-2.762592 -1.219766 -0.527683
-2.805929 -1.679484 -0.486757
-2.714516 -2.112251 -0.467798
-3.123046 -0.836942 -0.497412
-3.023315 -1.271525 -0.452038
-3.085925 -1.732956 -0.477127
-3.005224 -2.168180 -0.496647
-3.406953 -0.888652 -0.495813
-3.320954 -1.324845 -0.498514
-3.369293 -1.786880 -0.474403
-3.279771 -2.221991 -0.465235
-3.703468 -0.940586 -0.529657
-3.614080 -1.378263 -0.522928
-3.656251 -1.841302 -0.478495
-3.575165 -2.278869 -0.498049
-3.985824 -0.992767 -0.512991
-3.899121 -1.431521 -0.515894
-3.950093 -1.896567 -0.498827
-3.856572 -2.333895 -0.480343
-4.287550 -1.045332 -0.550558
-4.197271 -1.485675 -0.544096
-4.251276 -1.952768 -0.535221
-4.153993 -2.391365 -0.507391
-4.554955 -1.097696 -0.481039
-4.470867 -1.538651 -0.493589
-4.547331 -2.008665 -0.549665
-4.452589 -2.449165 -0.531458
-4.871755 -1.151077 -0.550562
-4.783912 -1.594153 -0.553799
-4.834430 -2.063803 -0.532881
-4.755619 -2.507776 -0.561962
-5.159853 -1.204187 -0.532166
-5.088596 -1.649443 -0.582542
-5.135579 -2.120596 -0.550911
-5.039722 -2.563720 -0.532978
-5.462349 -1.257885 -0.548470
-5.359946 -1.702712 -0.514404
-5.437815 -2.177705 -0.565907
-5.341350 -2.622415 -0.548120
-5.776616 -1.312245 -0.589752
-5.694644 -1.760563 -0.612049
-5.741111 -2.235124 -0.577852
-5.658148 -2.683562 -0.597584
-6.085114 -1.366745 -0.609171
-5.995629 -1.816317 -0.612896
-6.045439 -2.292849 -0.586727
-5.947756 -2.740730 -0.569242
-6.376164 -1.420837 -0.579039
-6.290068 -1.871771 -0.592150
-6.350766 -2.350874 -0.592512
-6.270912 -2.803181 -0.621574
-6.713208 -1.477073 -0.657032
-6.626585 -1.930745 -0.670292
-6.657063 -2.409195 -0.595194
-6.576997 -2.863168 -0.624249
-7.036940 -1.533137 -0.694523
-6.919024 -1.986456 -0.634138
-6.979786 -2.469658 -0.631588
-6.880180 -2.922846 -0.614592
-7.330529 -1.588043 -0.655167
-7.223565 -2.043327 -0.622683
-7.272448 -2.526703 -0.591175
-7.172341 -2.980929 -0.574327
-7.656703 -1.644805 -0.686094
-7.532857 -2.100799 -0.617292
-7.597590 -2.587861 -0.620995
-7.496771 -3.044220 -0.604328
-7.967887 -1.701058 -0.677124
-7.859386 -2.160012 -0.645201
-7.911884 -2.647888 -0.620050
-7.806355 -3.105322 -0.594448
-8.279902 -1.757582 -0.664968
-8.191540 -2.220007 -0.678722
-8.218781 -2.707162 -0.597706
-8.116756 -3.166695 -0.581377
-8.614080 -1.815676 -0.694790
-8.504025 -2.278439 -0.663452
-8.568922 -2.772098 -0.662531
-8.461823 -3.233769 -0.637375
-8.945446 -1.873913 -0.712019
-8.834579 -2.338787 -0.680990
-8.877819 -2.831991 -0.633530
-8.774378 -3.295792 -0.617580
-9.238308 -1.929903 -0.645048
-9.144466 -2.397370 -0.650145
-9.209356 -2.894978 -0.646135
-9.105209 -3.360913 -0.630379
-9.589659 -1.989988 -0.691206
-9.495220 -2.460180 -0.696487
-9.506258 -2.953617 -0.583851
-9.419477 -3.423500 -0.603937
-9.942898 -2.050571 -0.733467
-9.825081 -2.521181 -0.694483
-9.894564 -3.024493 -0.696114
-9.770731 -3.492273 -0.645248
-10.279360 -2.110286 -0.736425
-10.160664 -2.582992 -0.697803
-10.211615 -3.086160 -0.662445
-10.105350 -3.558499 -0.647280
-10.598095 -2.168939 -0.700539
-10.502159 -2.645655 -0.706301
-10.567003 -3.153157 -0.695808
-10.459927 -3.628178 -0.680864
-10.975080 -2.232269 -0.766462
-10.859318 -2.710225 -0.737370
-10.885790 -3.215404 -0.655172
-10.797186 -3.695173 -0.675440
-11.315334 -2.293103 -0.758287
-11.218206 -2.775267 -0.764429
-11.263515 -3.285893 -0.715708
-11.135559 -3.762510 -0.666340
-11.631897 -2.352267 -0.703033
-11.519604 -2.834302 -0.683256
-11.623735 -3.354231 -0.737185
-11.494675 -3.833469 -0.688217
-12.014164 -2.417035 -0.756721
-11.920980 -2.904517 -0.771849
-11.985580 -3.423024 -0.754593
-11.875376 -3.908228 -0.740530
-12.383312 -2.481080 -0.780199
-12.264189 -2.968587 -0.752506
-12.328648 -3.489403 -0.733585
-12.217743 -3.976743 -0.719738
-12.748989 -2.545150 -0.790928
-12.628984 -3.035321 -0.763603
-12.713978 -3.561943 -0.777071
-12.602163 -4.052514 -0.763474
-13.110933 -2.609192 -0.789009
-13.016195 -3.104894 -0.804577
-13.038557 -3.626090 -0.714197
-12.926151 -4.118248 -0.700808
-13.479528 -2.674111 -0.791464
-13.315399 -3.164543 -0.697214
-13.448366 -3.702594 -0.782925
-13.313814 -4.194939 -0.736027
-13.871128 -2.741429 -0.823345
-13.748409 -3.240004 -0.797171
-13.817696 -3.773550 -0.779558
-13.682053 -4.268517 -0.733089
-14.264688 -2.809283 -0.850620
-14.146437 -3.311718 -0.833220
-14.210197 -3.848083 -0.805332
-14.095057 -4.349934 -0.792713
-14.660154 -2.877665 -0.873260
-14.541008 -3.383329 -0.856222
-14.582495 -3.919914 -0.793276
-14.466555 -4.424448 -0.780905
-15.057478 -2.946565 -0.891232
-14.915100 -3.452752 -0.841490
-14.978439 -3.995427 -0.809933
-14.839327 -4.499358 -0.764811
-15.462290 -3.016531 -0.912718
-15.313059 -3.525334 -0.855331
-15.376173 -4.071448 -0.821880
-15.258419 -4.582445 -0.810034
-15.886248 -3.088740 -0.953861
-15.712776 -3.598419 -0.864445
-15.798582 -4.151374 -0.861687
-15.656988 -4.662197 -0.817511
-16.289190 -3.159223 -0.957386
-16.154764 -3.677052 -0.925629
-16.200018 -4.228445 -0.863928
-16.057241 -4.742439 -0.820230
-16.717335 -3.232589 -0.988369
-16.558336 -3.751223 -0.924845
-16.603090 -4.305997 -0.861370
-16.459137 -4.823164 -0.818150
-17.076153 -3.299179 -0.917999
-16.969442 -3.826621 -0.927252
-17.031504 -4.387608 -0.885958
-16.886265 -4.908494 -0.843237
-17.459524 -3.368517 -0.875441
-17.430235 -3.908648 -0.988409
-17.455982 -4.468889 -0.897324
-17.315472 -4.994408 -0.863056
-17.898682 -3.443990 -0.899561
-17.839138 -3.984369 -0.972548
-17.894493 -4.552564 -0.919264
-17.770889 -5.085143 -0.909130
-18.333797 -3.519400 -0.910389
-18.292425 -4.066109 -1.006769
-18.328951 -4.635891 -0.927914
-18.179876 -5.167942 -0.886723
-18.721024 -3.589986 -0.853489
-18.710823 -4.143633 -0.988478
-18.790146 -4.723589 -0.962297
-18.614960 -5.255544 -0.890509
-19.121641 -3.662262 -0.807537
-19.093077 -4.216670 -0.918619
-19.228603 -4.808070 -0.959927
-19.076878 -5.348113 -0.919798
-19.650452 -3.748936 -0.910540
-19.539288 -4.298374 -0.921246
-19.719568 -4.900949 -1.013456
-19.515841 -5.436848 -0.912506
-19.983694 -3.814344 -0.769995
-19.929775 -4.372954 -0.849564
-20.162035 -4.986598 -0.999701
-20.007561 -5.535182 -0.960667
-20.348860 -3.883436 -0.663734
-20.417885 -4.460837 -0.886988
-20.612625 -5.073771 -0.987976
-20.450418 -5.625067 -0.941931
-20.451963 -3.922916 -0.252668
-20.738766 -4.526501 -0.722490
-21.025721 -5.155317 -0.925594
-20.946936 -5.724755 -0.977667
-20.708817 -3.979633 -0.021065
-21.151079 -4.604666 -0.659138
-21.505695 -5.247614 -0.932623
-21.445999 -5.825160 -1.006903
-21.444689 -4.091682 -0.320009
-21.843847 -4.721395 -0.901880
-21.954458 -5.335260 -0.896540
-21.921000 -5.921505 -1.000050
-21.270414 -4.098469 0.390242
-22.287384 -4.804528 -0.855434
-22.512220 -5.440463 -0.971998
-22.397898 -6.018429 -0.987074
-21.548897 -4.157600 0.599991
-22.508360 -4.857149 -0.562923
-22.964718 -5.529258 -0.923656
-22.849586 -6.111048 -0.938881
-21.784590 -4.211648 0.855787
-22.739277 -4.324836 -0.148132
-23.246565 -4.981605 -0.818199
-23.391087 -5.614117 -0.840788
-23.363935 -6.215204 -0.949846
-23.660267 -4.461573 -0.583836
-23.659740 -5.061323 -0.718624
-23.901089 -5.712613 -0.838396
-23.763580 -6.298856 -0.832499
-23.584124 -4.479401 0.016996
-24.122122 -5.148161 -0.663790
-24.461998 -5.819612 -0.878841
-24.357807 -6.417990 -0.908760
-24.416542 -4.606772 -0.300903
-24.670055 -5.247357 -0.687620
-24.892200 -5.905837 -0.778263
-24.920492 -6.531711 -0.941648
-24.538340 -4.648270 0.098354
-25.419008 -5.375484 -0.899590
-25.585260 -6.034903 -0.929800
-25.408270 -6.632080 -0.890270
-24.454819 -4.664205 0.691133
-24.480309 -5.263477 0.539694
-25.961441 -6.112890 -0.761084
-26.011395 -6.753748 -0.942921
-24.761024 -4.727785 0.903389
-25.248501 -5.394512 0.314180
-26.135258 -6.157987 -0.396740
-26.273052 -6.813272 -0.659082
-25.175152 -4.804856 1.017054
-25.274714 -5.419348 0.799866
-26.479607 -6.230947 -0.194025
-26.640827 -6.892320 -0.474480
-28.828476 -5.288757 -1.829330
-27.198185 -5.718419 -0.466019
-28.654884 -5.929220 -1.805313
-27.657684 -6.440985 -0.751606
-27.401810 -7.043733 -0.647793
-29.505177 -5.402000 -1.889919
-27.419163 -5.772177 -0.140364
-29.256073 -6.039201 -1.800053
-27.327370 -6.403421 0.076862
-27.991657 -7.164087 -0.650454
-30.163074 -5.513419 -1.921160
-27.696503 -5.834094 0.134123
-29.911736 -6.157540 -1.832733
-28.628815 -6.634991 -0.555332
-28.724766 -7.311161 -0.769869
-30.824081 -5.625759 -1.943165
-30.570530 -6.276803 -1.856188
-29.209236 -6.748090 -0.529041
-28.977200 -7.369856 -0.455376
-31.510815 -5.741926 -1.975267
-31.232338 -6.396970 -1.870356
-29.618168 -6.833016 -0.346622
-31.391640 -7.127855 -1.860022
-29.655464 -7.507424 -0.505991
-32.185516 -5.857080 -1.984831
-31.897057 -6.518025 -1.875185
-32.033302 -7.252600 -1.841709
-30.359867 -7.650205 -0.565956
-32.916862 -5.980119 -2.029169
-32.687038 -6.658133 -1.971987
-32.738628 -7.388367 -1.864838
-31.342499 -7.845045 -0.842808
-33.682667 -6.108253 -2.088022
-33.419765 -6.790298 -2.007048
-33.462536 -7.527684 -1.890308
-31.426083 -7.873160 -0.367971
-34.351101 -6.224199 -2.055239
-34.148144 -6.922329 -2.025328
-34.290607 -7.684959 -1.985516
-31.628120 -7.923318 0.007265
-35.068890 -6.347146 -2.049780
-34.895332 -7.057690 -2.045362
-35.091911 -7.838258 -2.044004
-31.725338 -7.953946 0.463177
-35.836861 -6.477294 -2.070368
-35.669376 -7.197618 -2.072744
-35.834232 -7.982091 -2.042419
-32.193806 -8.054002 0.628889
-36.584343 -6.605295 -2.061823
-36.415207 -7.333812 -2.064840
-36.611183 -8.132243 -2.053898
-36.306805 -8.837275 -1.955187
-37.334724 -6.734233 -2.042473
-37.187840 -7.474576 -2.063902
-37.423248 -8.288835 -2.077539
-37.115948 -9.002920 -1.980574
-38.071796 -6.861919 -2.000561
-37.899406 -7.606552 -2.004860
-38.174690 -8.435599 -2.042604
-39.090012 -8.610792 -2.111708
-39.912354 -8.770647 -2.098825
-39.628601 -9.518556 -2.029886
-40.664307 -8.918917 -2.023289
-40.418797 -9.682389 -1.983858
-41.492210 -9.080684 -1.986601
-41.334263 -9.870363 -2.009220
-43.118542 -10.238947 -1.980433
5.689901 -0.967559 29.825254
5.636494 -0.973905 29.798088
5.645714 -0.976121 29.803070
5.634113 -0.974507 29.802313
5.660492 -0.973426 29.817030
5.667374 -0.968758 29.823893
5.676611 -0.970394 29.828663
5.631805 -0.975096 29.806580
5.615335 -0.982244 29.796885
5.630679 -0.975386 29.808727
5.648767 -0.975880 29.818043
5.629571 -0.975673 29.810886
5.612942 -0.982862 29.801497
5.654779 -0.971299 29.826723
5.672943 -0.971342 29.835739
5.636216 -0.974675 29.819714
5.698393 -0.966474 29.850975
5.635944 -0.978637 29.821711