# This PCD file was generated using the MATLAB® pcwrite function
# from Computer Vision System Toolbox®.
# .PCD v.7 - Point Cloud Data file format
VERSION .7
FIELDS x y z
SIZE 4 4 4
TYPE F F F
COUNT 1 1 1
WIDTH 748
HEIGHT 1
VIEWPOINT 0 0 0 1 0 0 0
POINTS 748
DATA ascii
1.091839 -0.250396 -0.176488
1.112859 -0.238611 -0.158538
1.219889 -0.179284 -0.055457
1.133601 -0.227001 -0.140181
1.180945 -0.201895 -0.095109
1.081703 -0.255813 -0.193837
1.187794 -0.197901 -0.088980
1.102416 -0.244223 -0.175394
1.175323 -0.205118 -0.102867
1.116364 -0.236410 -0.163265
1.188490 -0.197465 -0.089884
1.136553 -0.225150 -0.144089
1.207767 -0.186282 -0.069796
1.118171 -0.235280 -0.165573
1.182942 -0.200645 -0.097683
1.106431 -0.241712 -0.180524
1.214382 -0.182437 -0.063330
1.120013 -0.234130 -0.167844
1.189424 -0.195731 -0.091629
1.208593 -0.185767 -0.070797
1.146580 -0.219341 -0.141707
1.214853 -0.182144 -0.063885
1.141200 -0.222254 -0.149718
1.209018 -0.185504 -0.071284
1.123800 -0.231777 -0.172270
1.191408 -0.195649 -0.093356
1.142806 -0.221258 -0.151529
1.185900 -0.198807 -0.101109
1.149578 -0.217482 -0.145089
1.192170 -0.195178 -0.094186
1.144440 -0.220247 -0.153308
1.151116 -0.216532 -0.146733
1.192945 -0.194699 -0.095000
1.175067 -0.203370 -0.117507
1.152678 -0.215568 -0.148345
1.193732 -0.194214 -0.095798
1.176192 -0.202677 -0.118647
1.154266 -0.214591 -0.149925
1.194532 -0.193723 -0.096579
1.177334 -0.201975 -0.119764
1.183421 -0.198625 -0.112524
1.195343 -0.193225 -0.097345
1.178494 -0.201263 -0.120858
1.179080 -0.200904 -0.121395
1.196166 -0.192721 -0.098093
1.201002 -0.188992 -0.090123
1.201784 -0.189495 -0.090455
1.159170 -0.211585 -0.154468
1.197001 -0.192211 -0.098825
1.180862 -0.199814 -0.122972
1.212670 -0.183259 -0.074855
1.181465 -0.199447 -0.123486
1.192825 -0.194556 -0.107700
1.156606 -0.212783 -0.164782
1.228039 -0.174490 -0.050627
1.157522 -0.212225 -0.165534
1.193804 -0.193960 -0.108496
1.153472 -0.214332 -0.174533
1.121269 -0.224595 -0.224391
1.189460 -0.196409 -0.117196
1.164278 -0.208472 -0.158703
1.194795 -0.193358 -0.109273
1.155455 -0.213126 -0.176087
1.124004 -0.222934 -0.226512
1.190582 -0.195728 -0.118058
1.166023 -0.207412 -0.160044
1.172547 -0.205926 -0.152287
1.157462 -0.211909 -0.177599
1.109252 -0.233424 -0.262580
1.141256 -0.214494 -0.203192
1.228413 -0.174263 -0.050914
1.181763 -0.198911 -0.135864
1.196813 -0.192134 -0.110765
1.159492 -0.210679 -0.179071
1.149618 -0.213035 -0.196481
1.143673 -0.213031 -0.204927
1.188406 -0.196865 -0.128302
1.165045 -0.207660 -0.171205
1.175863 -0.203919 -0.154644
1.161544 -0.209438 -0.180501
1.129415 -0.222738 -0.241318
1.141544 -0.213653 -0.215254
1.189695 -0.196086 -0.129182
1.166980 -0.206492 -0.172526
1.147348 -0.210810 -0.207436
1.194610 -0.193291 -0.120893
1.167955 -0.205903 -0.173171
1.132405 -0.220934 -0.243297
1.139700 -0.214105 -0.225703
1.190998 -0.195300 -0.130036
1.168935 -0.205312 -0.173807
1.171717 -0.199406 -0.165196
1.179251 -0.201876 -0.156864
1.165714 -0.206923 -0.183234
1.152395 -0.210862 -0.209946
1.159703 -0.204677 -0.192209
1.176040 -0.203644 -0.166242
1.154352 -0.212779 -0.210417
1.157827 -0.208083 -0.201862
1.173564 -0.198294 -0.166345
1.180970 -0.200841 -0.157922
1.167831 -0.205649 -0.184536
1.154914 -0.209347 -0.211480
1.145241 -0.210770 -0.229149
1.193643 -0.193708 -0.131664
1.172903 -0.202924 -0.176249
1.168311 -0.202755 -0.185415
1.154867 -0.206283 -0.212113
1.213656 -0.182486 -0.087235
1.189665 -0.194147 -0.140989
1.169384 -0.202111 -0.186034
1.180412 -0.194828 -0.159027
1.194984 -0.192903 -0.132437
1.174915 -0.201716 -0.177409
1.170462 -0.201464 -0.186642
1.157421 -0.204751 -0.213569
1.184457 -0.198748 -0.159933
1.175928 -0.201109 -0.177974
1.171545 -0.200815 -0.187239
1.182168 -0.193776 -0.160005
1.211002 -0.183921 -0.096876
1.191893 -0.192810 -0.142231
1.165086 -0.203726 -0.206000
1.179209 -0.194907 -0.169563
1.186224 -0.197690 -0.160884
1.174298 -0.201769 -0.188182
1.162610 -0.204731 -0.215771
1.168842 -0.199192 -0.197419
1.201231 -0.189314 -0.124753
1.182593 -0.197434 -0.170460
1.167548 -0.202253 -0.207281
1.181123 -0.193761 -0.170559
1.205310 -0.187025 -0.115883
1.176490 -0.200458 -0.189309
1.179488 -0.196539 -0.180321
1.171175 -0.197797 -0.198605
1.202469 -0.188574 -0.125374
1.184519 -0.196282 -0.171426
1.163033 -0.204005 -0.226966
1.183052 -0.192608 -0.171515
1.206415 -0.186365 -0.116424
1.178700 -0.199138 -0.190392
1.167848 -0.201602 -0.218368
1.159534 -0.202211 -0.236761
1.190703 -0.195013 -0.163105
1.186460 -0.195124 -0.172354
1.175889 -0.197745 -0.200398
1.184997 -0.191448 -0.172433
1.207528 -0.185701 -0.116943
1.180927 -0.197810 -0.191429
1.180366 -0.195545 -0.191612
1.189333 -0.189494 -0.163558
1.204974 -0.187080 -0.126541
1.185231 -0.195551 -0.182586
1.178268 -0.196328 -0.201464
1.170511 -0.196930 -0.220059
1.208649 -0.185033 -0.117438
1.195627 -0.190272 -0.154920
1.182613 -0.194207 -0.192593
1.191158 -0.188408 -0.164355
1.206239 -0.186327 -0.127086
1.190384 -0.192786 -0.174089
1.177584 -0.196270 -0.211897
1.188927 -0.189108 -0.174148
1.221389 -0.178014 -0.080164
1.200294 -0.187798 -0.146195
1.175851 -0.196837 -0.221861
1.180686 -0.192130 -0.202867
1.218841 -0.179390 -0.089743
1.192367 -0.191608 -0.174897
1.191884 -0.189622 -0.175032
1.190912 -0.187929 -0.174946
1.213181 -0.181341 -0.108851
1.187151 -0.191511 -0.194416
1.194845 -0.186217 -0.165836
1.208796 -0.184809 -0.128098
1.194361 -0.190424 -0.175665
1.188294 -0.190833 -0.194843
1.178592 -0.192128 -0.223306
1.212057 -0.183009 -0.118788
1.203428 -0.185938 -0.147401
1.189441 -0.190153 -0.195258
1.196705 -0.185114 -0.166520
1.220270 -0.178543 -0.090277
1.196368 -0.189235 -0.176392
1.190591 -0.189472 -0.195662
1.184039 -0.189521 -0.214707
1.213207 -0.182328 -0.119192
1.205010 -0.185001 -0.147956
1.191744 -0.188789 -0.196054
1.198576 -0.184006 -0.167167
1.220990 -0.178116 -0.090522
1.208276 -0.183362 -0.138603
1.182875 -0.192216 -0.234939
1.186636 -0.187984 -0.215575
1.214363 -0.181644 -0.119572
1.204199 -0.185188 -0.158121
1.194059 -0.187420 -0.196803
1.200457 -0.182894 -0.167775
1.212686 -0.182506 -0.129421
1.200415 -0.186841 -0.177723
1.195222 -0.186734 -0.197160
1.189248 -0.186441 -0.216391
1.206788 -0.185604 -0.158686
1.199178 -0.187281 -0.187717
1.196387 -0.186046 -0.197505
1.199990 -0.182556 -0.178032
1.213997 -0.181732 -0.129809
1.211181 -0.181645 -0.139495
1.197554 -0.185357 -0.197839
1.201011 -0.181953 -0.178324
1.216693 -0.180269 -0.120262
1.199259 -0.186944 -0.198070
1.205151 -0.182229 -0.168958
1.210882 -0.178582 -0.139694
1.207453 -0.185085 -0.169173
1.204502 -0.184430 -0.178889
1.191622 -0.187053 -0.237483
1.196646 -0.182690 -0.208117
1.217865 -0.179578 -0.120572
1.211416 -0.181219 -0.149854
1.199078 -0.184010 -0.208539
1.195830 -0.182560 -0.218199
1.216635 -0.180178 -0.130506
1.204670 -0.184044 -0.189196
1.202251 -0.182591 -0.199053
1.207111 -0.178971 -0.169603
1.219043 -0.178885 -0.120858
1.213036 -0.180266 -0.150247
1.201583 -0.182536 -0.209134
1.206152 -0.178926 -0.179626
1.217963 -0.179397 -0.130814
1.208624 -0.182004 -0.179890
1.204614 -0.181202 -0.199589
1.201656 -0.179743 -0.209306
1.220225 -0.178190 -0.121120
1.212994 -0.180006 -0.160442
1.204098 -0.181059 -0.209678
1.201144 -0.179436 -0.219404
1.219295 -0.178615 -0.131095
1.210697 -0.180787 -0.180327
1.206985 -0.179810 -0.200077
1.204174 -0.178264 -0.209824
1.215617 -0.180408 -0.160828
1.208699 -0.181393 -0.200260
1.206622 -0.179578 -0.210171
1.203815 -0.177868 -0.219926
1.220632 -0.177831 -0.131349
1.211333 -0.180131 -0.190601
1.209363 -0.178415 -0.200517
1.206701 -0.176783 -0.210292
1.216103 -0.180003 -0.171043
1.211079 -0.179997 -0.200688
1.216167 -0.176204 -0.161143
1.212385 -0.175269 -0.180843
1.221973 -0.177045 -0.131576
1.213568 -0.178822 -0.190980
1.211749 -0.177018 -0.200908
1.213429 -0.174657 -0.181009
1.223795 -0.176098 -0.121761
1.218350 -0.176866 -0.161405
1.212945 -0.176318 -0.201086
1.209182 -0.174726 -0.220807
1.223317 -0.176258 -0.131776
1.215809 -0.177510 -0.191313
1.209427 -0.176607 -0.240960
1.210528 -0.173938 -0.220993
1.224992 -0.175398 -0.121927
1.221216 -0.175471 -0.151717
1.215340 -0.174918 -0.201405
1.216570 -0.172821 -0.181444
1.223739 -0.175894 -0.141896
1.218055 -0.176198 -0.191601
1.212424 -0.174856 -0.241329
1.213225 -0.172363 -0.221325
1.226191 -0.174698 -0.122068
1.221944 -0.174766 -0.161865
1.221555 -0.173054 -0.161861
1.218670 -0.171595 -0.181681
1.232224 -0.172001 -0.052380
1.227923 -0.172953 -0.102187
1.218942 -0.172816 -0.201793
1.216876 -0.170835 -0.211648
1.223888 -0.175454 -0.172041
1.221434 -0.174227 -0.191948
1.219341 -0.172143 -0.211866
1.220774 -0.170368 -0.181875
1.226743 -0.174142 -0.142189
1.222562 -0.173569 -0.192040
1.221348 -0.171414 -0.201991
1.221827 -0.169755 -0.181956
1.225844 -0.174315 -0.172192
1.225553 -0.172663 -0.162181
1.225165 -0.170951 -0.162158
1.226495 -0.170043 -0.132166
1.230624 -0.172466 -0.092353
1.229728 -0.171901 -0.102326
1.223758 -0.170011 -0.202140
1.221345 -0.167632 -0.221993
1.229401 -0.172711 -0.132338
1.229710 -0.171634 -0.112339
1.224964 -0.169310 -0.202197
1.225562 -0.168183 -0.172156
1.230080 -0.172317 -0.132366
1.229055 -0.171182 -0.142337
1.224464 -0.167845 -0.242197
1.224059 -0.166054 -0.222106
1.228766 -0.172151 -0.212363
1.229490 -0.170651 -0.152355
1.228783 -0.168847 -0.162309
1.227102 -0.166688 -0.182203
1.231437 -0.171528 -0.132402
1.229589 -0.169761 -0.182362
1.228585 -0.167207 -0.202293
1.227121 -0.164877 -0.212179
1.231724 -0.170898 -0.172408
1.231150 -0.169688 -0.152383
1.229593 -0.166184 -0.212294
1.228133 -0.163690 -0.222173
1.232864 -0.171049 -0.102413
1.232444 -0.170324 -0.102398
1.231001 -0.165807 -0.202296
1.229687 -0.163389 -0.212182
1.233528 -0.170200 -0.142404
1.232862 -0.169527 -0.122387
1.231962 -0.163057 -0.252237
1.230851 -0.162115 -0.222150
1.234283 -0.169763 -0.142390
1.233875 -0.167000 -0.192341
1.233418 -0.164407 -0.202251
1.232210 -0.161329 -0.222117
1.236669 -0.167455 -0.222329
1.235141 -0.165990 -0.202301
1.234625 -0.163709 -0.202210
1.233410 -0.163632 -0.172167
1.236631 -0.168057 -0.172315
1.236140 -0.165690 -0.192264
1.235833 -0.163010 -0.202157
1.235034 -0.159095 -0.231989
1.237967 -0.167169 -0.182256
1.237272 -0.165035 -0.192208
1.237041 -0.162312 -0.202091
1.235373 -0.162498 -0.172071
1.238593 -0.166923 -0.172209
1.238404 -0.164381 -0.192142
1.238248 -0.161615 -0.202014
1.237901 -0.157439 -0.231819
1.240079 -0.165949 -0.182120
1.237793 -0.165845 -0.152157
1.239455 -0.160919 -0.201924
1.239001 -0.157405 -0.221750
1.240553 -0.165792 -0.172063
1.240667 -0.163075 -0.191973
1.240661 -0.160223 -0.201822
1.238722 -0.159965 -0.181809
1.244815 -0.162751 -0.221806
1.242384 -0.161807 -0.201836
1.241867 -0.159528 -0.201708
1.241714 -0.155841 -0.221507
1.240317 -0.166279 -0.142002
1.242928 -0.161773 -0.191760
1.245590 -0.155627 -0.241374
1.243069 -0.155060 -0.221365
1.241070 -0.165845 -0.141920
1.238897 -0.166043 -0.122000
1.244276 -0.158141 -0.201444
1.241885 -0.158144 -0.181478
1.241822 -0.165413 -0.141830
1.245185 -0.160473 -0.191501
1.248599 -0.153895 -0.241013
1.245777 -0.153502 -0.221041
1.245445 -0.162975 -0.171527
1.247200 -0.159035 -0.201283
1.250957 -0.152099 -0.250730
1.247129 -0.152724 -0.220858
1.243324 -0.164549 -0.141627
1.247440 -0.159177 -0.191196
1.251603 -0.152168 -0.240592
1.247620 -0.153044 -0.210759
1.247397 -0.161854 -0.171243
1.248565 -0.158531 -0.191027
1.245062 -0.159450 -0.161182
1.246090 -0.155727 -0.180889
1.244824 -0.163688 -0.141394
1.249689 -0.157885 -0.190846
1.250281 -0.154691 -0.200572
1.251178 -0.150400 -0.220229
1.249344 -0.160736 -0.170921
1.247250 -0.160126 -0.161007
1.251479 -0.154004 -0.200361
1.247101 -0.155749 -0.170665
1.250317 -0.160179 -0.170744
1.250672 -0.157602 -0.180582
1.247756 -0.157906 -0.160708
1.250391 -0.152658 -0.190187
1.256914 -0.155917 -0.209987
1.247707 -0.160145 -0.150818
1.248652 -0.157393 -0.160532
1.249043 -0.154637 -0.170294
1.252257 -0.159068 -0.170363
1.252762 -0.156405 -0.180172
1.255062 -0.151952 -0.199657
1.252629 -0.151377 -0.189736
1.251669 -0.159525 -0.160332
1.249347 -0.159207 -0.150479
1.256253 -0.151271 -0.199398
1.250979 -0.153529 -0.169883
1.247671 -0.162178 -0.130704
1.254846 -0.155213 -0.179719
1.263552 -0.145323 -0.238305
1.259232 -0.145789 -0.218604
1.255157 -0.157409 -0.169718
1.250982 -0.158272 -0.150107
1.258629 -0.149913 -0.198845
1.252910 -0.152426 -0.169433
1.250785 -0.160276 -0.140160
1.258633 -0.152766 -0.188996
1.266518 -0.143629 -0.237584
1.255478 -0.150354 -0.178946
1.257083 -0.156310 -0.169240
1.261526 -0.150831 -0.198468
1.253998 -0.154338 -0.159287
1.254834 -0.151328 -0.168945
1.250337 -0.160656 -0.130041
1.258995 -0.152845 -0.178688
1.254884 -0.153833 -0.159048
1.252286 -0.153994 -0.149260
1.259002 -0.155216 -0.168723
1.263888 -0.149484 -0.197831
1.263357 -0.147217 -0.197596
1.256750 -0.150235 -0.168419
1.253737 -0.158593 -0.139365
1.263062 -0.150242 -0.187803
1.264534 -0.146547 -0.197254
1.261507 -0.146310 -0.187483
1.252324 -0.159524 -0.129474
1.257931 -0.154025 -0.158465
1.265708 -0.145879 -0.196900
1.258660 -0.149149 -0.167853
1.255204 -0.157758 -0.138923
1.265263 -0.148989 -0.187140
1.266879 -0.145213 -0.196534
1.269847 -0.139739 -0.215688
1.262816 -0.153046 -0.167573
1.266360 -0.148366 -0.186791
1.259286 -0.151328 -0.157722
1.262681 -0.146253 -0.176853
1.256665 -0.156928 -0.138451
1.267454 -0.147744 -0.186432
1.269214 -0.143887 -0.195768
1.261508 -0.147530 -0.166934
1.264711 -0.151970 -0.166941
1.268546 -0.147124 -0.186062
1.263369 -0.148559 -0.166689
1.255656 -0.152687 -0.137949
1.258119 -0.156104 -0.137951
1.269635 -0.146507 -0.185681
1.271538 -0.142569 -0.194955
1.272748 -0.138704 -0.204384
1.256259 -0.157290 -0.128162
1.270722 -0.145891 -0.185289
1.275176 -0.140053 -0.204039
1.276388 -0.136027 -0.213435
1.235656 -0.170027 -0.051917
1.261457 -0.152314 -0.146894
1.273849 -0.141259 -0.194096
1.267756 -0.143375 -0.175049
1.268471 -0.149839 -0.165564
1.275545 -0.142865 -0.193943
1.275001 -0.140608 -0.193649
1.268763 -0.142805 -0.174658
1.261004 -0.154470 -0.136862
1.273964 -0.144056 -0.184048
1.276149 -0.139959 -0.193190
1.277647 -0.135931 -0.202509
1.270336 -0.148785 -0.164819
1.275039 -0.143448 -0.183613
1.268988 -0.145378 -0.164538
1.270769 -0.141671 -0.173846
1.262434 -0.153662 -0.136275
1.276110 -0.142843 -0.183167
1.267076 -0.146917 -0.154783
1.255153 -0.154204 -0.117278
1.260132 -0.155100 -0.126615
1.265398 -0.150087 -0.145298
1.270840 -0.144333 -0.163746
1.284124 -0.131655 -0.210301
1.263856 -0.152859 -0.135659
1.278243 -0.141639 -0.182242
1.280706 -0.137386 -0.191242
1.282488 -0.133198 -0.200439
1.274033 -0.146699 -0.163217
1.270044 -0.147166 -0.153895
1.284889 -0.134567 -0.199995
1.286671 -0.130219 -0.209154
1.278177 -0.144222 -0.172054
1.292993 -0.132120 -0.218305
1.295454 -0.127227 -0.227145
1.284886 -0.131848 -0.199331
1.275864 -0.145668 -0.162361
1.284645 -0.137731 -0.190000
1.300051 -0.124176 -0.235675
1.289201 -0.128795 -0.207956
1.266672 -0.151274 -0.134342
1.282468 -0.139261 -0.180267
1.285205 -0.134854 -0.189111
1.287267 -0.130509 -0.198176
1.277681 -0.144646 -0.161469
1.286883 -0.136473 -0.188902
1.289653 -0.131888 -0.197684
1.291714 -0.127383 -0.206708
1.268066 -0.150491 -0.133641
1.284559 -0.138086 -0.179216
1.287431 -0.133605 -0.187979
1.289632 -0.129181 -0.196973
1.279486 -0.143633 -0.160540
1.285598 -0.137503 -0.178674
1.292009 -0.130566 -0.196458
1.280606 -0.136135 -0.169189
1.269449 -0.149715 -0.132913
1.286634 -0.136923 -0.178123
1.303800 -0.122541 -0.222899
1.291978 -0.127866 -0.195723
1.281277 -0.142630 -0.159575
1.287665 -0.136345 -0.177561
1.290738 -0.131751 -0.186198
1.282531 -0.135057 -0.168140
1.270821 -0.148947 -0.132157
1.288692 -0.135770 -0.176989
1.306539 -0.121008 -0.221373
1.297912 -0.123909 -0.203368
1.283054 -0.141636 -0.158575
1.289715 -0.135197 -0.176406
1.292920 -0.130530 -0.184955
1.299137 -0.123224 -0.202664
1.268264 -0.150534 -0.122478
1.290734 -0.134628 -0.175814
1.309256 -0.119489 -0.219793
1.300357 -0.122543 -0.201946
1.284815 -0.140651 -0.157539
1.295665 -0.131555 -0.184064
1.314486 -0.116089 -0.227811
1.301572 -0.121865 -0.201217
1.253266 -0.159549 -0.086490
1.272839 -0.146220 -0.130537
1.311949 -0.117986 -0.218159
1.302781 -0.121190 -0.200476
1.249480 -0.161823 -0.077509
1.281611 -0.140683 -0.147663
1.317301 -0.114520 -0.226067
1.303984 -0.120520 -0.199722
1.274868 -0.146687 -0.129726
1.294765 -0.132380 -0.173342
1.314618 -0.116499 -0.216471
1.305182 -0.119853 -0.198957
1.271279 -0.148853 -0.120610
1.279025 -0.142449 -0.137957
1.320091 -0.112967 -0.224267
1.306375 -0.119189 -0.198180
1.271874 -0.148522 -0.120218
1.296753 -0.131274 -0.172046
1.300410 -0.126356 -0.180267
1.307562 -0.118529 -0.197391
1.285621 -0.140369 -0.145622
1.315003 -0.119808 -0.205775
1.322854 -0.111432 -0.222411
1.308742 -0.117873 -0.196590
1.273055 -0.147866 -0.119417
1.316247 -0.119118 -0.204923
1.319881 -0.113575 -0.212937
1.322737 -0.108147 -0.221337
1.269125 -0.150221 -0.110498
1.299698 -0.129638 -0.170029
1.307953 -0.121677 -0.186580
1.293734 -0.128816 -0.161055
1.274224 -0.147218 -0.118593
1.318715 -0.117749 -0.203182
1.322472 -0.112139 -0.211091
1.312249 -0.115929 -0.194116
1.288738 -0.138640 -0.143424
1.306212 -0.125691 -0.177050
1.305606 -0.123475 -0.176603
1.313406 -0.115289 -0.193269
1.275381 -0.146578 -0.117745
1.297958 -0.130941 -0.159557
1.325036 -0.110721 -0.209194
1.314556 -0.114653 -0.192410
1.252091 -0.160374 -0.075703
1.289443 -0.136336 -0.142246
1.307646 -0.122348 -0.175065
1.315700 -0.114020 -0.191539
1.276525 -0.145945 -0.116874
1.299738 -0.129958 -0.158202
1.327572 -0.109320 -0.207247
1.316838 -0.113392 -0.190657
1.291789 -0.136955 -0.141102
1.305451 -0.126457 -0.165733
1.309663 -0.121235 -0.173487
1.294366 -0.129129 -0.148834
1.257809 -0.157030 -0.083286
1.281927 -0.141181 -0.124128
1.330078 -0.107939 -0.205249
1.319094 -0.112149 -0.188859
1.293288 -0.136129 -0.139896
1.307325 -0.125424 -0.164225
1.336237 -0.104034 -0.212322
1.320211 -0.111534 -0.187944
1.278774 -0.144706 -0.115066
1.323305 -0.115563 -0.187666
1.352466 -0.093558 -0.235359
1.321322 -0.110923 -0.187017
1.294770 -0.135314 -0.138661
1.334570 -0.108653 -0.202769
1.313626 -0.119055 -0.170211
1.297586 -0.127358 -0.146173
1.300712 -0.131848 -0.146000
1.330653 -0.111166 -0.193755
1.335002 -0.105233 -0.201105
1.348669 -0.092506 -0.224774
1.296233 -0.134511 -0.137396
1.316207 -0.120185 -0.169011
1.315570 -0.117988 -0.168514
1.299165 -0.126491 -0.144795
1.280968 -0.143502 -0.113168
1.332955 -0.109904 -0.191729
1.337417 -0.103909 -0.198961
1.325697 -0.108524 -0.183201
1.276118 -0.146369 -0.104873
1.312812 -0.122414 -0.159482
1.317490 -0.116937 -0.166779
1.305934 -0.122097 -0.151152
1.303841 -0.130135 -0.143197
1.329846 -0.111977 -0.181908
1.361160 -0.088794 -0.227639
1.327841 -0.107351 -0.181228
1.277068 -0.145850 -0.103992
1.341790 -0.104698 -0.196299
1.346378 -0.098477 -0.203316
1.328902 -0.106772 -0.180226
1.283105 -0.142334 -0.111185
1.331969 -0.110818 -0.179903
1.363980 -0.087256 -0.224951
1.346115 -0.095286 -0.202012
1.300506 -0.132176 -0.133429
1.344132 -0.103421 -0.194048
1.348828 -0.097142 -0.200940
1.352781 -0.090952 -0.208362
1.261417 -0.155054 -0.080053
1.317218 -0.120009 -0.155283
1.344467 -0.100063 -0.192243
1.332041 -0.105062 -0.177156
1.301891 -0.131422 -0.132051
1.340769 -0.105640 -0.184284
1.373766 -0.081384 -0.228249
1.355310 -0.089577 -0.205822
1.308374 -0.127666 -0.138763
1.341853 -0.105051 -0.183176
1.346750 -0.098823 -0.189911
1.334095 -0.103947 -0.175058
1.303255 -0.130682 -0.130646
1.342929 -0.104468 -0.182058
1.324902 -0.112902 -0.159466
1.335110 -0.103396 -0.173994
1.286197 -0.140654 -0.108054
1.367365 -0.089620 -0.210090
1.372197 -0.082792 -0.216559
1.359033 -0.087558 -0.201921
1.304598 -0.129954 -0.129214
1.345056 -0.103316 -0.179790
1.373530 -0.082072 -0.215113
1.337117 -0.102310 -0.171836
1.263109 -0.154137 -0.078279
1.322295 -0.117257 -0.149962
1.374852 -0.081357 -0.213654
1.361466 -0.086243 -0.199258
1.305920 -0.129240 -0.127755
1.371181 -0.087557 -0.205915
1.376163 -0.080650 -0.212182
1.362667 -0.085595 -0.197909
1.288180 -0.139583 -0.105866
1.378494 -0.083197 -0.211545
1.377463 -0.079949 -0.210697
1.363859 -0.084953 -0.196548
1.307220 -0.128540 -0.126270
1.355324 -0.097360 -0.182114
1.360533 -0.090807 -0.188351
1.341033 -0.100198 -0.167401
1.289146 -0.139063 -0.104743
1.374903 -0.085553 -0.201627
1.404535 -0.063053 -0.235234
1.372267 -0.079688 -0.200672
1.283332 -0.142457 -0.097312
1.376122 -0.084898 -0.200174
1.356581 -0.093519 -0.178874
1.342941 -0.099174 -0.165127
1.309128 -0.127515 -0.123996
1.377331 -0.084250 -0.198708
1.382552 -0.077216 -0.204630
1.374683 -0.078393 -0.197742
1.303357 -0.130888 -0.116491
1.378528 -0.083609 -0.197231
1.408929 -0.060698 -0.229860
1.388299 -0.069589 -0.209636
1.278133 -0.145523 -0.089101
1.328683 -0.113823 -0.142411
1.410366 -0.059930 -0.228040
1.377056 -0.077124 -0.194764
1.330481 -0.115237 -0.141477
1.387320 -0.078463 -0.200841
1.411790 -0.059170 -0.226206
1.390853 -0.068224 -0.206374
1.393894 -0.070552 -0.204864
1.404841 -0.059224 -0.217709
1.414598 -0.057676 -0.222495
1.393359 -0.066890 -0.203062
1.415980 -0.056941 -0.220619
1.381666 -0.074669 -0.188669
1.417349 -0.056215 -0.218730
1.428378 -0.044371 -0.231157
1.418704 -0.055498 -0.216827
1.403586 -0.060678 -0.204225
1.420044 -0.054790 -0.214911
1.398221 -0.064314 -0.196291
1.407915 -0.062488 -0.200798
1.412717 -0.055051 -0.206741
1.449779 -0.036504 -0.235128
1.427388 -0.045698 -0.216902
1.478544 -0.018732 -0.256704
1.388235 -0.071200 -0.179196
1.418395 -0.056316 -0.201234
1.402879 -0.061863 -0.189333
1.390329 -0.070102 -0.175953
1.393000 -0.072321 -0.174442
1.439555 -0.038490 -0.214460
1.429020 -0.050079 -0.201138
1.392375 -0.069033 -0.172670
1.437288 -0.045077 -0.204718
1.414299 -0.055055 -0.187787
1.431451 -0.048815 -0.197092
1.401388 -0.063488 -0.174866
1.439774 -0.043786 -0.200502
1.416528 -0.053899 -0.184009
1.433821 -0.047587 -0.192999
1.396318 -0.066987 -0.165985
1.398915 -0.069251 -0.164414
1.411557 -0.057349 -0.174888
1.407112 -0.064292 -0.167939
1.426947 -0.047634 -0.183485