# This PCD file was generated using the MATLAB® pcwrite function
# from Computer Vision System Toolbox®.
# .PCD v.7 - Point Cloud Data file format
VERSION .7
FIELDS x y z
SIZE 4 4 4
TYPE F F F
COUNT 1 1 1
WIDTH 772
HEIGHT 1
VIEWPOINT 0 0 0 1 0 0 0
POINTS 772
DATA ascii
-0.389692 -0.524668 -0.255526
-0.457551 -0.531474 -0.305047
-0.347558 -0.500238 -0.235925
-0.387580 -0.492970 -0.260382
-0.332431 -0.490850 -0.241494
-0.345272 -0.469277 -0.240326
-0.330528 -0.488801 -0.259938
-0.396902 -0.495447 -0.311097
-0.236545 -0.435815 -0.185835
-0.275068 -0.429720 -0.211177
-0.189335 -0.408807 -0.156699
-0.286515 -0.434606 -0.242391
-0.200825 -0.414236 -0.187390
-0.284507 -0.432360 -0.260432
-0.192686 -0.408828 -0.197962
-0.295290 -0.436829 -0.292112
-0.171731 -0.396379 -0.194706
-0.241299 -0.407256 -0.255440
-0.157212 -0.387487 -0.198046
-0.232643 -0.401530 -0.266283
-0.111384 -0.361457 -0.166193
-0.217565 -0.392448 -0.270045
-0.115813 -0.362985 -0.189977
-0.233938 -0.399788 -0.308852
-0.076817 -0.340783 -0.164086
-0.181235 -0.371115 -0.269812
-0.099378 -0.352195 -0.209305
-0.197184 -0.378201 -0.308740
-0.078932 -0.340149 -0.204358
-0.163597 -0.359558 -0.290183
-0.100659 -0.351037 -0.250189
-0.154659 -0.353720 -0.300231
-0.062263 -0.329272 -0.222927
-0.079394 -0.313668 -0.229295
-0.012540 -0.301439 -0.180151
-0.106707 -0.326568 -0.282984
-0.021937 -0.305626 -0.211241
-0.080067 -0.311682 -0.270047
-0.013572 -0.300204 -0.219988
-0.071261 -0.305973 -0.279257
0.017789 -0.282411 -0.198283
-0.062383 -0.300230 -0.288375
0.060123 -0.258776 -0.160744
-0.024697 -0.279809 -0.259193
0.034407 -0.271689 -0.214891
-0.044415 -0.288636 -0.306332
0.042813 -0.266280 -0.223065
-0.029691 -0.279932 -0.307419
0.117354 -0.225576 -0.137391
0.063066 -0.231806 -0.199001
0.092505 -0.237958 -0.191946
0.005137 -0.259861 -0.301120
0.116923 -0.224085 -0.175773
0.041506 -0.240338 -0.269886
0.098396 -0.233025 -0.222987
0.044938 -0.237399 -0.285835
0.133243 -0.213665 -0.190380
0.080613 -0.218338 -0.253678
0.053135 -0.207964 -0.288497
0.053626 -0.184870 -0.271032
0.131062 -0.213917 -0.213712
0.068197 -0.223310 -0.293555
0.094857 -0.164998 -0.230200
0.175559 -0.189565 -0.164005
0.139915 -0.186449 -0.203790
0.092235 -0.186676 -0.271346
0.108761 -0.157220 -0.229320
0.153054 -0.200504 -0.219832
0.101792 -0.204142 -0.284352
0.111514 -0.176218 -0.262330
0.106780 -0.156376 -0.252794
0.181660 -0.184585 -0.193885
0.115855 -0.195947 -0.283498
0.125463 -0.168264 -0.261264
0.125949 -0.146326 -0.243456
0.170055 -0.189737 -0.233681
0.139941 -0.182843 -0.265909
0.134264 -0.162699 -0.268298
0.124323 -0.145275 -0.266949
0.203192 -0.171515 -0.198842
0.168697 -0.167505 -0.239616
0.143121 -0.157107 -0.275241
0.143358 -0.135326 -0.257236
0.201820 -0.171304 -0.222055
0.157654 -0.171660 -0.279794
0.191706 -0.133402 -0.215019
0.162200 -0.125508 -0.247241
0.234258 -0.153538 -0.186420
0.186025 -0.156582 -0.252937
0.165894 -0.143625 -0.280420
0.160983 -0.124224 -0.270655
0.223601 -0.158126 -0.226445
0.180380 -0.158052 -0.284850
0.208691 -0.122720 -0.227699
0.179681 -0.114513 -0.260291
0.269437 -0.133536 -0.164584
0.222492 -0.136429 -0.231868
0.193401 -0.128058 -0.276522
0.173977 -0.115046 -0.292222
0.268324 -0.133193 -0.187503
0.231084 -0.131041 -0.238032
0.225874 -0.111944 -0.240027
0.197367 -0.103423 -0.272980
0.285652 -0.123375 -0.176102
0.239724 -0.125630 -0.244109
0.234539 -0.106523 -0.246059
0.215711 -0.093959 -0.261982
0.307242 -0.111411 -0.155791
0.252955 -0.118034 -0.241453
0.224930 -0.109172 -0.286625
0.196654 -0.099850 -0.319890
0.288827 -0.119862 -0.213359
0.257149 -0.114744 -0.255993
0.252011 -0.095614 -0.257853
0.228852 -0.084754 -0.282637
0.301628 -0.112385 -0.210218
0.265932 -0.109268 -0.261800
0.243012 -0.097899 -0.298582
0.246890 -0.075504 -0.271062
0.305788 -0.109295 -0.224458
0.261715 -0.109900 -0.293828
0.269668 -0.084621 -0.269287
0.251350 -0.071739 -0.285548
0.318547 -0.101859 -0.221059
0.283635 -0.098254 -0.273144
0.278565 -0.079094 -0.274868
0.282325 -0.057428 -0.247136
0.322924 -0.098649 -0.235207
0.292554 -0.092717 -0.278679
0.283251 -0.075367 -0.289222
0.269447 -0.060504 -0.296778
0.335636 -0.091256 -0.231551
0.301517 -0.087160 -0.284122
0.313246 -0.060860 -0.250138
0.299852 -0.046562 -0.257780
0.340229 -0.087927 -0.245603
0.310523 -0.081583 -0.289474
0.322008 -0.055439 -0.255287
0.300296 -0.044336 -0.280835
0.368685 -0.072744 -0.205786
0.335648 -0.068633 -0.258852
0.314589 -0.056790 -0.296273
0.317547 -0.035620 -0.268064
0.357699 -0.077133 -0.255643
0.328663 -0.070375 -0.299899
0.351621 -0.039573 -0.238258
0.342688 -0.023981 -0.237031
0.385565 -0.062328 -0.215270
0.353336 -0.057719 -0.268789
0.348539 -0.039068 -0.270194
0.335405 -0.024608 -0.277984
0.379075 -0.064434 -0.256235
0.362239 -0.052236 -0.273622
0.353607 -0.035149 -0.284073
0.360086 -0.013267 -0.246475
0.435707 -0.035709 -0.142291
0.386180 -0.040045 -0.241891
0.366422 -0.028069 -0.279677
0.353421 -0.013528 -0.287537
0.418388 -0.043080 -0.210526
0.380161 -0.041221 -0.283013
0.386574 -0.018076 -0.256792
0.377634 -0.002488 -0.255561
0.462285 -0.020790 -0.122869
0.418086 -0.022975 -0.214068
0.399054 -0.011215 -0.252004
0.371588 -0.002383 -0.296720
0.463154 -0.019335 -0.145180
0.412412 -0.023953 -0.255150
0.404270 -0.007234 -0.265520
0.395327 0.008351 -0.264287
0.467735 -0.016074 -0.158283
0.421226 -0.018560 -0.259390
0.416682 -0.000428 -0.260484
0.389902 0.008823 -0.305530
0.465813 -0.015881 -0.189955
0.430075 -0.013153 -0.263541
0.449644 0.014234 -0.199521
0.413159 0.019248 -0.272651
0.474139 -0.010800 -0.193761
0.438957 -0.007731 -0.267600
0.434447 0.010414 -0.268604
0.408357 0.020086 -0.313965
0.463312 -0.014696 -0.253616
0.438069 -0.006431 -0.299619
0.440075 0.014619 -0.281885
0.431125 0.030200 -0.280649
0.484627 -0.003512 -0.219888
0.456820 0.003150 -0.275447
0.452341 0.021308 -0.276359
0.426947 0.031404 -0.322022
0.480954 -0.003962 -0.261159
0.468926 0.009903 -0.269823
0.445522 0.021019 -0.327183
0.449219 0.041202 -0.288280
0.495795 0.004164 -0.245906
0.474808 0.014081 -0.282928
0.482729 0.036684 -0.245968
0.458312 0.046721 -0.291956
0.498719 0.006820 -0.268341
0.486835 0.020772 -0.277064
0.485458 0.039871 -0.268360
0.479800 0.056030 -0.257687
0.519026 0.017366 -0.233796
0.492917 0.025059 -0.290041
0.488499 0.043240 -0.290770
0.476589 0.057794 -0.299031
0.524921 0.021370 -0.246580
0.502015 0.030564 -0.293459
0.517766 0.055605 -0.227457
0.494617 0.065922 -0.273878
0.541798 0.030265 -0.221116
0.511141 0.036080 -0.296785
0.517983 0.058015 -0.259212
0.506489 0.072170 -0.267563
0.542484 0.031978 -0.252880
0.522997 0.042640 -0.290445
0.521390 0.061587 -0.281452
0.504217 0.074481 -0.308942
0.553863 0.038408 -0.246293
0.529475 0.047140 -0.303156
0.535769 0.068739 -0.265294
0.513480 0.080063 -0.312057
0.572588 0.047966 -0.210689
0.551473 0.057426 -0.258099
0.539515 0.072502 -0.287448
0.522769 0.085654 -0.315079
0.566602 0.046932 -0.271307
0.547913 0.058237 -0.309153
0.553655 0.079497 -0.271013
0.542442 0.093821 -0.279456
0.601345 0.063120 -0.167685
0.569239 0.068106 -0.263681
0.569977 0.087046 -0.244729
0.548974 0.098656 -0.291860
0.593639 0.061465 -0.237978
0.566448 0.069367 -0.314774
0.571634 0.090287 -0.276367
0.560563 0.104696 -0.284853
0.619945 0.073851 -0.162766
0.587096 0.078816 -0.268902
0.587565 0.097589 -0.249775
0.576774 0.111678 -0.258309
0.606849 0.070222 -0.262362
0.585077 0.080526 -0.320018
0.589702 0.101104 -0.281355
0.569577 0.113726 -0.328763
0.630123 0.081203 -0.196449
0.605039 0.089552 -0.273759
0.605237 0.108156 -0.254463
0.594588 0.122331 -0.263035
0.634580 0.084701 -0.218135
0.603793 0.091711 -0.324883
0.616186 0.113950 -0.246905
0.588456 0.125003 -0.333569
0.641254 0.089100 -0.230018
0.623063 0.100312 -0.278250
0.622987 0.118747 -0.258792
0.606244 0.131996 -0.296726
0.642596 0.091562 -0.271270
0.622589 0.102919 -0.329367
0.633826 0.124462 -0.251019
0.615439 0.137473 -0.298822
0.658614 0.099440 -0.233975
0.641163 0.111092 -0.282376
0.640810 0.129356 -0.262760
0.630448 0.143701 -0.271399
0.667320 0.104616 -0.235821
0.648484 0.116020 -0.294134
0.651536 0.134992 -0.254775
0.633883 0.148439 -0.302733
0.680875 0.111430 -0.208016
0.672784 0.125283 -0.207346
0.658700 0.139981 -0.266366
0.648483 0.154412 -0.275034
0.690928 0.116982 -0.199775
0.662012 0.125771 -0.327325
0.669309 0.145536 -0.258171
0.652394 0.159420 -0.306270
0.700846 0.122450 -0.191421
0.677566 0.132699 -0.289522
0.676653 0.150618 -0.269609
0.666580 0.165135 -0.278303
0.696742 0.123701 -0.281900
0.680869 0.136938 -0.330633
0.687142 0.156091 -0.261207
0.670966 0.170413 -0.309432
0.715019 0.131651 -0.214006
0.695858 0.143520 -0.292541
0.694661 0.161265 -0.272488
0.684734 0.175868 -0.281205
0.724828 0.137036 -0.205370
0.699785 0.148115 -0.333558
0.705028 0.166653 -0.263881
0.695243 0.181179 -0.272618
0.732168 0.141773 -0.216482
0.714204 0.154348 -0.295189
0.712721 0.171918 -0.275001
0.702939 0.186607 -0.283739
0.737489 0.146124 -0.247402
0.722234 0.159647 -0.306306
0.722961 0.177220 -0.266193
0.713323 0.191832 -0.274949
0.746315 0.151319 -0.248449
0.732597 0.165180 -0.297466
0.730826 0.182574 -0.277149
0.722379 0.197159 -0.275977
0.755152 0.156514 -0.249407
0.740799 0.170568 -0.308413
0.740937 0.187788 -0.268141
0.731445 0.202486 -0.276914
0.763998 0.161709 -0.250276
0.751033 0.176012 -0.299370
0.748971 0.193230 -0.278931
0.740520 0.207812 -0.277758
0.772852 0.166903 -0.251055
0.759403 0.181487 -0.310145
0.758950 0.198355 -0.269726
0.748641 0.213461 -0.288460
0.787440 0.172231 -0.171950
0.775791 0.186011 -0.221153
0.767150 0.203882 -0.280346
0.758696 0.218462 -0.279173
0.790585 0.177287 -0.252344
0.775199 0.192992 -0.351395
0.776994 0.208916 -0.270947
0.764543 0.225428 -0.319576
0.801157 0.182264 -0.222904
0.788007 0.197664 -0.302060
0.784691 0.214862 -0.291365
0.776901 0.229105 -0.280220
0.808344 0.187665 -0.253276
0.796708 0.203308 -0.312480
0.792694 0.220981 -0.311705
0.785350 0.234922 -0.290571
0.817233 0.192849 -0.253608
0.806534 0.208478 -0.302844
0.803590 0.225162 -0.282073
0.795129 0.239738 -0.280899
0.828840 0.196407 -0.173912
0.817034 0.212910 -0.273137
0.811388 0.231873 -0.312213
0.802203 0.247396 -0.320980
0.835022 0.203209 -0.254001
0.825081 0.219279 -0.303254
0.823305 0.233745 -0.242463
0.812938 0.250988 -0.291181
0.844299 0.207802 -0.234075
0.834102 0.225085 -0.313307
0.831260 0.240535 -0.272422
0.822502 0.255662 -0.281229
0.854294 0.209206 -0.124117
0.845107 0.226423 -0.223387
0.839455 0.248182 -0.312268
0.830206 0.264551 -0.331005
0.862030 0.215693 -0.173976
0.852818 0.235948 -0.313156
0.849374 0.251043 -0.272184
0.840555 0.267017 -0.290957
0.870522 0.222614 -0.223739
0.862211 0.240830 -0.302953
0.858369 0.256975 -0.281904
0.849897 0.271544 -0.280731
0.879315 0.228103 -0.233438
0.871714 0.249136 -0.352557
0.867493 0.261530 -0.271580
0.858971 0.277677 -0.290344
0.886560 0.229091 -0.153177
0.880783 0.251573 -0.302241
0.876638 0.267537 -0.281112
0.868163 0.282105 -0.279939
0.894975 0.234351 -0.162723
0.889484 0.254914 -0.271819
0.885610 0.271993 -0.270612
0.877386 0.288312 -0.289360
0.905239 0.242674 -0.222059
0.899351 0.262290 -0.301156
0.894903 0.278073 -0.279952
0.886424 0.292639 -0.278779
0.915161 0.249593 -0.251333
0.910359 0.271441 -0.350298
0.904971 0.286039 -0.309097
0.895794 0.298918 -0.288006
0.924061 0.254715 -0.250589
0.917911 0.272978 -0.299697
0.913546 0.289526 -0.288373
0.904675 0.303143 -0.277253
0.932957 0.259830 -0.249755
0.929666 0.282547 -0.348586
0.923671 0.296790 -0.307344
0.914189 0.309494 -0.286282
0.939924 0.262626 -0.218983
0.936456 0.283634 -0.297865
0.934093 0.304218 -0.326191
0.924318 0.317075 -0.305126
0.952169 0.271660 -0.267701
0.948955 0.293618 -0.346486
0.942353 0.307505 -0.305216
0.932566 0.320034 -0.284188
0.957241 0.272554 -0.216922
0.954981 0.294254 -0.295661
0.949615 0.309492 -0.274271
0.941125 0.324051 -0.273100
0.971961 0.283799 -0.285213
0.968221 0.304650 -0.343998
0.961009 0.318183 -0.302713
0.950918 0.330537 -0.281726
0.971706 0.279618 -0.184782
0.973480 0.304835 -0.293085
0.967806 0.319891 -0.271646
0.959313 0.334449 -0.270475
0.985204 0.289346 -0.232979
0.986509 0.314534 -0.331231
0.975975 0.323827 -0.260317
0.969240 0.341000 -0.278895
0.988519 0.289213 -0.182099
0.991948 0.315374 -0.290138
0.985965 0.330248 -0.268656
0.978389 0.346214 -0.277342
0.996914 0.293995 -0.180631
0.997875 0.317053 -0.258922
0.998226 0.339409 -0.296584
0.987527 0.351418 -0.275697
1.009026 0.302106 -0.208659
1.010379 0.325868 -0.286821
1.009786 0.347439 -0.314497
0.999865 0.361097 -0.303450
1.024211 0.312772 -0.256205
1.025815 0.337480 -0.334221
1.011917 0.344279 -0.253665
1.009207 0.366404 -0.301577
1.030390 0.315464 -0.234703
1.028767 0.336313 -0.283134
1.028611 0.358126 -0.310627
1.018537 0.371698 -0.299611
1.042124 0.322936 -0.252430
1.044927 0.348323 -0.330193
1.029822 0.354432 -0.249799
1.027854 0.376978 -0.297551
1.047981 0.325433 -0.230814
1.047107 0.346707 -0.279080
1.047385 0.368759 -0.306380
1.031686 0.375584 -0.256338
1.063219 0.335697 -0.267856
1.063985 0.359111 -0.325783
1.059777 0.377229 -0.323629
1.052218 0.394326 -0.332140
1.065521 0.335350 -0.226574
1.067013 0.358533 -0.284415
1.066103 0.379336 -0.301758
1.055724 0.392735 -0.290813
1.077797 0.343105 -0.243806
1.082984 0.369841 -0.320993
1.072117 0.381260 -0.279869
1.071346 0.405122 -0.327217
1.083003 0.345211 -0.221983
1.083620 0.367327 -0.269873
1.084758 0.389852 -0.296762
1.074227 0.403166 -0.285858
1.099367 0.356087 -0.258363
1.101919 0.380508 -0.315822
1.090443 0.391578 -0.274769
1.090408 0.415855 -0.321912
1.096453 0.351947 -0.197683
1.101782 0.377547 -0.264723
1.108993 0.405691 -0.320360
1.099912 0.421196 -0.319117
1.117344 0.366190 -0.253076
1.120783 0.391110 -0.310274
1.108700 0.401833 -0.269303
1.101855 0.418693 -0.277732
1.128438 0.372833 -0.259934
1.130187 0.396386 -0.307359
1.121859 0.410691 -0.285654
1.118863 0.431828 -0.313242
1.139659 0.379542 -0.266655
1.139571 0.401644 -0.304350
1.135292 0.419696 -0.301818
1.128308 0.437117 -0.310163
1.146450 0.382920 -0.254062
1.146726 0.405065 -0.291665
1.146821 0.426887 -0.308231
1.137733 0.442388 -0.306990
1.153074 0.386198 -0.241429
1.158278 0.412106 -0.298051
1.153977 0.430139 -0.295426
1.147135 0.447640 -0.303723
1.137710 0.373363 -0.142923
1.158178 0.409708 -0.256638
1.165608 0.437374 -0.301601
1.156515 0.452873 -0.300362
1.160827 0.388817 -0.197029
1.184179 0.428315 -0.319895
1.172573 0.440507 -0.288662
1.165873 0.458087 -0.296907
1.166806 0.391717 -0.184343
1.186171 0.427657 -0.287906
1.184302 0.447784 -0.294598
1.175206 0.463281 -0.293359
1.183186 0.402120 -0.209450
1.203138 0.438866 -0.312688
1.180920 0.442149 -0.243817
1.184515 0.468454 -0.289719
1.208117 0.418565 -0.262583
1.212581 0.444110 -0.308943
1.202897 0.458112 -0.287222
1.193798 0.473607 -0.285986
1.211600 0.419627 -0.240096
1.224713 0.451435 -0.314496
1.220203 0.469970 -0.311504
1.213502 0.488186 -0.319599
1.229059 0.430610 -0.264477
1.234174 0.456676 -0.310534
1.213128 0.461513 -0.251461
1.212286 0.483850 -0.278243
1.229346 0.429452 -0.232564
1.243607 0.461895 -0.306477
1.241895 0.482729 -0.312698
1.232508 0.498701 -0.311426
1.235179 0.432234 -0.219360
1.241289 0.458213 -0.265128
1.254252 0.490314 -0.317745
1.239142 0.501445 -0.297932
1.253128 0.443468 -0.243227
1.274395 0.481302 -0.335153
1.257821 0.490756 -0.294903
1.251397 0.509125 -0.302876
1.277757 0.459268 -0.285292
1.284024 0.486608 -0.330685
1.270190 0.498333 -0.299730
1.248928 0.504070 -0.261658
1.254875 0.442197 -0.188826
1.277906 0.480206 -0.280116
1.276452 0.501010 -0.286044
1.270166 0.519454 -0.293951
1.273232 0.453637 -0.212200
1.290334 0.487646 -0.284795
1.288899 0.508615 -0.290617
1.267071 0.514041 -0.252821
1.295334 0.467579 -0.244417
1.309437 0.499966 -0.307576
1.294956 0.511166 -0.276816
1.288807 0.529686 -0.284655
1.314541 0.479471 -0.267162
1.322219 0.507586 -0.311860
1.307477 0.518799 -0.281134
1.285088 0.523916 -0.243625
1.292224 0.463137 -0.180809
1.328261 0.510277 -0.297857
1.326879 0.531741 -0.303356
1.320582 0.550816 -0.311086
1.332736 0.489424 -0.257551
1.341113 0.517921 -0.301880
1.325920 0.528879 -0.271284
1.302972 0.533692 -0.234072
1.319999 0.479693 -0.198664
1.346946 0.520482 -0.287765
1.345667 0.541996 -0.293096
1.325684 0.549842 -0.264958
1.324898 0.481897 -0.184912
1.359864 0.528148 -0.291528
1.358600 0.549825 -0.296747
1.352433 0.569129 -0.304356
1.348466 0.496599 -0.215721
1.365486 0.530580 -0.277304
1.364306 0.552141 -0.282465
1.361870 0.574261 -0.298917
1.368709 0.509017 -0.237254
1.389767 0.546299 -0.307408
1.392224 0.571255 -0.321212
1.385907 0.591111 -0.328706
1.373707 0.511254 -0.223124
1.387710 0.543281 -0.275305
1.397988 0.573587 -0.306663
1.376896 0.581465 -0.278968
1.398391 0.526541 -0.252950
1.408622 0.556523 -0.296073
1.411309 0.581596 -0.309619
1.401328 0.598514 -0.308285
1.391261 0.520759 -0.212351
1.406078 0.553227 -0.264032
1.416855 0.583795 -0.294965
1.395355 0.591452 -0.267523
1.408193 0.530875 -0.224250
1.431349 0.569452 -0.293068
1.430226 0.591816 -0.297650
1.420242 0.608732 -0.296318
1.408660 0.530151 -0.201231
1.436594 0.571635 -0.278374
1.435553 0.593881 -0.282896
1.413649 0.601320 -0.255715
1.442736 0.551453 -0.247271
1.466685 0.591090 -0.315367
1.448969 0.601912 -0.285308
1.447107 0.625133 -0.301130
1.456037 0.559100 -0.249807
1.488920 0.605007 -0.334682
1.470873 0.616121 -0.304620
1.460671 0.633393 -0.303264
1.473797 0.569633 -0.260697
1.485691 0.601303 -0.302479
1.480330 0.621194 -0.298082
1.482708 0.648140 -0.322185
1.496212 0.583155 -0.279801
1.525699 0.627373 -0.355255
1.489739 0.626234 -0.291452
1.479533 0.643504 -0.290098
1.491959 0.579361 -0.247899
1.517809 0.620493 -0.314519
1.499101 0.631240 -0.284729
1.484568 0.645215 -0.274983
1.514671 0.593026 -0.266544
1.545332 0.637872 -0.341155
1.508414 0.636212 -0.277913
1.520150 0.670126 -0.318291
1.523829 0.597911 -0.259779
1.536823 0.630644 -0.300604
1.522202 0.644393 -0.279313
1.534187 0.678597 -0.319443
1.551720 0.614838 -0.286111
1.569387 0.651367 -0.334960
1.545245 0.659162 -0.297042
1.539266 0.680305 -0.303905
1.541997 0.607578 -0.245980
1.555634 0.640653 -0.286316
1.559314 0.667476 -0.297965
1.567069 0.699066 -0.329372
1.565474 0.621619 -0.263541
1.602992 0.671265 -0.344571
1.564027 0.669130 -0.282377
1.576749 0.704198 -0.321745
1.564849 0.620225 -0.239972
1.612772 0.676446 -0.336796
1.573338 0.674059 -0.274907
1.586373 0.709293 -0.314024
1.583715 0.631275 -0.248906
1.627375 0.684862 -0.337015
1.582595 0.678950 -0.267345
1.576861 0.700224 -0.274014
1.602778 0.642419 -0.257547
1.617335 0.676770 -0.296837
1.611409 0.697580 -0.291717
1.605451 0.719365 -0.298298
1.586524 0.631127 -0.209932
1.646773 0.695094 -0.320882
1.600944 0.688619 -0.251949
1.614905 0.724342 -0.290295
1.626078 0.655234 -0.250110
1.656384 0.700150 -0.312674
1.630138 0.707432 -0.275720
1.624300 0.729280 -0.282200
1.640334 0.663274 -0.250122
1.681316 0.715378 -0.328017
1.639415 0.712298 -0.267585
1.653701 0.748820 -0.305364
1.638884 0.661394 -0.226435
1.670239 0.706702 -0.288145
1.653781 0.720697 -0.267151
1.642913 0.739033 -0.265732
1.700938 0.699506 -0.296237
1.705848 0.728942 -0.318579
1.699456 0.750742 -0.312950
1.667541 0.755021 -0.280550
1.704987 0.701049 -0.279877
1.715456 0.733957 -0.309777
1.687960 0.741195 -0.273367
1.713253 0.786175 -0.325643
1.741474 0.722941 -0.309552
1.762574 0.763641 -0.354523
1.718543 0.760686 -0.295158
1.686147 0.764715 -0.263207
1.745514 0.724460 -0.292895
1.734479 0.743858 -0.291892
1.727989 0.765593 -0.286122
1.732562 0.796215 -0.307330
1.721597 0.708521 -0.238475
1.793264 0.781067 -0.350762
1.759149 0.785364 -0.307049
1.752864 0.808861 -0.313043
1.741817 0.720179 -0.244646
1.814225 0.793422 -0.356058
1.752185 0.779030 -0.275230
1.767899 0.817706 -0.310983
1.796232 0.753098 -0.295144
1.846552 0.813154 -0.375895
1.778172 0.795194 -0.288056
1.793959 0.834377 -0.323492
1.799944 0.754405 -0.278174
1.833987 0.803623 -0.336156
1.815671 0.819123 -0.315117
1.825840 0.855115 -0.342885
1.803471 0.755607 -0.261229
1.866627 0.823494 -0.355331
1.819616 0.820221 -0.297812
1.807666 0.840347 -0.296272
1.818499 0.763941 -0.258841
1.836136 0.802409 -0.294098
1.834839 0.828963 -0.294975
1.828476 0.853202 -0.300638
1.839468 0.775934 -0.263448
1.886400 0.833633 -0.334378
1.861676 0.845521 -0.306243
1.849437 0.866123 -0.304670
1.824859 0.765936 -0.224862
1.902056 0.842424 -0.330894
1.894615 0.866131 -0.324152
1.853228 0.866953 -0.287096
1.881855 0.800116 -0.271662
1.929628 0.858871 -0.341344
1.880729 0.855235 -0.285178
1.851004 0.863596 -0.262525
1.933593 0.830964 -0.310367
1.945458 0.867726 -0.337300
1.919907 0.879955 -0.309383
1.942599 0.925800 -0.349567
1.918703 0.820789 -0.271571
1.973417 0.884346 -0.346940
1.947533 0.896868 -0.319046
1.964399 0.939101 -0.351925
1.977381 0.855789 -0.315928
1.922258 0.850264 -0.266552
1.981462 0.917934 -0.335086
1.956378 0.931644 -0.319733
1.974566 0.853027 -0.290861
1.999264 0.898234 -0.330671
1.966815 0.906603 -0.296236
1.978170 0.944916 -0.321710
2.040537 0.892355 -0.340405
1.965555 0.875418 -0.271585
2.001001 0.927773 -0.311578
2.000087 0.958238 -0.323336
2.037711 0.889561 -0.314958
2.075092 0.943916 -0.367344
1.985761 0.916119 -0.273054
2.003681 0.958883 -0.304665
2.066512 0.906074 -0.322869
2.053578 0.928884 -0.321655
2.051553 0.958128 -0.320653
2.044287 0.985026 -0.325528
2.054950 0.958803 -0.301717
2.047805 0.985607 -0.306538
2.115523 0.997163 -0.340960
2.088948 1.011991 -0.326292
2.125414 1.002069 -0.327897
2.111443 1.025534 -0.326133
2.135208 1.006912 -0.314738
2.127638 1.034745 -0.319294
2.176100 1.065909 -0.343475
2.180797 1.033601 -0.312900
2.179538 1.066377 -0.323472
2.216977 1.055637 -0.323675
2.202428 1.080056 -0.321850
2.246771 1.073449 -0.327751
1.070707 0.312483 0.737861
2.218809 1.089298 -0.313814
1.048788 0.292632 0.765561
1.026784 0.282333 0.783516
1.041376 0.291937 0.773537
1.030712 0.280529 0.786692
1.069709 0.310731 0.752324
1.050579 0.297654 0.771539
1.060664 0.299480 0.767607
1.044914 0.293635 0.779096
1.033941 0.282073 0.791856
1.018389 0.275707 0.803165
1.034992 0.282571 0.793598
1.019351 0.276164 0.804761
1.050185 0.292143 0.784526
1.055335 0.299915 0.779353
1.086898 0.315469 0.759744
1.042390 0.291096 0.791993
1.029260 0.282189 0.804349