# This PCD file was generated using the MATLAB® pcwrite function
# from Computer Vision System Toolbox®.
# .PCD v.7 - Point Cloud Data file format
VERSION .7
FIELDS x y z
SIZE 4 4 4
TYPE F F F
COUNT 1 1 1
WIDTH 1044
HEIGHT 1
VIEWPOINT 0 0 0 1 0 0 0
POINTS 1044
DATA ascii
36.415649 -12.664841 4.059458
36.171070 -12.105908 3.829100
36.367943 -12.613520 3.588999
36.219498 -12.025064 3.237837
36.383682 -12.546648 3.033541
36.178017 -11.965162 2.742632
36.391594 -12.480127 2.475473
36.154541 -11.899290 2.215027
36.391640 -12.413969 1.914898
36.123711 -11.833797 1.685423
36.359211 -12.353982 1.382936
36.073380 -11.771872 1.169506
33.514664 -12.963526 4.458824
33.159096 -12.467182 4.396137
33.145256 -12.989950 4.411869
32.707367 -12.518837 4.463207
32.723419 -13.029808 4.440393
32.363884 -12.542321 4.392759
32.350739 -13.058466 4.410282
31.991991 -12.574121 4.366098
32.002419 -13.081711 4.352352
31.621332 -12.606300 4.343689
31.609003 -13.116923 4.362846
31.229406 -12.645195 4.357937
31.223091 -13.151055 4.369848
30.861639 -12.678106 4.344166
30.827787 -13.188445 4.397696
30.495245 -12.711374 4.334572
30.467607 -13.217501 4.380877
30.135687 -12.743409 4.320887
30.097845 -13.249801 4.384649
29.793482 -12.771036 4.286331
29.756489 -13.275209 4.351049
29.404736 -12.813262 4.330635
29.400198 -13.305300 4.346270
28.883093 -12.896969 4.597734
29.034893 -13.338612 4.362297
28.721279 -12.871782 4.289381
28.681604 -13.369358 4.365545
28.385500 -13.384551 4.279209
27.902958 -12.975841 4.501802
28.009470 -13.423153 4.332544
27.662878 -12.975412 4.328173
27.675064 -13.450525 4.321484
27.493439 -12.951689 4.027252
27.399851 -13.460939 4.210421
27.016144 -13.029212 4.281191
27.009760 -13.506196 4.310141
26.666115 -13.066017 4.315002
26.660202 -13.540226 4.344692
26.336346 -13.096815 4.317724
26.312527 -13.574537 4.383112
26.007877 -13.127901 4.323965
26.007540 -13.596229 4.346169
25.876850 -14.066065 4.308680
25.875179 -14.529998 4.334072
25.702946 -13.151428 4.289593
25.698669 -13.619652 4.321159
25.497662 -14.108631 4.427547
25.460890 -14.577891 4.524778
25.411692 -13.170551 4.231720
25.359936 -13.653368 4.361458
25.178246 -14.134663 4.434933
25.212320 -14.583397 4.390181
24.962111 -13.247871 4.505981
24.993015 -13.697330 4.467855
24.924118 -14.141657 4.311396
24.928299 -14.598430 4.329424
24.707741 -13.255026 4.383684
24.755623 -13.698784 4.309790
24.585163 -14.174685 4.369846
24.589733 -14.628670 4.388437
24.419329 -13.274994 4.335390
24.433800 -13.729031 4.333471
24.281221 -14.197691 4.359774
24.290386 -14.648851 4.369772
24.131161 -13.295258 4.289896
24.129726 -13.753855 4.324429
23.962055 -14.226089 4.389027
23.967537 -14.676159 4.408560
23.811531 -13.328253 4.319571
23.794731 -13.790287 4.390970
23.664213 -14.248348 4.376139
23.670185 -14.696875 4.396091
23.493479 -13.361494 4.352592
23.512646 -13.808556 4.342844
23.347818 -14.277250 4.411882
23.369755 -14.718993 4.395737
23.207497 -13.382580 4.316004
23.207821 -13.835583 4.352213
23.078541 -14.291122 4.340931
23.085522 -14.736835 4.361683
22.892059 -13.416321 4.355370
22.911640 -13.860044 4.346336
22.794157 -14.310373 4.309250
22.786785 -14.759479 4.367218
22.607464 -13.437940 4.324549
22.638275 -13.876329 4.288200
22.481148 -14.340027 4.354158
22.474545 -14.786881 4.412727
22.294765 -13.472160 4.370186
22.314766 -13.912546 4.361855
22.184053 -14.364850 4.365250
22.181824 -14.808882 4.415073
22.029095 -13.486610 4.298847
22.031937 -13.933567 4.337027
21.888069 -14.389915 4.379297
21.883095 -14.833372 4.438927
21.718847 -13.521309 4.350515
21.735920 -13.960440 4.352081
21.593224 -14.415217 4.396288
21.575489 -14.861446 4.493793
21.420361 -13.551622 4.377449
21.437719 -13.988942 4.379402
21.332567 -14.428221 4.322649
22.237469 -14.084827 1.759283
22.373030 -14.518522 1.431911
21.129696 -13.579106 4.388689
22.096401 -13.609063 1.659508
22.205030 -14.001602 0.948013
22.338995 -14.445928 0.618748
21.935135 -13.077894 1.152863
22.071316 -13.510126 0.811687
22.087059 -13.947922 0.351334
22.241219 -14.391942 -0.045475
21.823839 -13.005220 0.530682
21.945816 -13.450824 0.225323
21.980892 -13.886282 -0.311890
22.046844 -14.369658 -0.445812
21.657604 -12.956062 0.049225
21.825901 -13.385363 -0.408592
21.706425 -13.891096 -0.474060
21.727020 -14.391976 -0.466087
21.440155 -12.930264 -0.290188
21.538071 -13.394943 -0.531895
21.386654 -13.914843 -0.491627
21.407719 -14.414589 -0.483368
21.203466 -12.912567 -0.581032
21.217745 -13.419985 -0.548378
21.081461 -13.932726 -0.553806
21.100233 -14.433122 -0.535801
20.872059 -12.945061 -0.556904
20.886971 -13.450785 -0.523808
20.762398 -13.957069 -0.565540
20.770798 -14.460679 -0.509003
20.573793 -12.959797 -0.643871
20.592154 -13.464119 -0.620087
19.122082 -14.594205 4.219198
20.441303 -13.982922 -0.564732
20.442635 -14.488486 -0.479053
20.251642 -12.988356 -0.642330
18.936678 -14.192505 4.316854
20.286102 -13.483248 -0.675579
18.828453 -14.625497 4.292208
20.123474 -14.513300 -0.474777
19.935280 -13.014201 -0.656918
18.669319 -14.212404 4.295244
18.605927 -14.622966 4.098927
18.825087 -14.963156 3.335310
19.817554 -14.533003 -0.515663
19.604988 -13.049260 -0.611046
18.426392 -14.219057 4.179981
19.637184 -13.542722 -0.634232
18.433128 -14.594239 3.695307
18.603252 -14.958887 3.103271
19.499660 -14.558369 -0.505554
19.290161 -13.075647 -0.619694
18.207718 -14.211248 3.960779
18.961048 -13.776671 0.850067
19.315557 -13.572165 -0.613800
18.325207 -14.528779 2.993082
19.176712 -14.082983 -0.579903
19.129471 -14.608520 -0.270069
18.524248 -13.401041 1.320608
18.989305 -13.093440 -0.683262
18.776970 -13.731916 0.345833
18.744205 -14.172588 -0.061111
18.819780 -14.632170 -0.272980
18.191116 -13.452089 1.485882
18.428959 -13.784113 0.538624
18.464293 -14.181860 -0.187023
18.465696 -14.678284 -0.069138
18.161102 -13.290176 0.251896
18.159773 -13.788450 0.386108
18.141867 -14.215332 -0.116302
18.189888 -14.686586 -0.211941
18.076288 -13.154663 -0.819374
17.884531 -13.795856 0.255177
17.976250 -14.155334 -0.811485
18.000946 -14.648179 -0.791126
17.654737 -13.265697 -0.260605
17.487410 -13.886903 0.739315
17.668617 -13.761374 -0.184757
17.788788 -13.678128 -0.797562
17.669567 -14.177780 -0.833561
17.694878 -14.670033 -0.813004
17.468086 -13.196082 -0.903156
17.492916 -13.693391 -0.876842
17.363071 -14.200518 -0.852901
17.379986 -14.697361 -0.783253
17.160303 -13.220161 -0.921535
17.185799 -13.716874 -0.895020
17.043144 -14.232906 -0.791233
17.069592 -14.722862 -0.770210
16.854378 -13.243086 -0.946941
16.885504 -13.735424 -0.949570
16.256866 -14.602122 2.105326
16.267601 -15.058554 2.209072
16.080990 -13.699271 1.972139
16.537651 -13.276379 -0.901226
16.094940 -14.161320 2.063013
15.940466 -14.651889 2.334095
15.946055 -15.108440 2.477758
15.761478 -13.759830 2.220640
15.771877 -14.221544 2.341654
15.628511 -14.701644 2.566010
15.647145 -15.146086 2.631596
15.438480 -13.828918 2.531141
15.461099 -14.275251 2.574472
15.321033 -14.751378 2.801008
15.334866 -15.195915 2.906544
15.138184 -13.879411 2.717348
15.161344 -14.322515 2.761202
15.028261 -14.791943 2.960217
15.053505 -15.225589 2.987286
14.874180 -13.891699 2.641176
14.878668 -14.355749 2.842550
14.762415 -14.809827 2.924927
14.773917 -15.255406 3.070616
14.604705 -13.909962 2.606596
14.617057 -14.367502 2.758984
14.496292 -14.827993 2.891953
14.509487 -15.273458 3.037849
14.334959 -13.928510 2.574360
14.343835 -14.392260 2.776279
14.229911 -14.846442 2.861290
14.244801 -15.291790 3.007383
14.069710 -13.940351 2.495190
14.080841 -14.404638 2.697262
13.959576 -14.869646 2.872520
13.977058 -15.313339 3.008938
13.799051 -13.959497 2.467606
13.808882 -14.428645 2.709433
13.682978 -14.901979 2.965355
13.718159 -15.325389 2.913696
13.528181 -13.978926 2.442371
13.537409 -14.452881 2.723999
13.426405 -14.907888 2.822857
13.461687 -15.332963 2.771030
13.253676 -14.005532 2.468899
13.265741 -14.478586 2.750856
13.167576 -14.914224 2.682499
13.211123 -15.329426 2.511341
12.981075 -14.029607 2.478073
13.002763 -14.488449 2.651356
12.915825 -14.903492 2.385550
12.956236 -15.326471 2.253681
12.710397 -14.049820 2.459961
12.748799 -14.474118 2.355885
12.655111 -14.902095 2.170053
12.692991 -15.331694 2.077633
12.447746 -14.044469 2.256144
12.486320 -14.470204 2.141796
12.392031 -14.897995 1.926924
12.507669 -14.592257 -0.884132
12.544844 -15.072742 -0.891220
12.183400 -14.032877 2.005009
12.221321 -14.463185 1.900133
12.321444 -14.119257 -0.907104
12.210428 -14.608890 -0.957253
12.245745 -15.096721 -0.894753
11.985554 -13.648874 -0.987782
12.023488 -14.134068 -0.988789
11.909714 -14.636572 -0.928406
11.946984 -15.120056 -0.905624
11.684587 -13.672529 -0.997429
11.722984 -14.157688 -0.998421
11.610226 -14.660258 -0.936703
11.648164 -15.143689 -0.913902
11.383571 -13.696484 -1.004459
11.422432 -14.181604 -1.005440
11.310761 -14.683187 -0.952335
11.349017 -15.171276 -0.879749
11.082529 -13.720735 -1.008865
11.121829 -14.210569 -0.970123
11.011135 -14.707470 -0.955421
11.050420 -15.190933 -0.932613
10.781484 -13.745279 -1.010658
10.821271 -14.230326 -1.011627
10.712084 -14.737240 -0.906170
10.751570 -15.216354 -0.923134
10.480458 -13.770118 -1.009830
10.520709 -14.255127 -1.010799
10.411330 -14.753818 -0.983604
10.452737 -15.241158 -0.921009
10.179477 -13.795248 -1.006378
10.220190 -14.280217 -1.007355
10.111536 -14.778995 -0.978867
10.152579 -15.261820 -0.966072
9.878560 -13.820666 -1.000309
9.921103 -14.310232 -0.961590
9.813316 -14.808527 -0.931747
9.855255 -15.291628 -0.908958
9.576412 -13.842505 -1.021343
9.619800 -14.332415 -0.982700
9.512202 -14.830208 -0.961559
9.554854 -15.313807 -0.938850
9.275434 -13.868518 -1.010029
9.317054 -14.352638 -1.021023
9.212708 -14.856240 -0.948994
9.256025 -15.339781 -0.926311
8.971523 -13.888443 -1.045593
9.016587 -14.378903 -1.007103
8.910186 -14.877584 -0.983479
8.954849 -15.362613 -0.950947
8.676709 -13.926461 -0.939960
8.719034 -14.409964 -0.950924
8.610571 -14.904215 -0.965672
8.655277 -15.388330 -0.943127
8.370254 -13.943216 -0.999931
8.413044 -14.427791 -1.011055
8.311147 -14.931124 -0.945259
8.357315 -15.416019 -0.912827
8.061740 -13.959124 -1.067066
8.110182 -14.451584 -1.018974
8.011936 -14.958309 -0.922245
8.058857 -15.443136 -0.889870
7.760539 -13.986637 -1.042576
7.805128 -14.473491 -1.044022
7.706095 -14.979027 -0.965954
7.748028 -15.459807 -0.993256
7.459588 -14.014426 -1.015461
7.508781 -14.505626 -0.977406
7.405707 -15.005857 -0.947575
7.458446 -15.494920 -0.875809
7.155508 -14.038805 -1.015308
7.199929 -14.524899 -1.026772
7.103122 -15.031081 -0.946342
7.151278 -15.516415 -0.924232
6.848767 -14.061066 -1.032181
6.899661 -14.553219 -0.994431
6.797843 -15.054745 -0.962204
6.847948 -15.541507 -0.930347
6.542788 -14.084887 -1.036499
6.595826 -14.578588 -0.989056
6.924556 -15.382052 2.241554
6.980884 -15.829838 2.346869
6.688965 -14.499876 2.156418
6.229500 -14.103027 -1.087254
6.744854 -14.953424 2.248743
6.681640 -15.426744 2.473890
6.733474 -15.868494 2.539820
6.451684 -14.555077 2.428659
6.501209 -14.999911 2.472065
6.436509 -15.467681 2.668728
6.489155 -15.907119 2.734734
6.201674 -14.597067 2.594830
6.256522 -15.043170 2.667812
6.200825 -15.512201 2.904829
6.254234 -15.948771 2.970964
5.979019 -14.656728 2.909897
6.021509 -15.090546 2.904728
5.955585 -15.549438 3.064175
6.003213 -15.981215 3.090990
5.712949 -14.683418 2.952730
5.783414 -15.133687 3.104240
5.711039 -15.585806 3.215687
5.760934 -16.016745 3.252363
5.410855 -14.687137 2.802603
5.490528 -15.144077 2.992592
5.413531 -15.595832 3.075483
5.477196 -16.034512 3.180393
5.111490 -14.694883 2.684647
5.187747 -15.150919 2.844666
5.134411 -15.615988 3.045673
5.207164 -16.058565 3.189379
4.821628 -14.710009 2.627954
4.897849 -15.166370 2.777689
4.838282 -15.629613 2.940361
4.928900 -16.080017 3.161695
4.517901 -14.718752 2.515671
4.622909 -15.190220 2.791304
4.573466 -15.657386 2.993744
4.624717 -16.093260 3.019524
4.242052 -14.743765 2.542101
4.349930 -15.215349 2.817091
4.282959 -15.675253 2.932762
4.308948 -16.104258 2.841412
4.249364 -14.909609 3.790684
3.954976 -14.763477 2.522583
4.072482 -15.238796 2.825920
3.997738 -15.696058 2.903643
4.091126 -16.147232 3.103773
3.667083 -14.783554 2.505714
3.750621 -15.244154 2.653360
3.556309 -15.662763 2.238008
3.900798 -16.196909 3.464609
3.519366 -16.084929 1.883829
3.702197 -14.951027 3.783455
3.385648 -14.807286 2.520430
3.846222 -15.418017 4.174370
3.324229 -15.209883 2.078398
3.597354 -15.796760 3.539545
2.449847 -15.412306 -1.012325
3.650801 -16.227926 3.565187
2.537966 -15.916816 -0.876987
3.499065 -15.003235 4.057806
2.933906 -14.757342 1.883472
3.469902 -15.399324 3.763851
2.996835 -15.218841 1.932554
2.217520 -14.921516 -1.084263
3.421105 -15.851937 3.921984
2.138145 -15.441183 -0.986523
3.246511 -16.217628 3.069120
2.197878 -15.938181 -0.967548
3.253687 -15.035822 4.160679
1.857881 -14.453314 -1.023186
3.214605 -15.428776 3.838480
1.894164 -14.946241 -1.095127
1.808054 -15.464808 -1.025246
2.926402 -16.232349 2.924690
1.878947 -15.966031 -0.968060
2.435793 -14.838625 2.206371
1.544432 -14.481462 -0.992615
2.989313 -15.468655 4.020866
1.601890 -14.982545 -0.987843
2.640747 -15.830203 3.095760
1.508920 -15.498351 -0.945641
2.988648 -16.341261 4.167835
2.667464 -16.263285 3.014250
1.570086 -15.996866 -0.927174
2.802526 -15.115153 4.496780
1.186828 -14.492980 -1.112083
2.903730 -15.554600 4.683571
1.256008 -15.000591 -1.069534
2.696341 -15.949554 4.269569
1.163393 -15.518888 -1.026230
2.379147 -16.287346 3.000526
1.247486 -16.024807 -0.931450
2.615966 -15.167946 4.786564
0.857657 -14.516684 -1.123112
2.577703 -15.558369 4.495728
0.941933 -15.030140 -1.033230
2.569048 -16.012299 4.761959
0.832915 -15.544596 -1.046093
2.115586 -16.317457 3.075624
0.907075 -16.049364 -0.990101
2.317113 -15.178859 4.697128
0.565547 -14.554341 -1.007431
0.630703 -15.060919 -0.984543
2.229335 -16.017420 4.539783
1.820858 -15.911828 3.215359
0.504329 -15.571503 -1.053288
0.573727 -16.076300 -1.016800
2.169217 -15.242882 5.094330
0.208680 -14.569484 -1.097900
2.171386 -15.644844 4.947544
0.289688 -15.083071 -1.028046
1.972776 -16.045078 4.596922
0.180932 -15.600330 -1.038357
2.207540 -16.503654 5.183630
0.245211 -16.104918 -1.021263
1.857953 -15.250250 4.971827
-0.132003 -14.591350 -1.128044
2.292966 -15.779779 6.160860
1.850247 -15.652565 4.796522
-0.055902 -15.104836 -1.077702
-0.146063 -15.628798 -1.029888
1.805349 -16.501678 4.776255
-0.081038 -16.134556 -1.013115
1.670627 -15.298683 5.229811
-0.458147 -14.618753 -1.107731
2.053071 -15.806843 6.226780
1.626866 -15.688896 4.951265
-0.387341 -15.131488 -1.076725
1.789029 -16.176313 5.691450
-0.480060 -15.656202 -1.037228
1.687539 -16.555353 5.244425
-0.414268 -16.163408 -1.020813
2.016930 -15.510252 7.021751
1.363642 -15.308851 5.131578
-0.794487 -14.643531 -1.112576
1.794261 -15.828919 6.238289
-0.729275 -15.155966 -1.100849
1.676138 -16.233181 6.138968
1.130182 -16.112831 4.565325
-0.811718 -15.684765 -1.031940
2.010409 -16.685839 6.967596
1.264514 -16.552509 4.806587
-0.738656 -16.194445 -0.996994
1.797377 -15.540818 7.127409
1.127580 -15.341402 5.242815
-1.128402 -14.669739 -1.104809
1.544972 -15.853868 6.280422
0.900581 -15.688193 4.458086
-1.072450 -15.180920 -1.121647
-1.150811 -15.712323 -1.042278
1.751485 -16.708323 6.961338
0.786459 -16.542921 4.242245
1.384412 -15.515508 6.702080
0.609387 -15.292551 4.580164
-1.483516 -14.690470 -1.149944
1.248104 -15.867252 6.193729
0.598037 -15.706037 4.405010
1.200518 -16.289751 6.293699
0.620344 -16.171320 4.710831
-1.501235 -15.738235 -1.077412
1.413121 -16.718216 6.741858
0.646831 -16.592247 4.640778
-1.419415 -16.252583 -1.024632
0.386542 -15.331028 4.744345
0.997834 -15.892843 6.240847
-1.741477 -15.237263 -1.097137
0.353947 -16.198460 4.754301
-1.846116 -15.766043 -1.090382
1.150830 -16.741619 6.741318
0.387302 -16.621208 4.702951
0.748892 -15.526353 6.424278
0.719148 -15.912090 6.215813
-2.101950 -15.260290 -1.145210
0.116321 -16.231323 4.874697
-0.570461 -16.101313 3.097189
-2.163361 -15.799770 -1.025509
0.321622 -16.679691 5.270763
-2.100921 -16.313122 -1.029598
1.092245 -15.706022 7.975567
0.441076 -15.536558 6.327641
-2.518449 -14.766355 -1.162094
1.219887 -16.105925 8.178499
0.428359 -15.929305 6.165743
-2.442298 -15.288755 -1.133980
1.148470 -16.495640 8.197071
0.346955 -16.349461 6.175041
-0.208221 -16.248207 4.774462
-0.094093 -16.685163 4.927250
-2.446758 -16.343538 -1.036362
0.422478 -15.620801 6.953989
-2.852935 -14.795712 -1.128620
0.877908 -16.106936 7.958241
0.016644 -15.921269 5.822859
-2.790853 -15.316047 -1.137932
0.047093 -16.368048 6.110487
-0.572869 -16.259089 4.585272
-2.868611 -15.855612 -1.062637
-0.370482 -16.712120 4.949875
-2.786169 -16.375471 -1.021194
0.307096 -15.677935 7.321220
-1.052673 -15.346262 4.047899
0.470437 -16.096077 7.594610
-0.192320 -15.958003 5.991709
-3.132831 -15.345400 -1.120007
0.589640 -16.530169 8.075588
-0.231637 -16.391047 6.104357
-3.221239 -15.884613 -1.071293
-0.012228 -16.824350 6.506535
-3.145416 -16.405275 -1.048832
0.033565 -15.695910 7.303692
-0.578705 -15.551252 5.865255
-1.280671 -15.385402 4.216093
0.242579 -16.123972 7.676720
-0.469145 -15.980638 5.996897
-3.467717 -15.376749 -1.080391
-0.456419 -16.423389 6.229515
-3.555433 -15.917304 -1.030521
-3.478803 -16.439123 -1.008480
-0.109718 -15.744353 7.590185
-3.938231 -14.867912 -1.191540
0.142397 -16.176773 8.053518
-3.814844 -15.406170 -1.064995
-3.917931 -15.945978 -1.050552
-3.840410 -16.469921 -1.029018
-0.334047 -15.773598 7.686241
-1.056616 -15.613276 6.067415
-4.275702 -14.899037 -1.144535
-1.733474 -15.893564 4.420938
-4.170851 -15.434516 -1.064396
-4.277757 -15.975802 -1.057762
-4.191230 -16.502693 -1.018494
-0.669254 -15.778955 7.539637
-4.663104 -14.919867 -1.202995
-2.009755 -15.922134 4.476789
-4.565074 -15.456583 -1.141903
-4.647099 -16.004921 -1.079464
-4.555373 -16.534521 -1.031723
-0.699950 -15.849246 8.055670
-2.150845 -15.546609 4.951332
-5.010456 -14.950132 -1.167095
-2.256540 -15.956187 4.598551
-4.928093 -15.485262 -1.142834
-0.786972 -16.632055 7.932720
-5.009460 -16.035788 -1.079266
-0.685177 -17.027916 8.038851
-4.916624 -16.567341 -1.032150
-0.855685 -15.891768 8.291706
-1.491553 -15.763124 6.961473
-5.379805 -14.976478 -1.172726
-1.190673 -16.214090 7.478073
-1.897843 -16.093464 5.992188
-5.279400 -15.516644 -1.113052
-0.990194 -16.664061 8.071257
-2.560396 -16.450211 4.794315
-5.385895 -16.065401 -1.102375
-1.059210 -17.041229 7.816183
-5.287617 -16.599771 -1.046925
-1.769368 -15.784712 6.971045
-5.711040 -15.011082 -1.093994
-2.118118 -16.128464 6.139879
-5.618252 -15.550634 -1.052868
-2.812500 -16.483252 4.903189
-5.746326 -16.097895 -1.085678
-1.332842 -17.065969 7.813601
-5.646879 -16.634068 -1.030891
-2.119172 -15.793111 6.840826
-6.095531 -15.035850 -1.119076
-1.506050 -16.296272 7.959435
-2.407839 -16.152172 6.146448
-6.023876 -15.574358 -1.123352
-1.682519 -16.691431 7.772892
-6.116598 -16.129742 -1.083168
-1.544991 -17.097094 7.939035
-6.007046 -16.668848 -1.011200
-1.724645 -15.940387 8.179125
-2.603562 -15.777948 6.457289
-6.472614 -15.062885 -1.122341
-1.622636 -16.342686 8.272465
-2.671281 -16.180481 6.209352
-2.013422 -16.708736 7.669870
-6.478949 -16.163229 -1.059044
-1.896449 -17.115383 7.790258
-3.247915 -16.991085 5.137245
-2.611771 -15.850922 7.007956
-6.869434 -15.087165 -1.157009
-2.759905 -16.235224 6.611233
-6.759632 -15.636297 -1.091591
-2.273047 -16.735409 7.712261
-6.837502 -16.197746 -1.022358
-6.743784 -16.738647 -0.987362
-2.709758 -15.905849 7.372049
-7.240019 -15.116976 -1.134613
-2.590117 -16.326014 7.488600
-7.157013 -15.663961 -1.122910
-2.457661 -16.770935 7.898188
-3.252201 -16.680698 6.409342
-2.417543 -17.170458 7.867105
-7.153566 -16.770956 -1.044708
-1.350132 -16.205824 10.406687
-2.821439 -15.957088 7.700863
-7.654373 -15.140047 -1.187206
-2.733895 -16.369068 7.755667
-7.551479 -15.692926 -1.141148
-2.730796 -16.796478 7.918791
-3.409257 -16.722200 6.673571
-7.656807 -16.257177 -1.122204
-3.676902 -17.117876 6.069410
-7.503677 -16.808966 -0.983334
-1.568974 -16.231081 10.478821
-2.952583 -16.003969 7.986099
-1.469254 -16.602766 10.564619
-2.695408 -16.436159 8.346422
-7.928278 -15.725127 -1.120205
-1.441560 -16.987320 10.752609
-2.805539 -16.843393 8.300068
-8.018753 -16.293304 -1.073692
-3.864483 -17.155401 6.284744
-7.916988 -16.842531 -1.032101
-3.153476 -16.038818 8.141592
-8.430807 -15.197687 -1.174511
-8.286451 -15.760434 -1.060558
-1.730960 -17.006069 10.695900
-3.254257 -16.851185 8.011934
-4.156404 -16.759457 6.422400
-1.177620 -17.404755 11.581999
-4.246100 -17.178331 6.153303
-8.293150 -16.879698 -1.006660
-5.088943 -15.804976 5.294746
-8.815922 -15.228132 -1.153332
-1.918517 -16.652777 10.687803
-4.985498 -16.262201 5.359888
-8.704714 -15.788568 -1.101074
-1.756981 -17.051332 11.100618
-3.203465 -16.909647 8.602676
-1.530551 -17.420568 11.402622
-8.710188 -16.914570 -1.046524
-4.041433 -16.034796 7.624180
-4.730195 -15.931271 6.456066
-9.191959 -15.260645 -1.110905
-3.540363 -16.505861 8.373041
-9.084654 -15.822384 -1.068069
-1.614344 -17.111294 11.779310
-9.198978 -16.395800 -1.060715
-1.796258 -17.443352 11.382786
-9.109051 -16.951504 -1.047260
-9.625240 -15.285405 -1.158543
-2.331233 -16.708004 10.879698
-3.710894 -16.543379 8.576324
-5.577795 -16.320614 5.459488
-1.986650 -17.122147 11.581154
-9.615654 -16.429266 -1.082108
-2.047797 -17.467560 11.391634
-5.482893 -17.247267 5.666777
-2.052717 -16.446127 11.856720
-6.082838 -15.874823 5.285219
-10.039967 -15.313865 -1.167267
-2.239929 -16.770100 11.464027
-5.767736 -16.362688 5.688477
-9.893917 -15.886172 -1.066704
-2.410373 -17.129791 11.311230
-2.023638 -17.509031 11.855064
-4.052879 -17.385067 8.538603
-5.972570 -17.267796 5.401182
-2.329303 -16.461830 11.826147
-10.408770 -15.349528 -1.095287
-2.529965 -16.787434 11.418076
-6.187113 -16.378721 5.545841
-2.585196 -17.159943 11.453407
-4.547215 -16.994959 8.320793
-2.241055 -17.535236 11.917866
-10.330008 -17.065029 -1.048698
-2.553767 -16.485180 11.882856
-3.304336 -16.384830 10.705328
-10.874355 -15.372741 -1.170902
-2.538172 -16.835960 11.822199
-5.866419 -16.476070 6.579906
-2.817671 -17.185345 11.504347
-2.554884 -17.556339 11.831015
-3.021531 -17.530558 11.097206
-5.676586 -17.383871 6.922081
-2.903213 -16.492558 11.749454
-2.675951 -16.869638 12.015293
-4.503868 -16.678429 9.190571
-11.164642 -15.981670 -1.102486
-3.044806 -17.211451 11.566061
-11.289389 -16.570721 -1.104111
-2.778759 -17.582926 11.890608
-11.145891 -17.144140 -1.018715
-3.222931 -16.504873 11.670397
-2.910313 -16.893202 12.059141
-3.784316 -16.804775 10.733850
-3.713624 -17.204834 10.963913
-3.652689 -17.577452 10.968241
-11.597101 -17.182564 -1.059509
-5.726639 -16.250753 8.361460
-12.154259 -15.463888 -1.166237
-3.111500 -16.920330 12.155182
-6.124462 -16.625561 7.671516
-12.044573 -16.046375 -1.138351
-3.124087 -17.291288 12.251131
-4.209305 -17.213511 10.644939
-12.130278 -16.645815 -1.078602
-6.050573 -17.504007 7.820244
-12.045050 -17.222033 -1.086742
-4.270765 -16.483721 10.940254
-12.561462 -15.498301 -1.122169
-4.310530 -16.853184 10.794701
-12.490263 -16.079552 -1.152828
-3.402825 -17.313499 12.234232
-12.586834 -16.681995 -1.108154
-3.212608 -17.674747 12.429377
-6.491446 -17.529045 7.647329
-12.455542 -17.264019 -1.051052
-3.875795 -16.582623 11.914576
-3.426219 -16.982901 12.475824
-12.852201 -16.121298 -1.039303
-3.820578 -17.327108 12.024223
-4.274679 -17.666605 11.291264
-4.716516 -16.539089 11.125544
-5.962236 -16.399557 9.378769
-6.065105 -16.794779 9.141027
-3.836474 -17.367414 12.389141
-6.786844 -17.181084 8.257919
-3.392857 -17.739500 12.931601
-7.710365 -17.569315 6.862610
-4.938663 -16.567083 11.221472
-6.211298 -16.428732 9.469284
-7.566038 -16.281456 7.604052
-4.360376 -16.991980 11.935238
-6.362597 -16.821196 9.167866
-4.293880 -17.380138 12.138515
-6.198429 -17.265003 9.519922
-4.137926 -17.747057 12.271925
-6.777502 -17.649410 8.628698
-4.715184 -16.642239 11.921392
-14.359331 -15.624816 -1.117691
-4.439132 -17.031019 12.213491
-6.702347 -16.844637 9.141764
-4.322493 -17.419127 12.480534
-4.307816 -17.777269 12.420124
-6.070713 -17.716228 10.030699
-7.121330 -17.679850 8.606695
-4.967079 -16.666090 11.970024
-14.784595 -15.661185 -1.065662
-4.610095 -17.062107 12.363682
-6.941916 -16.876780 9.255569
-7.924997 -16.798645 7.945208
-4.472673 -17.450621 12.653898
-4.746483 -17.798786 12.209988
-6.415928 -17.744848 9.987726
-5.067440 -16.705355 12.219446
-8.207634 -16.393551 8.124222
-4.700757 -17.099274 12.618462
-7.471865 -16.886814 8.990688
-8.235888 -16.828236 7.990473
-6.580923 -17.378765 10.275610
-4.867962 -17.831045 12.426815
-8.676512 -17.716623 7.447384
-5.484056 -16.713615 12.059845
-9.052961 -16.369921 7.488094
-15.699356 -15.729858 -1.025898
-5.389133 -17.091745 12.100439
-5.247511 -17.489370 12.389523
-6.263151 -17.438339 11.090149
-7.137218 -17.394423 9.971901
-5.195704 -17.857342 12.375954
-15.570938 -17.568644 -0.948582
-5.699661 -16.741972 12.163790
-16.146643 -15.766449 -0.982365
-5.628775 -17.118906 12.172413
-7.160395 -17.009787 10.237696
-15.990459 -16.380699 -0.916309
-6.579819 -17.465092 11.084021
-5.301886 -17.890005 12.611311
-6.831394 -16.687540 11.136599
-7.766956 -16.602852 9.980026
-5.837027 -17.148502 12.285854
-6.959139 -17.071503 10.893360
-6.098871 -17.528717 12.068241
-5.687723 -17.915815 12.496769
-16.581072 -17.659525 -1.004780
-6.928705 -16.729115 11.406904
-17.095526 -15.837216 -0.941402
-7.197720 -17.102093 10.995358
-5.958256 -17.574558 12.610538
-7.490618 -17.508425 10.751616
-6.127493 -17.941380 12.325563
-7.362534 -16.741526 11.271626
-9.748262 -16.538755 8.424595
-17.546776 -15.875937 -0.881824
-7.262964 -17.143909 11.306913
-17.488768 -16.494137 -0.942642
-7.460749 -17.551756 11.180635
-7.623074 -17.947567 10.902168
-7.877781 -16.748497 11.051037
-8.087555 -17.138700 10.719376
-17.966600 -16.535255 -0.908741
-7.963585 -17.573507 10.976440
-18.020166 -17.804218 -0.931778
-8.188749 -16.773405 11.079058
-8.191677 -17.178806 10.991079
-18.432863 -16.577908 -0.854004
-8.274591 -17.603634 11.005709
-9.978010 -17.985558 8.952990
-18.498703 -17.854082 -0.890831
-8.467558 -16.801355 11.148226
-10.047604 -16.679478 9.359177
-19.065109 -15.983902 -0.851131
-8.642349 -17.198954 10.865274
-10.609446 -17.088177 8.629505
-18.979504 -16.616817 -0.883762
-8.659323 -17.631750 10.956322
-19.102476 -17.272873 -0.854889
-10.458992 -18.019732 8.828218
-19.005083 -17.904350 -0.874149
-10.502369 -16.698654 9.266869
-19.548370 -16.023600 -0.798748
-10.416460 -17.148811 9.271400
-19.462151 -16.660324 -0.832150
-10.377001 -17.617670 9.432913
-19.624941 -17.319221 -0.845974
-10.529852 -18.059744 9.171661
-19.506647 -17.955553 -0.843769
-11.411892 -16.686184 8.686790
-20.080111 -16.060652 -0.792145
-10.839872 -17.175699 9.221056
-19.979750 -16.702852 -0.811661
-20.162945 -17.366060 -0.845284
-10.535709 -18.099926 9.581011
-20.077250 -18.006927 -0.881104
-11.462090 -16.736986 9.056664
-20.627586 -16.097679 -0.793510
-11.245338 -17.204420 9.198248
-20.546782 -16.743900 -0.836052
-10.699131 -17.695988 9.901930
-20.703169 -17.413847 -0.837814
-20.575893 -18.059959 -0.830448
-12.434671 -16.724813 8.446302
-21.143021 -16.137989 -0.751671
-11.371632 -17.247200 9.478775
-21.006771 -16.791182 -0.736832
-10.818644 -17.736004 10.177887
-21.218021 -17.463299 -0.794483
-21.117115 -18.113539 -0.817299
-10.307613 -16.917812 11.081327
-21.784801 -16.171030 -0.832954
-10.837240 -17.319469 10.444801
-21.626530 -16.831928 -0.798050
-10.997438 -17.774282 10.389406
-21.762203 -17.512924 -0.773548
-21.688114 -18.167942 -0.826134
-22.353420 -16.210175 -0.827190
-11.314274 -17.345034 10.348515
-22.179852 -16.876886 -0.779541
-11.041124 -17.815521 10.737911
-22.301369 -17.563646 -0.738579
-10.735245 -18.253586 10.964876
-22.226650 -18.223469 -0.791836
-10.648893 -16.993692 11.495251
-22.924339 -16.250328 -0.814129
-11.815708 -17.370739 10.237514
-22.749329 -16.922230 -0.768169
-11.299393 -17.851805 10.866108
-22.877632 -17.614557 -0.732174
-22.781075 -18.279898 -0.764904
-10.709764 -17.037834 11.809378
-10.878141 -17.453768 11.560654
-12.214100 -17.401674 10.238949
-23.321033 -16.968580 -0.749470
-11.685310 -17.885963 10.870834
-23.463341 -17.666365 -0.725315
-11.516491 -18.328197 10.951994
-23.209419 -18.337185 -0.604343
-10.967737 -17.070301 11.928289
-11.950974 -17.015034 10.975874
-24.166046 -16.328413 -0.856319
-10.944244 -17.495117 11.869310
-24.072952 -17.718861 -0.731693
-12.497839 -18.368004 10.381899
-23.214252 -18.393976 -0.027782
-24.852703 -16.365866 -0.923660
-12.921804 -17.468994 10.347197
-12.983414 -17.948509 10.399229
-15.251312 -17.914392 8.242294
-12.383999 -18.405996 10.883709
-15.024008 -18.416697 8.363243
-13.051050 -17.054480 10.706831
-25.513908 -16.406195 -0.954353
-13.295021 -17.502892 10.390844
-25.179810 -17.109308 -0.772175
-14.707588 -17.967936 9.180882
-14.283195 -18.454435 9.486446
-15.435373 -18.460953 8.405319
-26.082645 -16.452562 -0.888210
-13.412127 -17.545435 10.676596
-25.790009 -17.158960 -0.749741
-13.604673 -18.025335 10.608801
-16.682785 -17.989767 7.781017
-14.532063 -18.496376 9.666176
-15.855261 -18.505955 8.445908
-13.885313 -17.112295 10.723936
-13.755610 -17.581015 10.754433
-26.557953 -17.205137 -0.860340
-17.199533 -18.032009 7.753849
-16.320822 -18.552061 8.451651
-27.448792 -16.537825 -0.933098
-27.240940 -17.255369 -0.880310
-27.307976 -17.996872 -0.774673
-16.885307 -18.600025 8.377174
-23.934208 -18.672867 2.098539
-28.106407 -16.583733 -0.915321
-27.927010 -17.306900 -0.890987
-27.963150 -18.056091 -0.757076
-27.708511 -18.770668 -0.666405
-28.827221 -16.628284 -0.940758
-28.616055 -17.359726 -0.892319
-28.742302 -18.115915 -0.834755
-28.432308 -18.838322 -0.701046
-29.490192 -16.676685 -0.904728
-29.269794 -17.414694 -0.851940
-29.525627 -18.177319 -0.901432
-29.098404 -18.906483 -0.673985
-30.217041 -16.723915 -0.910763
-30.025673 -17.468784 -0.885876
-29.882271 -18.977734 -0.733707
-30.977962 -16.771391 -0.931992
-30.754101 -17.524935 -0.883938
-30.941269 -18.304871 -0.869080
-30.639076 -19.050009 -0.757030
-31.617340 -16.824688 -0.842716
-31.423096 -17.583529 -0.821842
-23.913326 -18.359795 5.342747
-31.453846 -19.124800 -0.813507
-32.470516 -16.872059 -0.911613
-32.219688 -17.641363 -0.849728
-28.329517 -19.120279 2.247454
-33.272587 -16.922894 -0.925526
-28.711311 -17.760332 2.470629
-33.043571 -17.700432 -0.884712
-28.589195 -18.486193 2.717058
-28.477047 -19.178087 2.681786
-24.556156 -17.256760 6.286924
-33.791622 -17.762102 -0.847397
-28.796078 -18.546186 3.103638
-28.548328 -19.233881 3.170841
-34.910889 -17.028561 -0.937145
-34.598297 -17.824560 -0.841545
-30.235023 -18.615120 2.572733
-29.567513 -19.312590 2.947159
-35.722942 -17.084091 -0.916622
-35.464565 -17.888056 -0.865643
-29.738682 -19.371393 3.365549
-36.627338 -17.138969 -0.948692
-36.310223 -17.953445 -0.859715
-29.906055 -18.730433 3.904160
-30.359985 -19.442331 3.457569
-37.437618 -17.197897 -0.898525
-32.138832 -18.050673 2.710539
-29.316010 -18.781378 4.852886
-30.182606 -19.491468 4.123699
-38.414955 -17.254827 -0.950634
-30.176880 -18.848923 4.777239
-30.366394 -19.550365 4.528061
-39.388443 -17.313902 -0.982723
-30.106918 -18.904781 5.348801
-19.706829 -19.271168 12.317734
-29.967876 -18.246552 5.816193
-29.405922 -18.949858 6.332695
-29.242977 -19.619553 6.328924
-30.611908 -17.616583 6.018946
-30.496498 -18.305964 5.979996
-29.193260 -19.000792 6.974174
-30.024910 -19.696514 6.317617
-30.045147 -19.748316 6.810368
-31.028904 -19.143942 6.802528
-31.014805 -19.834019 6.698236
-31.919243 -19.217701 6.758718
-31.020790 -19.885590 7.201229
10.864476 -18.317596 33.175850
10.899851 -18.319771 33.194721
10.800339 -18.320166 33.147430
10.853802 -18.322386 33.174911
10.861570 -18.322294 33.181652
10.851238 -18.319181 33.179638
10.833776 -18.323925 33.170208
10.903965 -18.317650 33.208313
10.895300 -18.321138 33.203556
10.849117 -18.319845 33.183990
10.831504 -18.324636 33.174870
10.884248 -18.318838 33.203224
10.902617 -18.321211 33.211422
10.919686 -18.317738 33.221840
10.901822 -18.321470 33.213150
10.855547 -18.324209 33.194290
10.854253 -18.320797 33.196827
10.872875 -18.323513 33.204510
10.890359 -18.322765 33.214413