# This PCD file was generated using the MATLAB® pcwrite function
# from Computer Vision System Toolbox®.
# .PCD v.7 - Point Cloud Data file format
VERSION .7
FIELDS x y z
SIZE 4 4 4
TYPE F F F
COUNT 1 1 1
WIDTH 723
HEIGHT 1
VIEWPOINT 0 0 0 1 0 0 0
POINTS 723
DATA ascii
56.302338 -48.753803 0.469891
45.828445 -50.178955 12.356018
55.748779 -48.800533 0.419327
55.127983 -48.860920 0.460007
45.383621 -50.180264 11.889166
45.035316 -50.208305 11.814131
53.988522 -48.964516 0.447643
44.808582 -50.209751 11.586115
50.607246 -48.861553 3.406872
50.513321 -49.539394 3.555569
50.045670 -48.924614 3.479248
50.047829 -49.577663 3.502354
49.581116 -48.966522 3.430580
49.554298 -49.622219 3.494518
49.077450 -49.018063 3.443581
49.080158 -49.663460 3.468300
48.570442 -49.071186 3.470665
48.596249 -49.707359 3.463772
48.088543 -49.119232 3.471169
48.091759 -49.756279 3.497540
47.630955 -49.162220 3.444454
47.612206 -49.800674 3.504436
47.152958 -49.210766 3.455925
46.325912 -50.019665 4.731892
47.118279 -49.848869 3.541695
45.918800 -49.444614 4.635117
45.921089 -50.051128 4.665527
45.476830 -49.487965 4.630890
45.479469 -50.091129 4.662025
45.015549 -49.536808 4.665237
45.018501 -50.136070 4.697151
44.577469 -49.580597 4.671143
44.601624 -50.171810 4.669968
44.161758 -49.619358 4.648033
44.206573 -50.203102 4.613335
43.747383 -49.658352 4.629456
43.792023 -50.239323 4.595055
43.354279 -49.692352 4.581081
43.358910 -50.280430 4.615646
42.922821 -49.737011 4.605804
42.967117 -50.312431 4.572002
42.512730 -49.776661 4.600685
42.537514 -50.353951 4.601883
42.123138 -49.811344 4.565166
42.133839 -50.389870 4.592949
41.715828 -49.851421 4.568714
41.722210 -50.428299 4.605846
41.328491 -49.886543 4.541489
41.316959 -50.465771 4.614407
41.136471 -51.051346 4.630241
40.906082 -49.932156 4.588943
40.936001 -50.497704 4.583107
40.756451 -51.081280 4.601402
40.752022 -51.649403 4.663200
40.521481 -49.967682 4.570080
40.515923 -50.540131 4.635662
40.443726 -51.096416 4.442783
40.440216 -51.664494 4.505051
40.172882 -49.993210 4.483932
40.216263 -50.551987 4.451962
39.977573 -51.146778 4.600189
39.987656 -51.707375 4.636345
39.755692 -50.039356 4.544296
39.768799 -50.602741 4.575386
39.579582 -51.182293 4.628166
39.607239 -51.736660 4.628838
39.340958 -50.085640 4.609215
39.354408 -50.645668 4.640915
39.200195 -51.214016 4.624252
39.228046 -51.766144 4.625248
38.978210 -50.116879 4.570381
39.008698 -50.670712 4.566395
38.822075 -51.245926 4.624237
38.837765 -51.798351 4.652775
38.603981 -50.152119 4.562328
38.614319 -50.709465 4.604038
38.445263 -51.278023 4.628109
38.461388 -51.828190 4.657059
38.238838 -50.185040 4.539898
38.253723 -50.739429 4.572990
38.069794 -51.310295 4.635834
38.086357 -51.858208 4.665199
37.847378 -50.226925 4.585011
37.878254 -50.774055 4.582077
37.711185 -51.338852 4.610710
37.728233 -51.885067 4.640453
37.476982 -50.262711 4.588421
37.500366 -50.809963 4.604172
37.341988 -51.370518 4.616734
37.355686 -51.915443 4.656086
37.115307 -50.296185 4.577171
37.127815 -50.844925 4.620918
36.966671 -51.404282 4.644955
36.973434 -51.948456 4.703243
36.732758 -50.337280 4.624897
36.745770 -50.883347 4.669189
36.596634 -51.437241 4.667740
36.633202 -51.972580 4.652287
36.377140 -50.369873 4.611740
36.405048 -50.909851 4.619373
36.260052 -51.461761 4.610554
36.278973 -52.000195 4.641804
36.036346 -50.397736 4.564896
36.050598 -50.940945 4.610023
35.888916 -51.496010 4.649841
35.911751 -52.031239 4.672146
35.665230 -50.436836 4.605194
35.697083 -50.972221 4.604134
35.526318 -51.528507 4.674168
35.559715 -52.059200 4.668694
35.315796 -50.468758 4.593121
35.331207 -51.008003 4.639160
35.188305 -51.554569 4.636364
35.221920 -52.084137 4.631069
34.951019 -50.506939 4.631340
34.992973 -51.035316 4.602680
34.837776 -51.584587 4.639420
34.858631 -52.115650 4.672066
34.613163 -50.535576 4.597912
34.642452 -51.067123 4.607086
34.500839 -51.611057 4.608086
34.534840 -52.137806 4.603176
34.275703 -50.564423 4.567657
34.292992 -51.099098 4.614891
34.139889 -51.645126 4.655727
34.293598 -52.138988 4.281120
33.917763 -50.601868 4.606834
33.944626 -51.131237 4.626068
32.909943 -51.948750 7.491554
34.167065 -51.559776 3.471451
32.931858 -52.432671 7.518257
33.915920 -50.493763 3.491306
32.724823 -51.479168 7.482990
32.657814 -51.955914 7.287144
32.709427 -52.433712 7.218521
32.382633 -51.024277 7.475449
33.568039 -50.524975 3.477261
32.454659 -51.491131 7.336990
32.369259 -51.974377 7.199287
32.043114 -52.555386 8.412165
33.226299 -50.554016 3.447388
32.124958 -51.525364 7.393898
31.766947 -52.097004 8.215637
31.786602 -52.567280 8.253334
31.522722 -51.187580 8.329454
31.580938 -51.643890 8.230137
31.433805 -52.133308 8.327650
31.464470 -52.597729 8.327257
31.296734 -51.181381 8.049377
31.259045 -51.678894 8.305023
31.164654 -52.148220 8.211987
31.175144 -52.619205 8.288734
30.981983 -51.215332 8.097702
31.001682 -51.688251 8.142391
30.854662 -52.177612 8.252979
30.898254 -52.637138 8.204533
30.654362 -51.256351 8.206886
30.691437 -51.719433 8.184456
30.574697 -52.196533 8.180882
30.558241 -52.674625 8.374403
30.391941 -51.266197 8.058571
30.410580 -51.738514 8.113430
30.282625 -52.220070 8.159691
30.309742 -52.684074 8.179134
30.071716 -51.305119 8.154350
30.117893 -51.762894 8.093319
29.950920 -52.259441 8.315973
30.000530 -52.712914 8.238525
29.790344 -51.324635 8.088387
29.786568 -51.805546 8.250668
29.697172 -52.268551 8.134987
29.720831 -52.732410 8.174240
29.493969 -51.352352 8.092903
29.514685 -51.821178 8.148624
29.377403 -52.304626 8.258263
29.432365 -52.755020 8.151428
29.164608 -51.399460 8.265667
29.201756 -51.856960 8.243866
29.111355 -52.318558 8.130688
29.104601 -52.792065 8.326759
28.916500 -51.400356 8.041809
28.938721 -51.868099 8.097954
28.807976 -52.348877 8.191246
28.840858 -52.806438 8.191933
28.589035 -51.448711 8.230209
28.635422 -51.900181 8.159645
28.513342 -52.375916 8.215443
28.532021 -52.837948 8.294752
28.330875 -51.454678 8.049973
28.345867 -51.925518 8.155579
28.240097 -52.393082 8.124519
28.266684 -52.852821 8.164669
28.040575 -51.480961 8.048229
28.073235 -51.941334 8.055965
27.926872 -52.430367 8.271919
27.973454 -52.879028 8.194260
27.746059 -51.510712 8.078545
27.760221 -51.981491 8.204411
27.665754 -52.441372 8.107224
27.693560 -52.899902 8.147667
27.464254 -51.531826 8.032898
27.496086 -51.991989 8.050709
27.367453 -52.472282 8.181309
27.408905 -52.923023 8.133129
27.154476 -51.574917 8.186604
27.197662 -52.024681 8.125874
27.087196 -52.493568 8.139664
27.099689 -52.958355 8.299007
26.889202 -51.583366 8.027847
26.916632 -52.046124 8.085369
26.806602 -52.515072 8.100468
26.837524 -52.971127 8.131420
26.592545 -51.617981 8.108105
26.636496 -52.066845 8.037437
26.506670 -52.549496 8.222076
26.531967 -53.006561 8.302771
26.312233 -51.638767 8.062664
26.325268 -52.112888 8.259018
26.235674 -52.565025 8.108692
26.266529 -53.020527 8.149769
26.033535 -51.657661 7.999870
26.068527 -52.114510 8.008289
25.934566 -52.602726 8.275284
25.978182 -53.047699 8.197498
25.731289 -51.702110 8.177059
25.766401 -52.156017 8.185787
25.666424 -52.615608 8.127037
25.694736 -53.072433 8.208073
25.466061 -51.705631 7.970684
25.496525 -52.167458 8.038738
25.379110 -52.644196 8.179729
25.419453 -53.091667 8.131664
25.161049 -51.758511 8.232502
25.208599 -52.197308 8.092514
25.099031 -52.666801 8.155449
25.129263 -53.122353 8.236740
24.894617 -51.760551 8.010990
24.924664 -52.223671 8.109123
24.818768 -52.689610 8.133617
24.856144 -53.139557 8.125362
24.609491 -51.788738 8.039898
24.646780 -52.242191 8.038761
24.533674 -52.718586 8.193874
24.568209 -53.170437 8.235527
24.323534 -51.820114 8.101131
24.354158 -52.283882 8.229420
24.255783 -52.738789 8.137142
24.293570 -53.188141 8.128952
24.044832 -51.837410 8.025749
24.083563 -52.288788 8.004768
23.972164 -52.768017 8.202396
24.013033 -53.212097 8.124470
23.758486 -51.874077 8.141697
23.797176 -52.323647 8.120888
23.696289 -52.782852 8.070782
23.731567 -53.237988 8.152374
23.480936 -51.884819 8.001579
23.517500 -52.343910 8.070244
23.415421 -52.806656 8.061199
23.452950 -53.258820 8.092922
23.196692 -51.921688 8.122536
23.236341 -52.367832 8.061882
23.134497 -52.830654 8.054070
23.169867 -53.292458 8.255512
22.916769 -51.933010 7.987267
22.954763 -52.395321 8.095833
22.853352 -52.856945 8.079319
22.891848 -53.309719 8.131065
22.634638 -51.957394 7.983807
22.673937 -52.412071 8.002697
22.573141 -52.895180 8.276623
22.612082 -53.342335 8.278622
22.354731 -52.005184 8.221668
22.394287 -52.457325 8.250832
22.292942 -52.912022 8.167118
22.331930 -53.358486 8.129086
22.076139 -52.037441 8.302740
22.113470 -52.475285 8.172569
22.013050 -52.936680 8.169796
22.051071 -53.380447 8.081844
21.794712 -52.054523 8.227024
21.831303 -52.493549 8.096764
21.730919 -52.956158 8.095131
21.774046 -53.411720 8.206757
21.509127 -52.064362 8.074184
21.550537 -52.518570 8.103127
21.450081 -52.980579 8.092739
21.490524 -53.430401 8.094551
21.227890 -52.089611 8.083023
21.267712 -52.539780 8.062153
21.176975 -53.016342 8.262272
21.212616 -53.458229 8.154461
20.949394 -52.119686 8.144032
20.994942 -52.577843 8.232727
20.889275 -53.031307 8.115269
20.930882 -53.481579 8.127026
20.665751 -52.140648 8.108063
20.705811 -52.590797 8.087185
20.612230 -53.060135 8.180004
20.648590 -53.505169 8.102070
20.396103 -52.181038 8.283203
20.430580 -52.622765 8.182945
20.326851 -53.080849 8.117725
20.374254 -53.534912 8.199150
20.097900 -52.185150 8.063499
20.145271 -52.643280 8.131962
20.045912 -53.106224 8.127632
20.087978 -53.556454 8.129318
19.821075 -52.215828 8.134266
19.854630 -52.660294 8.033852
19.773930 -53.137943 8.239399
19.808271 -53.582603 8.151596
19.540524 -52.242153 8.157845
19.592478 -52.701672 8.256008
19.478252 -53.153893 8.095215
19.524916 -53.607048 8.136551
19.251829 -52.261600 8.104626
19.292614 -52.713219 8.083565
19.202269 -53.182869 8.162174
19.232681 -53.628044 8.044544
18.983543 -52.297916 8.242046
19.011976 -52.739929 8.112099
18.913410 -53.204853 8.112518
18.970564 -53.662056 8.233086
18.679617 -52.307434 8.075191
18.741278 -52.772606 8.222294
18.623455 -53.227135 8.065472
18.667339 -53.679993 8.066833
18.393435 -52.331139 8.069229
18.436020 -52.785240 8.057850
18.364233 -53.263489 8.258518
18.402981 -53.712357 8.220367
18.119411 -52.362694 8.154602
18.175945 -52.823166 8.242054
18.062935 -53.281631 8.137375
18.101849 -53.732719 8.099087
17.839201 -52.390129 8.193043
17.893866 -52.849098 8.260612
17.789181 -53.311344 8.216484
17.816133 -53.758533 8.099194
17.590633 -52.434326 8.430771
17.608698 -52.873837 8.261951
17.491154 -53.332367 8.140202
17.548954 -53.789494 8.220261
17.312883 -52.461903 8.473841
17.339607 -52.905628 8.364248
17.191463 -53.353745 8.066677
17.230532 -53.807621 8.028229
17.019915 -52.482311 8.431002
17.051262 -52.929371 8.350889
16.932243 -53.388241 8.231880
16.972874 -53.840847 8.203381
16.729473 -52.504631 8.410458
16.784027 -52.961361 8.457880
16.609272 -53.403851 8.045815
16.655737 -53.860935 8.046570
16.444000 -52.529610 8.421902
16.493631 -52.984848 8.439758
16.344273 -53.436485 8.176525
16.367996 -53.887920 8.059597
16.140385 -52.547718 8.348001
16.200527 -53.007954 8.414509
16.040911 -53.459011 8.113773
16.114023 -53.921356 8.241665
15.855818 -52.573982 8.374474
15.912747 -53.033264 8.421242
15.767445 -53.489346 8.200356
15.791939 -53.942532 8.093403
15.569091 -52.599670 8.393759
15.609575 -53.054386 8.362360
15.508097 -53.522697 8.347752
15.529686 -53.974350 8.231262
15.273232 -52.622528 8.376757
15.333958 -53.083946 8.432798
15.191924 -53.543568 8.244320
15.197248 -53.995274 8.059673
14.967252 -52.642654 8.323713
15.035868 -53.107494 8.408546
14.934540 -53.577106 8.396402
14.910406 -54.023724 8.095531
14.688812 -52.672050 8.389681
14.739239 -53.131947 8.396763
14.647620 -53.604626 8.424604
14.628493 -54.053005 8.153343
14.380973 -52.692772 8.342232
14.444349 -53.157265 8.397406
14.340489 -53.628727 8.378057
14.309441 -54.077736 8.068508
14.079493 -52.716015 8.326620
14.143759 -53.181675 8.381487
14.042386 -53.654949 8.373045
14.053082 -54.110504 8.228157
13.803829 -52.746712 8.409950
13.844961 -53.206951 8.378008
13.765086 -53.684917 8.447790
13.740075 -54.136734 8.177952
13.482223 -52.765499 8.332672
13.537271 -53.230793 8.348522
13.457997 -53.710339 8.419373
13.447633 -54.165619 8.207653
13.169976 -52.787498 8.296839
13.248199 -53.258881 8.389025
13.169745 -53.738995 8.460920
13.194829 -54.198605 8.374203
12.868121 -52.812595 8.302181
12.924293 -53.280563 8.317522
12.866869 -53.765816 8.457338
12.882852 -54.225918 8.341995
12.574680 -52.840000 8.338902
12.643312 -53.310776 8.392157
12.542110 -53.790138 8.389957
12.581656 -54.254612 8.350958
12.247246 -52.860245 8.273937
12.329127 -53.335278 8.364754
12.240289 -53.817982 8.401825
12.304622 -54.285564 8.438822
11.946454 -52.886852 8.297419
12.016897 -53.360641 8.349888
11.941124 -53.846470 8.426012
11.990319 -54.313751 8.415339
11.664816 -52.917618 8.380322
11.726326 -53.389919 8.404184
11.638357 -53.874832 8.443563
11.704143 -54.344357 8.480013
11.323879 -52.936951 8.296391
11.396089 -53.413338 8.348101
11.308328 -53.900574 8.388662
11.401632 -54.374020 8.500147
10.977274 -52.956116 8.206600
11.077690 -53.439148 8.332918
10.990265 -53.928131 8.374657
11.054245 -54.401184 8.401022
10.670221 -52.983257 8.232609
10.758210 -53.465290 8.320869
10.671135 -53.956020 8.363785
10.739308 -54.430878 8.399210
10.377078 -53.013111 8.298813
10.451939 -53.493671 8.349297
10.365339 -53.985573 8.393373
10.434238 -54.461468 8.428493
9.996445 -53.028629 8.144794
10.105191 -53.517181 8.278347
10.044488 -54.014091 8.388704
10.128806 -54.492317 8.460695
9.653356 -53.051334 8.096806
9.793590 -53.545719 8.303707
9.707640 -54.041687 8.350170
9.793105 -54.522018 8.421646
9.342876 -53.079735 8.135365
9.451057 -53.570957 8.258194
9.369205 -54.069687 8.315098
9.471102 -54.552788 8.423012
8.942453 -53.095135 7.965511
9.126232 -53.598804 8.262241
9.060535 -54.100441 8.357092
9.128671 -54.583103 8.381561
8.613698 -53.121994 7.974174
8.784646 -53.625267 8.232857
8.719666 -54.129169 8.328754
8.792522 -54.614136 8.362026
8.344963 -53.157539 8.122967
8.461796 -53.654224 8.252682
8.389536 -54.159126 8.331337
8.467230 -54.645958 8.373360
7.920570 -53.172310 7.928669
8.080511 -53.677761 8.148308
8.066737 -54.189957 8.355448
8.124557 -54.677593 8.351559
7.588730 -53.200222 7.947517
7.721609 -53.704266 8.102543
7.722151 -54.219807 8.337494
7.814226 -54.710567 8.405853
7.303387 -53.234264 8.068871
7.386547 -53.733566 8.114769
7.376187 -54.250053 8.323139
7.469386 -54.742920 8.390921
6.883476 -53.252338 7.914429
7.020072 -53.760544 8.067478
6.888432 -54.273136 8.024971
6.873766 -54.770107 7.867111
6.535433 -53.279770 7.916843
6.620577 -53.785408 7.961468
6.626667 -54.309017 8.197994
6.615368 -54.805653 8.049629
6.236095 -53.313068 8.020790
6.254238 -53.813759 7.931293
6.221325 -54.337963 8.088177
6.318190 -54.840477 8.153980
5.868288 -53.339184 7.994576
5.987297 -53.850281 8.100319
5.812906 -54.367535 7.983017
5.911037 -54.873817 8.048100
5.451990 -53.360950 7.884106
5.539873 -53.873524 7.926987
5.476633 -54.400887 8.023746
5.538340 -54.908253 8.017582
5.075380 -53.387592 7.857471
5.159451 -53.902515 7.890938
5.158932 -54.435299 8.103043
5.259119 -54.944130 8.167004
4.788937 -53.423439 8.001034
4.839872 -53.936169 7.972866
4.724920 -54.465679 7.975628
4.865120 -54.979141 8.108826
4.375980 -53.447674 7.920963
4.486128 -53.967873 7.996948
4.366245 -54.499443 7.992558
4.468838 -55.014698 8.055107
3.975288 -53.473831 7.871613
4.066799 -53.996017 7.912064
4.046562 -54.534851 8.082569
4.090277 -55.050873 8.040543
3.572395 -53.500530 7.826797
3.664871 -54.025951 7.866554
3.686480 -54.569298 8.106812
3.791151 -55.087650 8.168133
3.290653 -53.537853 7.992207
3.342810 -54.060932 7.962902
3.243031 -54.601913 7.997791
3.390102 -55.124588 8.126942
2.869661 -53.564156 7.929916
3.000221 -54.095043 8.028275
2.838104 -54.636253 7.962284
2.945251 -55.162144 8.022053
2.419737 -53.589050 7.830124
2.578228 -54.125523 7.969814
2.457636 -54.671715 7.973801
2.560614 -55.200142 8.024376
2.030937 -53.619328 7.836918
2.121689 -54.155083 7.865593
2.129637 -54.708691 8.073853
2.174566 -55.238598 8.030983
1.657068 -53.651196 7.873203
1.737766 -54.188744 7.884480
1.720200 -54.744423 8.051392
1.852350 -55.277016 8.142647
1.309839 -53.685307 7.955242
1.380136 -54.223991 7.949379
1.264721 -54.779980 7.966938
1.442474 -55.316448 8.123943
0.873245 -53.713936 7.908222
1.016525 -54.259346 8.009769
0.850965 -54.816849 7.954327
0.941517 -55.357372 7.977173
0.439919 -53.743519 7.874603
0.556541 -54.291439 7.933704
-1.166981 -54.834919 5.613937
-1.049219 -55.417667 5.666634
-1.580313 -53.679340 5.576141
-1.499439 -54.267876 5.573467
-1.564299 -54.876076 5.682243
-1.445471 -55.461063 5.734200
-1.973921 -53.716499 5.656113
-1.846256 -54.308739 5.718246
-1.933165 -54.917854 5.795582
-1.836508 -55.504749 5.814232
-2.373789 -53.753700 5.732231
-2.268415 -54.347435 5.761066
-2.325352 -54.959759 5.880383
-2.198622 -55.548294 5.939003
-2.738554 -53.793144 5.860973
-2.638336 -54.388138 5.881149
-2.694101 -55.002132 6.001598
-2.572247 -55.592316 6.051395
-3.108931 -53.832539 5.985470
-3.031979 -54.428467 5.973064
-3.086649 -55.044708 6.094696
-2.987761 -55.637470 6.111748
-3.503305 -53.871044 6.082069
-3.377405 -54.470364 6.132874
-3.449032 -55.087673 6.231754
-3.331249 -55.681492 6.272133
-3.922468 -53.908775 6.151409
-3.795509 -54.510746 6.201324
-3.847853 -55.130898 6.325256
-3.722961 -55.726822 6.372799
-4.323725 -53.947746 6.248974
-4.214346 -54.551556 6.274494
-4.265633 -55.174522 6.399670
-4.139669 -55.773102 6.446392
-4.687588 -53.988640 6.397640
-4.558670 -54.594246 6.445915
-4.652643 -55.218456 6.517700
-4.531952 -55.819157 6.555855
-5.107962 -54.027519 6.480553
-5.003342 -54.635334 6.496967
-5.077717 -55.262901 6.593605
-4.949678 -55.866238 6.638706
-5.477623 -54.068737 6.629608
-5.365929 -54.678238 6.653114
-5.439276 -55.307362 6.751053
-5.342340 -55.913006 6.757019
-5.924477 -54.107449 6.691177
-5.786047 -54.720551 6.744385
-5.858540 -55.352524 6.843781
-5.728512 -55.959915 6.887280
-6.346165 -54.147533 6.788235
-6.232780 -54.762947 6.810177
-6.278271 -55.398094 6.941311
-6.173355 -56.008945 6.953705
-6.741840 -54.188862 6.920116
-6.601294 -54.806690 6.971397
-6.698412 -55.444069 7.043652
-6.572901 -56.056984 7.077927
-7.190760 -54.228916 6.996811
-7.049099 -54.849937 7.047054
-7.098864 -55.490200 7.173130
-6.959082 -56.104919 7.221523
-7.559656 -54.271729 7.167461
-7.443933 -54.894077 7.187202
-7.546471 -55.537319 7.255444
-7.378605 -56.154308 7.332420
-8.036633 -54.311901 7.224789
-7.926813 -54.938004 7.236313
-7.960787 -55.584396 7.379688
-7.859566 -56.206268 7.382195
-8.459919 -54.353989 7.346088
-8.342512 -54.982811 7.364170
-8.409548 -55.632412 7.472374
-8.273268 -56.256287 7.510601
-8.883364 -54.396461 7.472271
-8.709829 -55.028133 7.547340
-8.831213 -55.680405 7.599228
-8.693922 -56.306931 7.636559
-9.306921 -54.439323 7.603355
-9.187943 -55.073509 7.619865
-9.280968 -55.729317 7.702412
-9.170553 -56.360138 7.710201
-9.751688 -54.482147 7.718094
-9.610773 -55.119434 7.755074
-9.815977 -55.780403 7.726028
-9.669359 -56.414726 7.768448
-10.374662 -54.522182 7.662445
-10.289320 -55.166080 7.641796
-10.523832 -55.835869 7.588081
-10.411158 -56.479839 7.594009
-11.087080 -54.561722 7.531612
-10.936369 -55.213726 7.572784
-11.207720 -55.891857 7.487869
-11.057970 -56.542004 7.527618
-11.833128 -54.602005 7.383125
-11.717062 -55.262897 7.388138
-13.220980 -55.980648 6.135517
-13.074453 -56.664120 6.165321
-13.867990 -54.626099 6.041325
-13.741594 -55.320160 6.049805
-14.011557 -56.042854 5.983925
-13.856104 -56.735310 6.019184
-14.693228 -54.669926 5.870914
-14.536158 -55.373684 5.905113
-14.807367 -56.106380 5.843567
-14.650232 -56.808136 5.877365
-15.524096 -54.715153 5.712299
-15.335894 -55.428528 5.771702
-15.615702 -56.171425 5.707825
-15.486498 -56.883984 5.713295
-16.390333 -54.761494 5.538979
-16.200331 -55.485241 5.596378
-16.481455 -56.239292 5.537140
-16.320845 -56.960892 5.567905
-17.224730 -54.809597 5.411057
-17.070585 -55.543423 5.433529
-18.889643 -56.354198 4.038044
-18.513945 -57.104351 4.249649
-20.051195 -54.846226 3.587395
-19.612612 -55.622799 3.846710
-19.679594 -56.423992 3.990490
-19.240114 -57.179489 4.250938
-20.826300 -54.900085 3.571644
-20.384325 -55.684494 3.827019
-20.419889 -56.493267 3.999092
-20.037954 -57.259098 4.204159
-21.635595 -54.954952 3.541100
-21.220964 -55.748192 3.766876
-21.224745 -56.565613 3.966904
-20.816603 -57.338730 4.187782
-22.502874 -55.010883 3.477665
-22.092756 -55.813644 3.693268
-22.095350 -56.641258 3.895592
-21.683805 -57.423920 4.112827
-23.319857 -55.068207 3.470337
-22.875498 -55.878891 3.707272
-22.907915 -56.716064 3.886673
-22.485315 -57.506748 4.106571
-24.273901 -55.126728 3.369366
-23.818251 -55.948032 3.608292
-23.826132 -56.795734 3.808987
-23.360811 -57.594536 4.055984
-25.153933 -55.186649 3.343403
-24.694925 -56.017319 3.578140
-24.709433 -56.875366 3.775124
-24.240473 -57.683655 4.017998
-25.655073 -56.089508 3.499954
-25.692339 -56.959957 3.681538
-25.227556 -57.779835 3.914108
-26.733103 -55.309673 3.472660
-26.363813 -56.157776 3.627399
-26.199080 -57.027328 3.960247
-25.971628 -57.863594 4.009956
-28.454206 -55.377403 2.874493
-26.332541 -56.210434 4.308975
-26.155699 -57.073124 4.645882
-25.919806 -57.902637 4.700573
-25.733603 -56.249096 5.390823
-26.482279 -56.318619 5.494652
-26.215609 -58.002728 5.771221
22.464142 -55.134830 40.178478
22.418728 -55.138233 40.157402
22.435104 -55.137276 40.169064
22.407322 -55.135479 40.157070
22.434082 -55.137512 40.170979
22.415415 -55.138996 40.163597
22.440626 -55.134022 40.179634
22.423218 -55.138618 40.170254
22.403999 -55.136269 40.163555
22.457844 -55.136284 40.190254
22.402929 -55.136528 40.165737
22.385424 -55.141716 40.156628
22.464872 -55.133121 40.198235
22.447193 -55.137356 40.189350
22.409883 -55.136513 40.174377
22.428303 -55.138912 40.182636
22.418341 -55.139824 40.180424