# This PCD file was generated using the MATLAB® pcwrite function
# from Computer Vision System Toolbox®.
# .PCD v.7 - Point Cloud Data file format
VERSION .7
FIELDS x y z
SIZE 4 4 4
TYPE F F F
COUNT 1 1 1
WIDTH 744
HEIGHT 1
VIEWPOINT 0 0 0 1 0 0 0
POINTS 744
DATA ascii
1.106543 -0.234403 -0.157324
1.107397 -0.233865 -0.158528
1.148021 -0.211189 -0.120619
1.201516 -0.182035 -0.068756
1.109132 -0.232775 -0.160909
1.182337 -0.193156 -0.088973
1.129602 -0.221339 -0.142140
1.195500 -0.185506 -0.075994
1.136823 -0.217277 -0.136400
1.183032 -0.192721 -0.089877
1.131092 -0.220406 -0.144079
1.208619 -0.177884 -0.062945
1.112710 -0.230536 -0.165562
1.151599 -0.208949 -0.125272
1.202720 -0.181283 -0.070295
1.139661 -0.215506 -0.139962
1.184465 -0.191828 -0.091643
1.134162 -0.218492 -0.147864
1.184831 -0.191600 -0.092075
1.141121 -0.214598 -0.141698
1.209397 -0.177399 -0.063879
1.135741 -0.217511 -0.149708
1.142607 -0.213676 -0.143404
1.185950 -0.190906 -0.093349
1.137347 -0.216516 -0.151520
1.191791 -0.186558 -0.086412
1.210045 -0.176998 -0.064597
1.186215 -0.189594 -0.094159
1.169053 -0.198970 -0.116921
1.187488 -0.189956 -0.094993
1.146435 -0.211310 -0.147534
1.147220 -0.210827 -0.148337
1.188275 -0.189472 -0.095791
1.170734 -0.197935 -0.118640
1.148807 -0.209850 -0.149917
1.189075 -0.188980 -0.096573
1.194144 -0.185108 -0.088819
1.155928 -0.205866 -0.143675
1.146848 -0.213125 -0.160111
1.173036 -0.196522 -0.120850
1.179015 -0.193239 -0.113490
1.211758 -0.175946 -0.066272
1.195546 -0.184250 -0.090116
1.216997 -0.172625 -0.058418
1.191544 -0.187469 -0.098818
1.175405 -0.195073 -0.122965
1.155393 -0.205820 -0.155906
1.187368 -0.189815 -0.107693
1.151149 -0.208044 -0.164774
1.165126 -0.196693 -0.140480
1.202739 -0.181044 -0.083463
1.152064 -0.207487 -0.165525
1.207946 -0.178070 -0.075450
1.167897 -0.198926 -0.141496
1.107310 -0.227583 -0.241066
1.115812 -0.219860 -0.224382
1.203355 -0.180670 -0.083955
1.178456 -0.193216 -0.125471
1.189339 -0.188617 -0.109266
1.149998 -0.208389 -0.176078
1.115179 -0.223319 -0.235008
1.138364 -0.208876 -0.193032
1.185125 -0.190988 -0.118051
1.160566 -0.202675 -0.160036
1.167090 -0.201188 -0.152279
1.152005 -0.207172 -0.177591
1.122832 -0.219189 -0.228700
1.155114 -0.200740 -0.169337
1.186261 -0.190300 -0.118891
1.139043 -0.213991 -0.203817
1.191357 -0.187394 -0.110758
1.154035 -0.205943 -0.179063
1.139529 -0.210599 -0.205032
1.138216 -0.208296 -0.204919
1.182949 -0.192126 -0.128295
1.159589 -0.202924 -0.171197
1.187988 -0.189256 -0.120106
1.178418 -0.192896 -0.137342
1.141973 -0.209122 -0.206718
1.136087 -0.208919 -0.215246
1.184239 -0.191347 -0.129175
1.161523 -0.201756 -0.172518
1.146400 -0.204016 -0.198743
1.172092 -0.198165 -0.155764
1.158162 -0.203451 -0.181880
1.144443 -0.207632 -0.208353
1.134244 -0.209373 -0.225695
1.185542 -0.190561 -0.130029
1.163478 -0.200577 -0.173799
1.158612 -0.200573 -0.182825
1.166261 -0.194670 -0.165189
1.173795 -0.197140 -0.156857
1.164464 -0.199984 -0.174425
1.146938 -0.206130 -0.209938
1.137001 -0.207713 -0.227446
1.190927 -0.187484 -0.122012
1.148896 -0.208046 -0.210408
1.156548 -0.201326 -0.192996
1.146881 -0.203072 -0.210597
1.207533 -0.178146 -0.086836
1.182740 -0.190292 -0.140117
1.161787 -0.198663 -0.184779
1.173218 -0.191137 -0.158006
1.188187 -0.188970 -0.131657
1.151421 -0.206528 -0.211930
1.162856 -0.198021 -0.185408
1.149412 -0.201551 -0.212105
1.208200 -0.177745 -0.087229
1.184209 -0.189410 -0.140983
1.163929 -0.197377 -0.186027
1.174957 -0.190092 -0.159020
1.189528 -0.188165 -0.132430
1.169459 -0.196982 -0.177402
1.176733 -0.191142 -0.159593
1.171855 -0.191309 -0.168522
1.193938 -0.185677 -0.123767
1.170472 -0.196375 -0.177966
1.154567 -0.201550 -0.214385
1.161072 -0.195846 -0.196180
1.190882 -0.187355 -0.133176
1.171489 -0.195766 -0.178521
1.159631 -0.198995 -0.205993
1.173754 -0.190172 -0.169557
1.198759 -0.182942 -0.115313
1.168842 -0.197037 -0.188175
1.168269 -0.194778 -0.188392
1.178483 -0.187981 -0.160942
1.209895 -0.176730 -0.088153
1.173537 -0.194541 -0.179598
1.162093 -0.197522 -0.207274
1.175668 -0.189027 -0.170552
1.199855 -0.182287 -0.115877
1.171035 -0.195726 -0.189302
1.174034 -0.191806 -0.180315
1.180268 -0.186914 -0.161848
1.183445 -0.191355 -0.162237
1.179064 -0.191549 -0.171419
1.164575 -0.196040 -0.208504
1.163327 -0.193861 -0.208394
1.200960 -0.181627 -0.116418
1.186820 -0.187535 -0.153391
1.172680 -0.192143 -0.190579
1.182067 -0.185840 -0.162718
1.198262 -0.183092 -0.125964
1.177681 -0.192067 -0.181628
1.173794 -0.191479 -0.191098
1.162399 -0.193784 -0.218861
1.214809 -0.173942 -0.079674
1.201508 -0.180000 -0.116917
1.174911 -0.190814 -0.191605
1.183879 -0.184760 -0.163552
1.211975 -0.175489 -0.089146
1.208437 -0.176480 -0.098478
1.159936 -0.197404 -0.238880
1.165057 -0.192201 -0.220052
1.191019 -0.186983 -0.154943
1.177715 -0.191743 -0.192414
1.167711 -0.193706 -0.220744
1.172830 -0.188829 -0.201868
1.200785 -0.181591 -0.127080
1.184930 -0.188054 -0.174083
1.172130 -0.191541 -0.211890
1.183473 -0.184376 -0.174142
1.215934 -0.173273 -0.080158
1.191866 -0.184531 -0.155623
1.170397 -0.192109 -0.221854
1.175233 -0.187401 -0.202861
1.213386 -0.174650 -0.089738
1.186912 -0.186876 -0.174891
1.177620 -0.188741 -0.203444
1.170428 -0.189009 -0.222272
1.216502 -0.172936 -0.080384
1.196402 -0.182136 -0.146808
1.181697 -0.186781 -0.194410
1.189391 -0.181485 -0.165830
1.203341 -0.180073 -0.128092
1.188907 -0.185693 -0.175658
1.182840 -0.186103 -0.194837
1.173139 -0.187401 -0.223300
1.217074 -0.172597 -0.080597
1.195286 -0.182502 -0.156939
1.183987 -0.185424 -0.195252
1.177292 -0.185559 -0.214246
1.214815 -0.173803 -0.090271
1.201380 -0.179480 -0.138107
1.174535 -0.189198 -0.233967
1.178586 -0.184793 -0.214701
1.207753 -0.177592 -0.119186
1.197011 -0.181481 -0.157545
1.186290 -0.184061 -0.196048
1.193122 -0.179275 -0.167161
1.215536 -0.173377 -0.090516
1.202822 -0.178627 -0.138597
1.177422 -0.187491 -0.234933
1.181184 -0.183257 -0.215570
1.208909 -0.176908 -0.119567
1.201145 -0.179327 -0.148473
1.198341 -0.178749 -0.158201
1.205016 -0.174704 -0.129198
1.216260 -0.172949 -0.090747
1.204271 -0.177771 -0.139058
1.180324 -0.185777 -0.235840
1.183795 -0.181714 -0.216386
1.218808 -0.171571 -0.081167
1.209508 -0.175257 -0.119904
1.179493 -0.185817 -0.245965
1.185106 -0.180941 -0.216774
1.216988 -0.172519 -0.090963
1.214454 -0.172915 -0.100658
1.192102 -0.180629 -0.197833
1.195558 -0.177223 -0.178318
1.211239 -0.175533 -0.120257
1.202241 -0.178392 -0.159151
1.201840 -0.176685 -0.159219
1.196582 -0.176619 -0.178600
1.209859 -0.176221 -0.130165
1.197013 -0.180613 -0.188632
1.186170 -0.182330 -0.237477
1.191194 -0.177964 -0.208112
1.211848 -0.173878 -0.120547
1.193626 -0.179284 -0.208534
1.198637 -0.175410 -0.179131
1.218454 -0.171656 -0.091349
1.201106 -0.178489 -0.179405
1.196799 -0.177864 -0.199048
1.201659 -0.174240 -0.169598
1.220567 -0.170535 -0.081632
1.205767 -0.176317 -0.160044
1.188740 -0.180373 -0.248356
1.193030 -0.176275 -0.218824
1.212509 -0.174663 -0.130808
1.203172 -0.177275 -0.179884
1.199162 -0.176475 -0.199584
1.205422 -0.172636 -0.160216
1.221158 -0.170188 -0.081763
1.207541 -0.175275 -0.160437
1.205446 -0.174119 -0.170317
1.209849 -0.171249 -0.140738
1.219932 -0.170787 -0.091677
1.211616 -0.173448 -0.140919
1.201533 -0.175084 -0.200072
1.198723 -0.173539 -0.209820
1.215958 -0.172759 -0.121352
1.203246 -0.176667 -0.200255
1.207376 -0.172987 -0.170694
1.211333 -0.170379 -0.141028
1.220675 -0.170352 -0.091818
1.205880 -0.175404 -0.190596
1.203912 -0.173689 -0.200512
1.201250 -0.172058 -0.210287
1.210650 -0.175275 -0.171038
1.205627 -0.175272 -0.200683
1.203701 -0.173370 -0.210607
1.206933 -0.170541 -0.180838
1.216519 -0.172311 -0.131571
1.208116 -0.174095 -0.190975
1.200986 -0.173635 -0.240526
1.202387 -0.170789 -0.220603
1.218342 -0.171363 -0.121756
1.212897 -0.172136 -0.161400
1.212506 -0.170425 -0.161414
1.209023 -0.169318 -0.181160
1.226469 -0.167433 -0.052340
1.220670 -0.169266 -0.101970
1.203977 -0.171887 -0.240956
1.205078 -0.169216 -0.220989
1.219538 -0.170664 -0.121922
1.214693 -0.171087 -0.161648
1.209888 -0.170194 -0.201400
1.211119 -0.168094 -0.181439
1.218286 -0.171162 -0.141891
1.212604 -0.171472 -0.191596
1.211088 -0.169493 -0.201542
1.212168 -0.167481 -0.181563
1.216483 -0.171865 -0.171845
1.212808 -0.171075 -0.201677
1.212289 -0.168793 -0.201671
1.209126 -0.166853 -0.221466
1.219787 -0.170286 -0.142053
1.214855 -0.170159 -0.191839
1.213491 -0.168092 -0.201789
1.211426 -0.166112 -0.211643
1.218436 -0.170727 -0.172036
1.215983 -0.169502 -0.191943
1.214694 -0.167391 -0.201894
1.211831 -0.165276 -0.221717
1.221290 -0.169410 -0.142184
1.217111 -0.168844 -0.192036
1.215898 -0.166690 -0.201987
1.216376 -0.165029 -0.181952
1.220392 -0.169588 -0.172187
1.220101 -0.167934 -0.162176
1.217102 -0.165989 -0.202067
1.218152 -0.164594 -0.172051
1.223270 -0.168373 -0.132298
1.222095 -0.167327 -0.142262
1.215999 -0.164880 -0.242067
1.215896 -0.162911 -0.221989
1.220752 -0.168919 -0.212264
1.222379 -0.166886 -0.152290
1.219514 -0.164587 -0.202193
1.220111 -0.163455 -0.172152
1.223330 -0.167879 -0.172339
1.222026 -0.166262 -0.182301
1.220721 -0.163886 -0.202237
1.220595 -0.162575 -0.182171
1.224311 -0.167310 -0.172371
1.224038 -0.165922 -0.152351
1.223332 -0.164119 -0.162305
1.221651 -0.161962 -0.182199
1.225985 -0.166796 -0.132398
1.224138 -0.165036 -0.182357
1.223136 -0.162485 -0.202289
1.221671 -0.160156 -0.212175
1.226273 -0.166172 -0.172403
1.225531 -0.164780 -0.162375
1.225144 -0.163069 -0.162325
1.223764 -0.160737 -0.182224
1.227232 -0.165502 -0.182404
1.226252 -0.163811 -0.182371
1.225053 -0.159625 -0.242263
1.224238 -0.158668 -0.212179
1.228076 -0.165470 -0.142399
1.227410 -0.164794 -0.122383
1.226760 -0.160385 -0.202276
1.225997 -0.160042 -0.172220
1.229217 -0.164466 -0.172377
1.228425 -0.162277 -0.192337
1.227968 -0.159686 -0.202247
1.226761 -0.156609 -0.222114
1.231219 -0.162736 -0.222325
1.229692 -0.161268 -0.202297
1.229176 -0.158987 -0.202206
1.227960 -0.158906 -0.172163
1.231180 -0.163331 -0.172311
1.230690 -0.160967 -0.192260
1.230384 -0.158289 -0.202153
1.229156 -0.157019 -0.192075
1.230741 -0.164043 -0.132309
1.230397 -0.162515 -0.142274
1.231592 -0.157591 -0.202088
1.229923 -0.157772 -0.172067
1.233142 -0.162198 -0.172205
1.232954 -0.159659 -0.192138
1.234113 -0.154387 -0.241910
1.232453 -0.152722 -0.231816
1.234629 -0.161225 -0.182116
1.232342 -0.161116 -0.152153
1.234006 -0.156198 -0.201921
1.231884 -0.156640 -0.171932
1.233359 -0.162418 -0.142141
1.235217 -0.158353 -0.191970
1.235212 -0.155502 -0.201819
1.234910 -0.151904 -0.221633
1.236083 -0.160502 -0.171972
1.236935 -0.157087 -0.201833
1.234200 -0.157836 -0.161882
1.234328 -0.154633 -0.181706
1.234865 -0.161549 -0.141998
1.236816 -0.157709 -0.181800
1.237623 -0.154114 -0.201579
1.237621 -0.150342 -0.221363
1.238040 -0.159375 -0.171767
1.239345 -0.155699 -0.201580
1.236007 -0.156796 -0.161684
1.236435 -0.153420 -0.181475
1.236370 -0.160683 -0.141826
1.239736 -0.155751 -0.191497
1.240031 -0.152729 -0.201291
1.237488 -0.152815 -0.181343
1.239995 -0.158250 -0.171523
1.241752 -0.154315 -0.201280
1.237811 -0.155759 -0.161449
1.238540 -0.152210 -0.181201
1.237873 -0.159820 -0.141623
1.241990 -0.154456 -0.191193
1.246157 -0.147455 -0.240590
1.242172 -0.148325 -0.210757
1.233084 -0.163155 -0.091961
1.234811 -0.160802 -0.111764
1.243634 -0.150659 -0.200767
1.239705 -0.152141 -0.170995
1.239373 -0.158959 -0.141390
1.244240 -0.153164 -0.190843
1.244833 -0.149971 -0.200569
1.242700 -0.149223 -0.190591
1.243895 -0.156012 -0.170917
1.246552 -0.151560 -0.200534
1.246031 -0.149285 -0.200358
1.241652 -0.151025 -0.170662
1.239537 -0.158983 -0.131255
1.240172 -0.156892 -0.141103
1.247226 -0.148600 -0.200136
1.244943 -0.147937 -0.190184
1.238802 -0.159523 -0.121269
1.242256 -0.155418 -0.150815
1.248421 -0.147916 -0.199901
1.243594 -0.149913 -0.170291
1.234953 -0.162084 -0.091622
1.241665 -0.156037 -0.140809
1.255131 -0.142311 -0.238965
1.251108 -0.142603 -0.219198
1.233770 -0.162881 -0.081717
1.237950 -0.159004 -0.111179
1.244990 -0.151644 -0.160150
1.246914 -0.147411 -0.179686
1.235698 -0.161658 -0.091461
1.243154 -0.155185 -0.140486
1.251994 -0.145873 -0.199125
1.253785 -0.141073 -0.218602
1.236069 -0.161446 -0.091374
1.240626 -0.157193 -0.120733
1.253181 -0.145195 -0.198843
1.253589 -0.141788 -0.208514
1.229324 -0.165784 -0.052186
1.237801 -0.159371 -0.101044
1.247661 -0.150119 -0.159514
1.250030 -0.145632 -0.178944
1.244222 -0.156305 -0.130213
1.248945 -0.151315 -0.159452
1.255550 -0.143843 -0.198242
1.249385 -0.146604 -0.168943
1.246813 -0.154704 -0.139774
1.255403 -0.146781 -0.188419
1.249435 -0.149108 -0.159045
1.253852 -0.142848 -0.188111
1.243549 -0.156812 -0.120139
1.258441 -0.144766 -0.197829
1.250319 -0.148604 -0.158798
1.243992 -0.152099 -0.129645
1.248287 -0.153865 -0.139361
1.257614 -0.145522 -0.187800
1.266972 -0.135556 -0.235962
1.263664 -0.134836 -0.226166
1.255464 -0.149405 -0.168164
1.258716 -0.144895 -0.187474
1.260261 -0.141161 -0.196898
1.253211 -0.144426 -0.167851
1.249754 -0.153031 -0.138919
1.259815 -0.144270 -0.187137
1.261432 -0.140495 -0.196532
1.264401 -0.135024 -0.215686
1.257367 -0.148323 -0.167570
1.260912 -0.143647 -0.186789
1.264792 -0.138138 -0.205764
1.257233 -0.141532 -0.176851
1.251215 -0.152201 -0.138448
1.262007 -0.143025 -0.186430
1.263767 -0.139169 -0.195766
1.256060 -0.142807 -0.166932
1.249503 -0.153301 -0.128622
1.253618 -0.148943 -0.147754
1.276614 -0.129631 -0.243164
1.268336 -0.132791 -0.214374
1.252669 -0.151376 -0.137947
1.264188 -0.141788 -0.185679
1.266091 -0.137852 -0.194954
1.260287 -0.139800 -0.175800
1.250808 -0.152561 -0.128159
1.255213 -0.148038 -0.147187
1.257323 -0.144627 -0.156500
1.261299 -0.139226 -0.175429
1.254115 -0.150557 -0.137418
1.266358 -0.140558 -0.184884
1.268403 -0.136542 -0.194094
1.269759 -0.132597 -0.203470
1.263023 -0.145117 -0.165561
1.267439 -0.139947 -0.184471
1.261678 -0.141709 -0.165291
1.263316 -0.138085 -0.174657
1.263957 -0.144589 -0.165193
1.268517 -0.139337 -0.184046
1.270702 -0.135242 -0.193189
1.259067 -0.141717 -0.155421
1.264888 -0.144063 -0.164816
1.269592 -0.138730 -0.183611
1.274616 -0.132575 -0.202113
1.276116 -0.128388 -0.211397
1.256985 -0.148935 -0.136272
1.270663 -0.138125 -0.183165
1.272988 -0.133951 -0.192237
1.260781 -0.140749 -0.154707
1.266742 -0.143016 -0.164034
1.271732 -0.137522 -0.182708
1.288683 -0.122805 -0.238411
1.278679 -0.126942 -0.210301
1.255320 -0.150011 -0.126331
1.269780 -0.138921 -0.172919
1.275260 -0.132670 -0.191240
1.277043 -0.128484 -0.200438
1.252800 -0.151571 -0.116752
1.273858 -0.136323 -0.181763
1.279444 -0.129853 -0.199994
1.281227 -0.125506 -0.209154
1.259819 -0.147337 -0.135011
1.274916 -0.135727 -0.181274
1.277518 -0.131399 -0.190198
1.279441 -0.127133 -0.199331
1.270416 -0.140947 -0.162359
1.279199 -0.133015 -0.189999
1.269060 -0.137546 -0.162051
1.271265 -0.133602 -0.171168
1.257855 -0.148585 -0.125146
1.290216 -0.125909 -0.217026
1.279760 -0.130138 -0.189110
1.281823 -0.125794 -0.198176
1.255046 -0.150308 -0.115676
1.278069 -0.133955 -0.179745
1.284208 -0.127174 -0.197684
1.286270 -0.122671 -0.206708
1.262616 -0.145765 -0.133638
1.279112 -0.133369 -0.179214
1.281986 -0.128889 -0.187978
1.284187 -0.124467 -0.196973
1.274038 -0.138912 -0.160538
1.283659 -0.130510 -0.187757
1.283092 -0.128268 -0.187396
1.275160 -0.131416 -0.169188
1.274936 -0.138410 -0.160060
1.281187 -0.132205 -0.178122
1.284195 -0.127650 -0.186802
1.276124 -0.130875 -0.168668
1.279544 -0.135677 -0.168586
1.267639 -0.141039 -0.141520
1.285293 -0.127036 -0.186197
1.277085 -0.130338 -0.168139
1.265372 -0.144221 -0.132154
1.283246 -0.131052 -0.176988
1.301097 -0.116299 -0.221374
1.292469 -0.119197 -0.203369
1.246799 -0.155380 -0.087089
1.269143 -0.140198 -0.140674
1.272493 -0.136091 -0.149319
1.278994 -0.129270 -0.167052
1.247139 -0.155190 -0.086891
1.269890 -0.139780 -0.140239
1.303814 -0.114781 -0.219794
1.294914 -0.117831 -0.201947
1.275382 -0.138315 -0.148681
1.290220 -0.126839 -0.184063
1.309044 -0.111383 -0.227812
1.296128 -0.117153 -0.201218
1.280243 -0.135442 -0.157006
1.283328 -0.131324 -0.165785
1.290715 -0.124007 -0.183010
1.293460 -0.119281 -0.191695
1.260511 -0.147251 -0.112599
1.292370 -0.125640 -0.182745
1.311860 -0.109814 -0.226068
1.298541 -0.115808 -0.199723
1.269420 -0.141961 -0.129724
1.289319 -0.127663 -0.173341
1.309176 -0.111792 -0.216472
1.299739 -0.115141 -0.198958
1.282845 -0.133993 -0.155361
1.290316 -0.127108 -0.172698
1.293910 -0.122228 -0.180969
1.284624 -0.126131 -0.163565
1.270745 -0.141224 -0.128860
1.291307 -0.126557 -0.172046
1.294965 -0.121641 -0.180267
1.297976 -0.116768 -0.188781
1.267017 -0.143465 -0.119818
1.275028 -0.136919 -0.136991
1.296015 -0.121058 -0.179555
1.286465 -0.125108 -0.162328
1.267606 -0.143138 -0.119415
1.310804 -0.114408 -0.204924
1.314439 -0.108868 -0.212938
1.304474 -0.112510 -0.195778
1.245610 -0.156206 -0.076453
1.276464 -0.136122 -0.135997
1.320148 -0.105209 -0.220502
1.305644 -0.111862 -0.194953
1.268775 -0.142490 -0.118590
1.295225 -0.124383 -0.169336
1.317030 -0.107432 -0.211092
1.306806 -0.111218 -0.194117
1.283291 -0.133918 -0.143422
1.314497 -0.112362 -0.202294
1.300162 -0.118760 -0.176603
1.307963 -0.110577 -0.193270
1.288770 -0.130707 -0.151223
1.315715 -0.111688 -0.201393
1.338004 -0.093832 -0.242553
1.309114 -0.109941 -0.192411
1.265732 -0.144354 -0.108988
1.302814 -0.119845 -0.175522
1.325532 -0.102230 -0.216519
1.310258 -0.109309 -0.191540
1.271075 -0.141218 -0.116872
1.313363 -0.113331 -0.191285
1.322130 -0.104613 -0.207248
1.311396 -0.108681 -0.190658
1.247144 -0.155358 -0.075308
1.261360 -0.145837 -0.099961
1.304219 -0.116520 -0.173487
1.288921 -0.124408 -0.148833
1.292056 -0.128893 -0.148676
1.315626 -0.112083 -0.189498
1.344056 -0.090493 -0.237819
1.332786 -0.094220 -0.221405
1.267742 -0.143245 -0.107400
1.301880 -0.120708 -0.164225
1.306213 -0.115422 -0.171869
1.314769 -0.106823 -0.187945
1.273324 -0.139979 -0.115064
1.317862 -0.110852 -0.187667
1.327114 -0.101869 -0.203203
1.315880 -0.106212 -0.187018
1.289323 -0.130592 -0.138659
1.308812 -0.116541 -0.170698
1.308182 -0.114340 -0.170211
1.292140 -0.122638 -0.146173
1.295266 -0.127129 -0.145999
1.325211 -0.106457 -0.193756
1.349964 -0.087247 -0.232846
1.338201 -0.091244 -0.216848
1.248625 -0.154544 -0.074072
1.284757 -0.131549 -0.129449
1.335934 -0.096509 -0.207922
1.339533 -0.090513 -0.215675
1.254197 -0.151284 -0.081720
1.280160 -0.134434 -0.121000
1.352862 -0.085659 -0.230273
1.320255 -0.103813 -0.183202
1.270668 -0.141640 -0.104871
1.333974 -0.101290 -0.198505
1.338453 -0.095130 -0.205645
1.321331 -0.103224 -0.182221
1.276595 -0.138186 -0.112185
1.329785 -0.103952 -0.189659
1.355722 -0.084095 -0.227642
1.322399 -0.102640 -0.181230
1.271618 -0.141120 -0.103990
1.336349 -0.099992 -0.196301
1.340938 -0.093772 -0.203319
1.344775 -0.087648 -0.210853
1.277656 -0.137607 -0.111183
1.332026 -0.102729 -0.187543
1.358543 -0.082556 -0.224955
1.340676 -0.090581 -0.202015
1.295060 -0.127454 -0.133428
1.333134 -0.102125 -0.186468
1.315807 -0.110171 -0.163197
1.347342 -0.086249 -0.208365
1.301439 -0.123755 -0.140270
1.334235 -0.101526 -0.185382
1.339027 -0.095356 -0.192245
1.343108 -0.089256 -0.199616
1.296444 -0.126701 -0.132050
1.335327 -0.100932 -0.184286
1.345804 -0.091124 -0.198519
1.349872 -0.084873 -0.205826
1.279733 -0.136477 -0.109116
1.336412 -0.100343 -0.183178
1.364062 -0.079555 -0.219414
1.351122 -0.084194 -0.204538
1.250966 -0.153267 -0.071823
1.314342 -0.113898 -0.152660
1.348183 -0.089833 -0.196047
1.329669 -0.098685 -0.173996
1.304394 -0.122151 -0.137226
1.367769 -0.081354 -0.217384
1.366760 -0.078093 -0.216563
1.353594 -0.082855 -0.201924
1.299152 -0.125233 -0.129213
1.333717 -0.102203 -0.172561
1.344668 -0.092297 -0.186333
1.331676 -0.097599 -0.171838
1.305838 -0.121370 -0.135660
1.346620 -0.094414 -0.185812
1.369415 -0.076658 -0.213658
1.379388 -0.066016 -0.227781
1.300474 -0.124519 -0.127754
1.365743 -0.082856 -0.205918
1.352828 -0.087322 -0.190964
1.357229 -0.080891 -0.197913
1.282731 -0.134855 -0.105864
1.318490 -0.111656 -0.148122
1.396106 -0.059972 -0.238750
1.382216 -0.064491 -0.224578
1.301774 -0.123818 -0.126270
1.343767 -0.096367 -0.175131
1.373315 -0.074556 -0.209204
1.359602 -0.079613 -0.195180
1.283698 -0.134335 -0.104741
1.375635 -0.077110 -0.208553
1.399101 -0.058361 -0.235240
1.366829 -0.074987 -0.200677
1.277882 -0.137728 -0.097310
1.339567 -0.099050 -0.165880
1.375860 -0.073190 -0.206170
1.361934 -0.078361 -0.192400
1.303682 -0.122793 -0.123995
1.403273 -0.060555 -0.232690
1.402044 -0.056783 -0.231672
1.387729 -0.061530 -0.218007
1.246735 -0.155805 -0.062615
1.322466 -0.109521 -0.143383
1.403495 -0.056006 -0.229866
1.382863 -0.064891 -0.209641
1.279132 -0.137059 -0.095769
1.342378 -0.097544 -0.162412
1.404933 -0.055238 -0.228046
1.371619 -0.072422 -0.194768
1.292540 -0.129321 -0.108456
1.349729 -0.093172 -0.167838
1.406357 -0.054478 -0.226212
1.385418 -0.063526 -0.206379
1.407768 -0.053726 -0.224364
1.373947 -0.071181 -0.191744
1.383219 -0.069260 -0.196774
1.387924 -0.062192 -0.203067
1.410547 -0.052249 -0.220626
1.395623 -0.057321 -0.207752
1.411916 -0.051523 -0.218736
1.422947 -0.039682 -0.231165
1.439803 -0.034218 -0.241751
1.404713 -0.051714 -0.210455
1.441335 -0.033408 -0.239561
1.392786 -0.059616 -0.196297
1.407284 -0.050356 -0.206748
1.417249 -0.048706 -0.211046
1.395141 -0.058374 -0.192841
1.409799 -0.049033 -0.202991
1.412961 -0.051621 -0.201241
1.390648 -0.061555 -0.183462
1.432782 -0.034502 -0.216603
1.422349 -0.046032 -0.203150
1.406580 -0.051549 -0.191528
1.423587 -0.045386 -0.201145
1.407729 -0.050949 -0.189666
1.403675 -0.057839 -0.182337
1.415839 -0.045875 -0.193385
1.397665 -0.061664 -0.175001
1.395952 -0.058787 -0.174872
1.398687 -0.061134 -0.173252
1.411094 -0.049201 -0.184015
1.378178 -0.073900 -0.155357
1.390882 -0.062284 -0.165991
1.422336 -0.046744 -0.185637
1.406123 -0.052649 -0.174895
1.414330 -0.047530 -0.178267