# This PCD file was generated using the MATLAB® pcwrite function
# from Computer Vision System Toolbox®.
# .PCD v.7 - Point Cloud Data file format
VERSION .7
FIELDS x y z
SIZE 4 4 4
TYPE F F F
COUNT 1 1 1
WIDTH 901
HEIGHT 1
VIEWPOINT 0 0 0 1 0 0 0
POINTS 901
DATA ascii
-37.004097 -2.488051 -0.738941
-37.043312 -1.813421 -0.679676
-36.292885 -2.411945 -0.695948
-36.408428 -1.749498 -0.700562
-35.699688 -2.344883 -0.739468
-35.814224 -1.688336 -0.744850
-35.070637 -2.275830 -0.742395
-35.184090 -1.625877 -0.748569
-34.474323 -2.209631 -0.762947
-34.556633 -1.564184 -0.743616
-33.850494 -2.142078 -0.748833
-33.902042 -1.501765 -0.703501
-33.229542 -2.075305 -0.726147
-33.369465 -1.446040 -0.761440
-32.670322 -2.013272 -0.749075
-32.809036 -1.389454 -0.785351
-32.142384 -1.953823 -0.791882
-32.170441 -1.329701 -0.726711
-31.594517 -1.893521 -0.807091
-31.578812 -1.272823 -0.700594
-30.984348 -1.829655 -0.752424
-31.061913 -1.219973 -0.735994
-30.398859 -1.767970 -0.710484
-30.532570 -1.167052 -0.750656
-29.851692 -1.709284 -0.696053
-29.955929 -1.112576 -0.708870
-29.362968 -1.654777 -0.731539
-29.424339 -1.060645 -0.702166
-28.848227 -1.599079 -0.731972
-22.319715 -0.734060 6.134853
-28.374949 -0.987573 -0.148682
-27.793840 -1.510831 -0.151833
-28.031660 -0.944935 -0.312300
-27.288633 -1.457094 -0.134258
-27.524246 -0.895940 -0.296566
-26.927240 -1.412391 -0.265179
-27.147444 -0.852541 -0.414417
-26.612350 -1.370652 -0.444139
-26.510073 -0.799550 -0.238010
-26.005836 -1.312204 -0.289888
-26.202137 -0.759478 -0.419939
-25.475969 -1.258785 -0.210480
-25.755457 -0.714579 -0.440210
-25.176035 -1.218797 -0.390581
-25.258532 -0.668367 -0.394123
-24.721153 -1.170394 -0.383636
-24.905651 -0.627516 -0.510252
-24.357092 -1.127333 -0.479191
-24.457367 -0.583810 -0.506729
-23.761148 -1.072167 -0.282799
-23.891586 -0.536900 -0.349993
-23.455952 -1.032914 -0.438717
-23.454809 -0.494590 -0.342260
-15.894843 -0.621152 8.732494
-23.100771 -0.991238 -0.528460
-23.007692 -0.452427 -0.313437
-22.630510 -0.944010 -0.463400
-22.745386 -0.415814 -0.517153
-22.617212 0.663544 -0.429892
-22.283161 -0.903326 -0.552319
-16.015591 -0.210009 7.867970
-22.264776 -0.373508 -0.431009
-22.290371 0.170783 -0.642708
-22.317310 0.699298 -0.581337
-16.692944 -0.609589 6.475325
-21.906351 -0.861452 -0.597233
-16.002741 -0.188070 7.483599
-21.912260 -0.334969 -0.507620
-21.906452 0.207374 -0.678545
-22.046181 0.735634 -0.770073
-16.442951 -0.579524 6.390776
-21.524611 -0.819643 -0.629766
-21.501366 -0.295313 -0.499462
-21.453379 0.243538 -0.612701
-21.667906 0.769377 -0.810602
-21.086077 -0.775523 -0.576458
-16.100018 -0.145507 6.515339
-21.170832 0.279541 -0.777882
-21.313795 0.803390 -0.879450
-20.724483 -0.735313 -0.624386
-20.908743 -0.222025 -0.788057
-16.100716 0.294928 5.938154
-20.829939 0.315256 -0.858343
-15.299632 0.675604 7.163843
-20.948702 0.836804 -0.928061
-14.223289 -0.425638 8.297174
-20.454062 -0.699386 -0.800270
-16.423346 -0.104593 5.166378
-20.568661 -0.184695 -0.866226
-17.488689 0.332568 3.457830
-15.124503 0.702865 6.994623
-16.062746 0.731570 5.625509
-13.807317 -0.390761 8.509510
-14.370625 -0.414858 7.671535
-20.104094 -0.660126 -0.857567
-13.832311 -0.033399 8.543163
-14.682198 -0.048573 7.283060
-20.234419 -0.147704 -0.949068
-14.629539 0.719807 7.299643
-14.227432 -0.391241 7.467354
-19.743694 -0.620688 -0.894381
-15.081971 -0.032165 6.251043
-14.290712 0.367407 7.309475
-15.027184 0.374556 6.190027
-14.366886 0.743614 7.269388
-19.329874 -0.579376 -0.843298
-15.208942 -0.009888 5.604612
-19.452003 -0.072696 -0.928120
-15.130296 0.405359 5.577076
-19.338831 0.454210 -0.942392
-13.865689 0.758318 7.611223
-18.939898 -0.539419 -0.821089
-13.568577 0.036786 7.711864
-15.094766 0.016616 5.316879
-19.060705 -0.035799 -0.906700
-14.790534 0.431382 5.644911
-18.953039 0.487830 -0.927666
-14.915870 0.832807 5.529835
-19.044750 0.995523 -0.967541
-13.989464 -0.327144 6.529003
-18.567652 -0.500504 -0.819855
-14.398998 0.050161 5.953585
-18.692476 0.000411 -0.914715
-18.637585 0.522095 -1.018982
-15.729897 0.903356 3.751196
-18.675694 1.026409 -0.974485
-13.729440 -0.298645 6.497196
-18.238590 -0.463499 -0.882698
-14.415873 0.075013 5.458126
-18.320347 0.036306 -0.910112
-15.559297 0.507457 3.427326
-18.321997 0.556183 -1.107121
-14.422967 0.885189 5.377165
-15.090459 0.914696 4.285381
-18.302765 1.056696 -0.968807
-13.356898 -0.266379 6.656851
-17.832785 -0.424015 -0.813467
-15.296066 0.093553 3.512272
-17.970348 0.071643 -0.935631
-14.134280 0.513564 5.288963
-14.985613 0.530390 3.863991
-17.924255 0.588470 -1.054741
-14.893342 0.944683 4.108400
-17.915945 1.085873 -0.933258
-17.581514 -0.390199 -0.998123
-13.614574 0.132399 5.839499
-17.717802 0.106046 -1.121054
-14.385357 0.551252 4.368982
-17.478294 0.619159 -0.911505
-14.020558 0.941547 5.079176
-14.547400 0.967517 4.182871
-17.546350 1.115349 -0.919170
-17.258556 -0.354070 -1.059381
-13.345652 0.159441 5.821392
-17.273285 0.141371 -0.975361
-13.132879 0.554650 6.035725
-14.437306 0.586236 3.763748
-17.125822 0.651335 -0.918951
-13.994299 0.978990 4.625189
-17.203333 1.145726 -0.944300
-15.997289 -0.289094 0.545874
-16.886749 -0.316642 -1.030260
-16.886875 0.175864 -0.920000
-16.769661 0.683041 -0.913874
-16.851395 1.175264 -0.948372
-15.631330 -0.253534 0.604319
-16.570002 -0.281201 -1.093246
-11.470794 0.213860 8.207071
-14.595755 0.211390 2.576067
-16.575546 0.209824 -0.991400
-11.452312 0.570740 8.096771
-13.542587 0.631245 4.305202
-16.419733 0.714525 -0.913675
-16.471674 1.202788 -0.896175
-15.267621 -0.218432 0.666924
-11.253826 0.237565 8.156351
-16.216509 0.243537 -0.971840
-11.229607 0.593514 8.055376
-16.061598 0.745366 -0.892122
-13.183805 1.053847 4.529739
-16.089394 1.229565 -0.830925
-10.960483 -0.079841 8.171186
-14.840604 -0.182061 0.857321
-12.616079 0.266290 5.142027
-14.980187 0.273999 0.702227
-15.854390 0.276850 -0.939529
-10.965003 0.614708 8.095770
-15.700425 0.775663 -0.857824
-11.050931 0.960011 8.014383
-15.751695 1.258540 -0.840818
-14.717685 -0.153822 0.476156
-10.755232 0.284237 8.185492
-14.624909 0.305076 0.763763
-15.480214 0.309682 -0.876644
-10.591634 0.631536 8.352200
-15.359481 0.806227 -0.855082
-10.869804 0.984303 7.897465
-15.405845 1.286589 -0.829420
-14.734325 -0.128410 -0.190245
-10.493990 0.307071 8.230831
-14.340053 0.336226 0.695675
-15.060476 0.838061 -0.928991
-10.596854 1.002278 7.960226
-15.084070 1.315871 -0.858871
-14.624700 -0.099414 -0.626324
-14.086420 0.367524 0.567739
-14.877386 0.375315 -1.015678
-10.198570 0.677097 8.198725
-13.948330 0.835407 0.639105
-14.694727 0.866919 -0.865654
-14.749601 1.343916 -0.858204
-14.219748 -0.064172 -0.469328
-10.046680 0.352619 8.186457
-14.529834 0.407311 -0.986464
-10.079840 0.703336 7.962780
-13.650318 0.864576 0.604923
-10.052434 1.036799 8.103941
-14.407552 1.370973 -0.836069
-13.947622 -0.031844 -0.578447
-14.248630 0.439877 -1.088858
-13.378510 0.894762 0.519531
-9.940241 1.066102 7.851078
-13.387825 1.343101 0.615206
-14.088518 1.399398 -0.855425
-13.564967 0.002133 -0.449394
-10.185472 0.407490 6.900982
-13.882081 0.470899 -1.007492
-13.278797 0.933702 0.064842
-9.697825 1.085076 7.870331
-13.061274 1.367936 0.650352
-13.740716 1.425076 -0.808138
-13.218768 0.035087 -0.388803
-9.927608 0.430467 6.936237
-13.497269 0.501036 -0.876616
-13.440592 0.987978 -0.982082
-12.794346 1.397513 0.561634
-12.858421 0.067811 -0.287920
-13.115806 0.530600 -0.741381
-12.536288 0.983241 0.333389
-13.123512 1.017343 -0.991941
-9.200112 1.120759 7.952990
-9.862216 1.181707 6.464767
-12.518758 1.426247 0.493622
-12.476952 0.100264 -0.128017
-12.330032 0.549274 0.333075
-12.763625 1.043745 -0.897690
-12.366428 1.466731 0.144091
-12.130487 0.131880 -0.037411
-12.143736 0.581813 0.057156
-11.966775 1.040948 0.241068
-12.306542 1.517486 -0.434919
-11.912745 0.162418 -0.247961
-11.719516 0.607323 0.345539
-11.937545 1.087198 -0.420208
-9.126027 1.241663 6.499676
-12.073156 1.551860 -0.618071
-11.624907 0.193284 -0.290039
-11.613092 0.642726 -0.130093
-11.733619 1.122519 -0.675045
-11.837530 1.586337 -0.799421
-11.293308 0.223965 -0.217709
-11.370628 0.673970 -0.280588
-8.628801 0.933802 6.460497
-11.442250 1.151594 -0.714540
-11.581370 1.618807 -0.932468
-10.978196 0.254276 -0.179230
-11.040151 0.701696 -0.205189
-11.033356 1.170851 -0.443138
-11.234297 1.640515 -0.830177
-10.685639 0.284365 -0.193737
-10.736469 0.730115 -0.191843
-8.844821 1.035041 4.629225
-10.668427 1.192616 -0.270014
-10.879402 1.660433 -0.696121
-10.414199 0.314400 -0.261795
-10.430444 0.758086 -0.166092
-8.437868 1.043221 5.066214
-10.361853 1.218749 -0.243208
-10.442274 1.668589 -0.323555
-10.152423 0.344434 -0.355659
-7.746171 0.660387 6.550926
-10.155865 0.787345 -0.222063
-7.600515 1.008078 6.752567
-10.079835 1.246820 -0.279331
-7.570672 1.339949 6.946787
-10.092537 1.686760 -0.171745
-9.847500 0.373795 -0.324314
-7.510715 0.681672 6.574705
-9.874582 0.816097 -0.256615
-7.383125 1.029336 6.730671
-9.772061 1.272084 -0.237181
-7.367749 1.362214 6.887587
-9.775537 1.708596 -0.101158
-7.204847 0.361254 6.698902
-9.559782 0.403134 -0.337355
-7.282660 0.703113 6.581871
-9.587116 0.844284 -0.269585
-7.162793 1.050115 6.720301
-9.484759 1.299054 -0.248846
-7.119991 1.377728 6.962797
-9.327346 1.710001 0.370472
-6.904620 0.381893 6.936964
-9.247876 0.431734 -0.271578
-7.005644 0.721082 6.743307
-9.321927 0.873690 -0.346344
-6.881332 1.063771 6.902189
-9.188785 1.324767 -0.229256
-6.846324 1.388533 7.126057
-9.268074 1.770109 -0.320763
-8.985999 0.461170 -0.355230
-6.813616 0.744327 6.650480
-9.044061 0.902156 -0.382627
-6.262307 1.036164 8.174150
-6.681444 1.086182 6.839302
-8.911850 1.352352 -0.264004
-8.981035 1.795627 -0.327311
-6.493884 0.426295 6.849669
-8.673651 0.489105 -0.274035
-8.751594 0.929345 -0.368574
-8.629204 1.379042 -0.277077
-6.130924 1.377834 8.044067
-8.691676 1.820422 -0.321590
-5.984019 0.438351 7.834604
-8.391845 0.517591 -0.285555
-8.454364 0.955814 -0.332552
-5.853064 1.074103 8.166056
-8.366817 1.408161 -0.354595
-5.972048 1.404592 7.882580
-8.374715 1.839835 -0.217377
-5.770497 0.458721 7.855846
-6.065759 0.469718 6.827450
-8.107759 0.545772 -0.284826
-8.155670 0.981747 -0.284035
-5.806870 1.114978 7.612411
-8.068079 1.432202 -0.304905
-5.802577 1.429928 7.751032
-8.090568 1.864584 -0.215532
-5.624724 0.481689 7.638275
-7.824345 0.573731 -0.281422
-5.653152 0.801709 7.662601
-7.882687 1.009623 -0.319256
-5.631780 1.139017 7.491436
-7.784160 1.457900 -0.300463
-5.511004 1.431377 8.053759
-7.828486 1.893374 -0.287989
-7.541625 0.601468 -0.275356
-5.525183 0.829368 7.368849
-7.609729 1.037349 -0.351995
-5.344250 1.145784 7.786963
-7.500949 1.483372 -0.293356
-5.377930 1.464071 7.790846
-7.563182 1.921545 -0.348503
-7.272168 0.629631 -0.315039
-5.455600 0.864155 6.833860
-7.316645 1.062770 -0.304871
-5.112170 1.160083 7.892250
-7.228440 1.510269 -0.322302
-5.278291 1.505377 7.383669
-7.284908 1.946861 -0.358341
-6.990493 0.656962 -0.303787
-5.204086 0.880038 6.986759
-7.034729 1.089005 -0.293709
-4.969055 1.189207 7.650818
-6.936745 1.533639 -0.271210
-6.999788 1.970306 -0.336557
-6.679170 0.682133 -0.163534
-4.927430 0.892028 7.258856
-6.741814 1.113575 -0.231340
-4.738484 1.203130 7.760054
-6.665098 1.560153 -0.295055
-4.872091 1.544278 7.346336
-6.724962 1.995780 -0.350929
-4.733431 0.592432 7.051868
-6.427220 0.710779 -0.263674
-6.473225 1.140789 -0.263502
-4.530371 1.220658 7.783985
-6.393579 1.586508 -0.316448
-4.711916 1.574542 7.145634
-6.443676 2.019343 -0.333622
-6.156692 0.738079 -0.283602
-4.503184 0.929904 7.304945
-6.202423 1.167556 -0.283503
-4.413553 1.256842 7.400162
-6.104973 1.609114 -0.257351
-4.284235 1.533361 8.134897
-6.165383 2.043262 -0.323452
-5.888413 0.765394 -0.310860
-5.931783 1.194164 -0.301056
-4.261443 1.287183 7.153589
-5.842736 1.636907 -0.312790
-4.124050 1.561778 7.958195
-5.883606 2.065772 -0.291199
-5.610143 0.791641 -0.286737
-4.160697 0.979627 6.977150
-5.653271 1.219314 -0.277012
-4.061736 1.307564 7.123386
-5.556196 1.659008 -0.248451
-3.985099 1.597646 7.665308
-5.606868 2.089239 -0.275888
-5.330846 0.817459 -0.250233
-3.965463 1.001230 6.918175
-5.385291 1.245892 -0.299431
-5.280734 1.683179 -0.230448
-3.787842 1.616708 7.647537
-5.334682 2.113717 -0.277634
-5.061782 0.844035 -0.260286
-5.108151 1.270615 -0.270344
-5.011467 1.708585 -0.239393
-5.066559 2.139256 -0.296547
-4.785989 0.869599 -0.228546
-4.838978 1.296500 -0.278059
-4.742461 1.733822 -0.245918
-4.796783 2.164013 -0.303240
-4.524429 0.896684 -0.273148
-4.576768 1.323653 -0.322773
-4.480309 1.760899 -0.289438
-4.527291 2.188601 -0.307516
-4.249889 0.921837 -0.236475
-4.299883 1.347395 -0.276390
-4.217777 1.787875 -0.330666
-3.336621 1.831590 5.475279
-4.258101 2.213016 -0.309381
-3.982302 0.947700 -0.236843
-4.033178 1.373137 -0.286747
-3.937227 1.808509 -0.251059
-3.107774 1.846070 5.552351
-3.989236 2.237258 -0.308842
-3.715052 0.973388 -0.234819
-3.765223 1.398336 -0.284842
-3.675024 1.835171 -0.287535
-2.853981 1.847594 5.819256
-3.719321 2.260658 -0.296024
-3.448161 0.998901 -0.230410
-3.497626 1.423360 -0.280544
-3.407303 1.859578 -0.282112
-2.678559 1.886365 5.534826
-3.451256 2.284539 -0.290680
-3.187799 1.025558 -0.273222
-3.229165 1.447805 -0.263948
-3.139972 1.883807 -0.274305
-2.472677 1.911123 5.459602
-3.184806 2.308928 -0.292850
-2.925833 1.051850 -0.303835
-2.968217 1.474522 -0.304501
-2.873052 1.907856 -0.264122
-2.917454 2.332460 -0.282751
-2.655138 1.075780 -0.252632
-2.700405 1.498624 -0.283176
-2.610724 1.933977 -0.291286
-2.650534 2.355811 -0.270279
-2.393344 1.101779 -0.278585
-2.435176 1.523385 -0.279350
-2.343388 1.957124 -0.266466
-2.384065 2.378980 -0.255438
-2.127784 1.126470 -0.262419
-2.169339 1.547542 -0.263227
-2.077565 1.980651 -0.249218
-2.121590 2.404840 -0.277981
-1.865899 1.152203 -0.283754
-1.907230 1.573297 -0.284582
-1.816140 2.006936 -0.279375
-1.858916 2.430582 -0.298223
-1.606672 1.179079 -0.342678
-1.644933 1.598933 -0.303642
-1.553670 2.032521 -0.297293
-1.592529 2.452524 -0.266426
-1.339086 1.202016 -0.279646
-1.379278 1.622135 -0.270563
-1.288611 2.055561 -0.273062
-1.329950 2.477982 -0.282043
-1.076505 1.227021 -0.284101
-1.117648 1.647957 -0.294977
-1.026190 2.080867 -0.286362
-1.065100 2.500305 -0.255533
-0.814872 1.252567 -0.306219
-0.855252 1.673192 -0.307129
-0.761915 2.103557 -0.257484
-0.802612 2.525481 -0.266537
-0.552592 1.277654 -0.316067
-0.592748 1.698301 -0.316984
-0.499624 2.128577 -0.266184
-0.540385 2.551298 -0.285208
-0.290224 1.302612 -0.323616
-0.330155 1.723281 -0.324539
-0.237255 2.153468 -0.272583
-0.276541 2.573115 -0.251753
-0.027788 1.327441 -0.328871
-0.067493 1.748131 -0.329796
0.025172 2.178227 -0.276688
-0.014822 2.601020 -0.295729
0.235113 1.350644 -0.291857
0.196268 1.768237 -0.242880
0.287638 2.202854 -0.278496
0.248424 2.622508 -0.257669
0.497210 1.376701 -0.332487
0.457954 1.797433 -0.333418
0.550123 2.229336 -0.307941
0.510906 2.649409 -0.287083
0.759732 1.401128 -0.330851
0.720644 1.821352 -0.321795
0.812866 2.253715 -0.305153
0.773983 2.677032 -0.324162
1.022241 1.425417 -0.326920
0.983436 1.846191 -0.327843
1.075588 2.277956 -0.300068
1.036442 2.698035 -0.279209
1.284720 1.449567 -0.320688
1.247061 1.872540 -0.361536
1.339573 2.305493 -0.342548
1.300150 2.725443 -0.311674
1.547147 1.473576 -0.312162
1.510060 1.896602 -0.352993
1.602278 2.328796 -0.322884
1.563152 2.749436 -0.301977
1.812840 1.500815 -0.381201
1.772988 1.920519 -0.342148
1.865162 2.352641 -0.310886
1.826071 2.773285 -0.289982
2.075798 1.524598 -0.368050
2.035823 1.944292 -0.329004
2.127944 2.376340 -0.296595
2.090923 2.800386 -0.315491
2.340416 1.549546 -0.382521
2.303170 1.972527 -0.393295
2.390605 2.399891 -0.280003
2.353966 2.823972 -0.298874
2.606100 1.574837 -0.404623
2.565791 1.995481 -0.365547
2.659378 2.429832 -0.350657
2.620276 2.851733 -0.329655
2.870033 1.598681 -0.394491
2.829590 2.019453 -0.355419
2.922515 2.453151 -0.329412
2.883448 2.875055 -0.308407
3.132266 1.621466 -0.362141
3.095065 2.044485 -0.362869
3.184601 2.475574 -0.295929
3.149858 2.901745 -0.324554
3.391321 1.642677 -0.297668
3.355320 2.065768 -0.308342
3.452041 2.502324 -0.319723
3.412991 2.924788 -0.298674
3.666876 1.671755 -0.399883
3.628998 2.095450 -0.390585
3.719081 2.528234 -0.331211
3.684126 2.954839 -0.349741
3.930013 1.694592 -0.370514
3.888981 2.116432 -0.331438
3.986569 2.554045 -0.340324
3.956400 2.984849 -0.398355
4.197683 1.719230 -0.378508
4.161213 2.144132 -0.379061
4.254485 2.579754 -0.347046
4.220186 3.007533 -0.365406
4.465770 1.743764 -0.384115
4.428203 2.168605 -0.374716
4.528008 2.608475 -0.390923
4.488834 3.033725 -0.369648
4.732884 1.767689 -0.377436
4.696772 2.193602 -0.377888
4.791514 2.630857 -0.353323
4.752376 3.056110 -0.332043
5.014748 1.796615 -0.467186
4.978694 2.224354 -0.467522
5.066473 2.659422 -0.392292
5.027264 3.085786 -0.370928
5.278482 1.818806 -0.426023
5.241124 2.245905 -0.416462
5.342462 2.687932 -0.428743
5.303180 3.115409 -0.407291
5.559751 1.846622 -0.490932
5.517550 2.273263 -0.451740
5.612881 2.713154 -0.423336
5.573581 3.141188 -0.401840
5.830545 1.870686 -0.484350
5.788173 2.297872 -0.445152
5.883599 2.738260 -0.415504
5.844280 3.166851 -0.393961
6.087245 1.890303 -0.396759
6.060869 2.323043 -0.445953
6.147334 2.759958 -0.366039
6.115255 3.192395 -0.383648
6.356025 1.913524 -0.375637
6.332131 2.347422 -0.434486
6.425843 2.788112 -0.392534
6.386485 3.217818 -0.370895
6.618975 1.934945 -0.322748
6.609504 2.373759 -0.449926
6.713208 2.819544 -0.455509
6.673724 3.250915 -0.433744
6.893787 1.959558 -0.326185
6.881487 2.397911 -0.433519
6.985583 2.844215 -0.437771
6.946078 3.276144 -0.415955
7.164864 1.982934 -0.307606
7.143042 2.418398 -0.365929
7.266766 2.872157 -0.456484
7.227189 3.305197 -0.434582
7.445014 2.008484 -0.325508
7.414978 2.442260 -0.344709
7.539834 2.896596 -0.433748
7.509142 3.334174 -0.450586
7.714460 2.031046 -0.292236
7.687072 2.465991 -0.321032
7.803746 2.917449 -0.369789
7.782670 3.359064 -0.425249
7.995832 2.056404 -0.305006
7.964058 2.491043 -0.314262
8.079148 2.942462 -0.351860
8.075483 3.391885 -0.474684
8.277993 2.081681 -0.315142
8.253816 2.519656 -0.353262
8.349833 2.965598 -0.312122
8.349902 3.416552 -0.444214
8.560917 2.106870 -0.322628
8.529551 2.543778 -0.331627
8.620428 2.988581 -0.269955
8.616705 3.438014 -0.382418
8.836645 2.130146 -0.298586
8.800256 2.566277 -0.288229
8.906874 3.016744 -0.282940
8.888351 3.461350 -0.337446
9.120770 2.155135 -0.300817
9.087131 2.593142 -0.299965
9.202423 3.047514 -0.321922
9.173515 3.489699 -0.337849
9.405582 2.180029 -0.300364
9.383261 2.622205 -0.337679
9.488004 3.074630 -0.319818
9.459354 3.517951 -0.335556
9.688166 2.204199 -0.287670
9.669189 2.648154 -0.334318
9.774235 3.101645 -0.315012
9.742944 3.545056 -0.321043
9.986112 2.231422 -0.319948
9.955756 2.674002 -0.328247
10.061091 3.128558 -0.307489
10.021029 3.569939 -0.284889
10.273091 2.256032 -0.311306
10.242937 2.699746 -0.319454
10.336241 3.151682 -0.259361
10.320662 3.602093 -0.312393
10.617242 2.292161 -0.470413
10.530704 2.725382 -0.307932
10.623940 3.178355 -0.246487
10.608944 3.629926 -0.299204
11.003628 2.336219 -0.739084
10.819033 2.750907 -0.293669
10.938121 3.212378 -0.306183
10.910686 3.661931 -0.320881
11.296234 2.360784 -0.720840
11.117784 2.778710 -0.304878
11.227550 3.238871 -0.287573
11.197054 3.688483 -0.292692
11.589338 2.385229 -0.699802
11.478331 2.820879 -0.481953
11.527689 3.268080 -0.294262
11.504103 3.721402 -0.317858
11.900272 2.412900 -0.722731
11.905053 2.877727 -0.823238
11.835761 3.299103 -0.316633
11.795069 3.748813 -0.293362
12.223124 2.442529 -0.770506
12.126143 2.886044 -0.600302
12.198609 3.344396 -0.475286
12.097137 3.779383 -0.293919
12.485914 2.460542 -0.656992
12.409429 2.908750 -0.542994
12.594302 3.397480 -0.703939
12.407377 3.812059 -0.309977
12.755066 2.479695 -0.559740
12.707434 2.934594 -0.520056
12.905380 3.427534 -0.706459
12.748538 3.853505 -0.396637
13.061408 2.505557 -0.552366
13.013530 2.961977 -0.512659
13.202209 3.453603 -0.669077
13.114926 3.901628 -0.534704
13.372446 2.532012 -0.551136
13.339766 2.993438 -0.548138
13.483795 3.475619 -0.592186
13.504067 3.955403 -0.714375
13.684434 2.558370 -0.546774
13.655762 3.022320 -0.552757
13.816645 3.510234 -0.631329
13.834032 3.991340 -0.743660
14.001377 2.585334 -0.548382
12.391866 2.718085 3.028378
13.972836 3.051110 -0.554155
14.082347 3.527988 -0.512423
14.133242 4.018195 -0.696846
12.574886 2.309585 3.305885
12.428569 2.692694 3.569981
14.425465 3.564395 -0.563219
14.465600 4.053959 -0.719477
12.592009 2.288137 3.874435
12.431680 2.661449 4.164360
12.935991 3.165099 3.320889
14.741075 3.593769 -0.547192
14.782650 4.085102 -0.702574
12.634352 2.271752 4.369093
12.557425 2.656198 4.477518
13.034398 3.148983 3.710068
15.083207 3.629054 -0.581823
15.066318 4.106983 -0.610697
13.138872 2.333473 3.893204
12.991004 2.713014 4.145182
13.122627 3.131336 4.107828
15.392138 3.656204 -0.541243
15.384309 4.137847 -0.587635
13.342611 2.344253 4.049782
13.369474 2.757895 3.943571
13.347057 3.145621 4.220224
15.685322 4.163975 -0.525757
13.612194 2.365862 4.074486
13.689505 2.790623 3.871122
13.606668 3.167852 4.263683
14.089372 3.702508 3.265690
16.035990 4.202672 -0.558302
13.996929 2.405957 3.880531
13.952363 2.811868 3.917370
13.921689 3.202241 4.203873
14.160948 3.676281 3.695372
16.370079 4.236654 -0.551760
14.255549 2.425213 3.938221
14.229384 2.835640 3.939810
14.290185 3.247926 4.051062
14.277351 3.662344 4.027723
16.742550 4.279867 -0.611841
14.523681 2.445828 3.980907
14.497603 2.857518 3.982664
14.633885 3.287486 3.955217
14.493230 3.673751 4.168030
14.821012 2.470859 3.973921
14.799753 2.885542 3.967155
14.898273 3.309414 4.011288
14.712551 3.686099 4.301441
15.104875 2.493522 3.996243
15.083742 2.909889 3.989708
15.202003 3.339537 4.000780
15.067513 3.731292 4.194702
15.409312 2.519141 3.986977
15.363493 2.933218 4.023903
15.467211 3.361205 4.062510
15.430413 3.777694 4.083662
15.699915 2.542367 4.006886
15.673947 2.961885 4.009453
15.788067 3.394286 4.032694
15.756072 3.814599 4.045496
16.022007 2.570136 3.978567
15.975594 2.988647 4.015577
16.095221 3.424139 4.032103
16.037542 3.840704 4.087677
16.309435 2.592381 4.013514
16.262774 3.012554 4.050539
16.361959 3.445421 4.102724
16.366154 3.877461 4.056641
16.597450 2.614500 4.051523
16.550539 3.036334 4.088562
16.713085 3.483566 4.041195
16.654425 3.904535 4.096760
16.950066 2.645947 3.991566
16.902767 3.071110 4.028700
17.002325 3.508858 4.084448
16.964573 3.936303 4.106476
17.261679 2.671018 4.002811
17.214085 3.098399 4.039984
17.292068 3.534014 4.130798
17.281219 3.969176 4.111345
17.530495 2.689611 4.084141
17.510059 3.122774 4.079712
17.648220 3.571940 4.080833
17.588100 3.999518 4.136354
17.888071 2.720833 4.035788
17.839895 3.152649 4.073038
17.962008 3.601176 4.101055
17.901405 4.030957 4.156559
18.202782 2.745567 4.057554
18.154312 3.179602 4.094843
18.321884 3.638962 4.059315
18.260681 4.072055 4.114878
18.512745 2.769372 4.091043
18.492437 3.210220 4.087513
18.638159 3.667984 4.087027
18.599257 4.108185 4.110058
18.881189 2.801159 4.046730
18.855087 3.244543 4.051666
18.955332 3.696878 4.118319
18.916231 4.139297 4.141525
19.199219 2.825544 4.079597
19.149796 3.267345 4.117050
19.296768 3.730016 4.121063
19.257412 4.175208 4.144485
19.512177 2.848974 4.124090
19.515574 3.301472 4.089415
19.615902 3.758653 4.159767
19.576345 4.206062 4.183365
19.885607 2.880477 4.092381
19.835518 3.327827 4.129959
19.953785 3.790450 4.178310
19.943871 4.246693 4.162510
20.224747 2.906944 4.112772
20.198492 3.360786 4.118753
20.298885 3.823224 4.192942
20.258833 4.276040 4.216961
20.571138 2.934108 4.129274
20.544828 3.390739 4.135534
20.651367 3.856979 4.203842
20.629385 4.316446 4.204647
20.918753 2.961143 4.149883
20.849157 3.413767 4.211052
21.067160 3.901718 4.141277
21.051151 4.366740 4.134808
21.292572 2.991381 4.143595
21.291082 3.458038 4.119436
21.441750 3.938589 4.138062
21.450695 4.411959 4.101246
21.668066 3.021504 4.141899
21.666742 3.491515 4.118269
21.868641 3.984275 4.078188
21.852423 4.457082 4.072744
22.121868 3.061591 4.053076
22.069542 3.528788 4.091169
22.272600 4.025401 4.054262
22.256273 4.502100 4.049332
22.501358 3.091496 4.061321
22.474442 3.565954 4.069178
22.678629 4.066416 4.035460
22.662191 4.547007 4.031048
22.934542 3.128033 4.013994
22.907427 3.606946 4.022219
23.112791 4.111814 3.991863
23.070116 4.591795 4.017925
23.370234 3.164471 3.972300
23.342920 3.647838 3.980892
23.523043 4.152594 3.983644
23.558975 4.651656 3.920946
23.808372 3.200800 3.936272
23.780861 3.688622 3.945238
23.988474 4.202286 3.921675
23.971516 4.696213 3.918945
24.248892 3.237012 3.905954
24.214470 3.728294 3.922647
24.402960 4.242811 3.924414
24.385881 4.740628 3.922211
24.691721 3.273099 3.881382
24.690887 3.773810 3.861933
24.900681 4.296813 3.845400
24.883307 4.800183 3.843842
25.102571 3.304756 3.898790
25.129185 3.813228 3.850998
25.346811 4.341611 3.830706
25.295059 4.843043 3.865635
25.604780 3.347446 3.828094
25.576427 3.853498 3.838596
25.795078 4.386261 3.821857
25.770428 4.897240 3.828554
26.089188 3.387429 3.785580
26.081453 3.901638 3.775166
26.329147 4.444464 3.734026
26.283180 4.957704 3.762535
26.590328 3.429007 3.735458
26.561432 3.945633 3.746815
26.810389 4.493397 3.709675
26.756899 5.010342 3.745548
27.065920 3.466973 3.720114
27.043867 3.989476 3.724895
27.322447 4.546758 3.663984
27.296682 5.074384 3.672447
27.571548 4.039209 3.667894
27.837336 4.599967 3.625296
27.811193 5.133142 3.634342
28.318867 4.647264 3.627760
28.357273 5.196892 3.576035
28.831583 4.698977 3.609638
28.564999 5.199827 3.842514
28.869730 4.675514 4.033619
28.638390 5.179173 4.230911
30.655840 4.925455 2.885118
31.106625 5.578637 2.467203
31.517361 5.028799 2.599739
29.969324 5.345268 3.950159
31.162857 5.518223 3.373480
0.716100 0.251951 29.725637
29.613955 5.185864 5.594921
0.788020 0.263717 29.672628
0.768288 0.255987 29.694860
0.783540 0.262474 29.682959
0.777673 0.257177 29.690775
0.761487 0.258586 29.703075
0.771247 0.256032 29.698750
0.786710 0.262522 29.687124
0.740696 0.251382 29.724247
0.724374 0.252095 29.736219
0.774139 0.256068 29.702688
0.789808 0.262561 29.691343
0.751249 0.252577 29.721901
0.734707 0.253427 29.733601
0.736194 0.250250 29.735029
0.711443 0.249514 29.752230
0.761562 0.257368 29.720131