# This PCD file was generated using the MATLAB® pcwrite function
# from Computer Vision System Toolbox®.
# .PCD v.7 - Point Cloud Data file format
VERSION .7
FIELDS x y z
SIZE 4 4 4
TYPE F F F
COUNT 1 1 1
WIDTH 774
HEIGHT 1
VIEWPOINT 0 0 0 1 0 0 0
POINTS 774
DATA ascii
-1.195182 -0.927936 -0.478429
-1.067119 -0.903379 -0.407355
-1.120807 -0.886074 -0.439478
-1.065600 -0.901927 -0.439883
-1.086444 -0.866248 -0.439088
-0.980185 -0.852356 -0.385210
-1.065226 -0.853656 -0.451584
-0.985002 -0.854556 -0.423898
-1.011724 -0.823373 -0.429910
-0.945092 -0.831125 -0.414911
-0.997065 -0.814406 -0.448368
-0.874076 -0.789904 -0.370729
-0.899776 -0.760222 -0.376909
-0.853638 -0.777668 -0.381031
-0.891800 -0.754955 -0.401216
-0.845514 -0.772484 -0.405129
-0.871104 -0.742736 -0.411441
-0.769852 -0.728693 -0.351163
-0.838004 -0.723756 -0.407210
-0.792165 -0.740923 -0.410317
-0.841904 -0.724968 -0.445382
-0.717525 -0.697773 -0.354591
-0.784536 -0.692796 -0.411630
-0.739160 -0.709610 -0.413940
-0.709713 -0.651176 -0.355064
-0.683282 -0.677218 -0.378489
-0.719482 -0.655599 -0.399826
-0.622203 -0.641893 -0.334668
-0.669510 -0.627564 -0.370991
-0.631405 -0.646643 -0.379208
-0.702164 -0.644380 -0.445620
-0.571205 -0.611867 -0.333931
-0.635090 -0.607118 -0.393378
-0.585639 -0.619596 -0.385985
-0.649421 -0.613969 -0.445881
-0.543159 -0.594943 -0.362208
-0.606132 -0.589644 -0.422573
-0.528972 -0.586395 -0.376132
-0.591486 -0.580819 -0.436948
-0.470609 -0.552760 -0.328013
-0.532096 -0.547870 -0.389297
-0.456674 -0.544380 -0.341205
-0.523215 -0.542182 -0.410721
-0.415676 -0.520652 -0.315023
-0.481337 -0.518739 -0.385043
-0.412501 -0.518389 -0.343462
-0.483173 -0.518818 -0.421861
-0.387894 -0.503982 -0.340158
-0.420421 -0.484224 -0.363439
-0.379073 -0.498524 -0.360518
-0.453763 -0.501187 -0.447986
-0.375190 -0.495860 -0.388898
-0.402337 -0.472726 -0.404435
-0.309847 -0.458443 -0.320025
-0.382643 -0.461275 -0.408654
-0.295955 -0.450141 -0.331592
-0.352770 -0.444402 -0.396309
-0.382427 -0.421807 -0.434017
-0.409200 -0.397512 -0.449026
-0.272032 -0.436178 -0.326598
-0.343337 -0.438445 -0.416345
-0.347342 -0.402807 -0.413057
-0.368574 -0.376503 -0.419962
-0.282635 -0.441708 -0.379080
-0.303811 -0.416471 -0.386789
-0.312660 -0.384055 -0.391553
-0.338646 -0.360590 -0.406799
-0.224664 -0.408560 -0.315590
-0.289404 -0.407882 -0.398127
-0.318031 -0.385333 -0.436122
-0.339145 -0.358958 -0.443120
-0.249078 -0.421867 -0.393150
-0.274909 -0.399248 -0.409317
-0.308136 -0.378963 -0.455805
-0.309413 -0.343177 -0.429369
-0.187403 -0.386681 -0.320052
-0.236366 -0.377881 -0.378350
-0.288367 -0.367677 -0.458589
-0.284870 -0.329851 -0.423598
-0.168839 -0.375790 -0.321930
-0.188912 -0.351846 -0.329868
-0.254338 -0.349343 -0.435723
-0.279834 -0.325585 -0.451342
-0.164108 -0.372684 -0.349066
-0.198252 -0.355846 -0.382534
-0.220735 -0.331268 -0.412337
-0.245833 -0.307923 -0.428068
-0.190765 -0.387201 -0.436047
-0.197671 -0.354577 -0.418432
-0.206117 -0.322591 -0.422675
-0.231089 -0.299172 -0.438495
-0.140243 -0.358374 -0.377693
-0.183013 -0.345880 -0.428697
-0.173122 -0.304891 -0.398448
-0.188411 -0.277636 -0.397181
-0.130299 -0.352337 -0.396173
-0.150385 -0.327751 -0.404291
-0.158604 -0.296287 -0.408313
-0.183051 -0.273205 -0.424329
-0.102797 -0.336464 -0.379889
-0.166683 -0.335294 -0.474800
-0.144010 -0.287645 -0.418030
-0.163817 -0.262440 -0.425444
-0.088430 -0.327959 -0.389358
-0.121197 -0.310467 -0.423724
-0.120584 -0.274705 -0.410129
-0.149085 -0.253723 -0.435054
-0.065575 -0.314711 -0.381157
-0.106491 -0.301768 -0.433218
-0.114598 -0.270247 -0.437018
-0.134279 -0.244968 -0.444514
-0.013927 -0.285388 -0.311019
-0.074868 -0.284260 -0.407359
-0.091288 -0.257388 -0.428652
-0.119399 -0.236176 -0.453823
0.016227 -0.268106 -0.284218
-0.056136 -0.273490 -0.407547
-0.068172 -0.244651 -0.419973
-0.083205 -0.217892 -0.418717
-0.022221 -0.289104 -0.407997
-0.045623 -0.266993 -0.425271
-0.061708 -0.239930 -0.446578
-0.081061 -0.214781 -0.454202
0.000250 -0.276108 -0.398800
-0.042930 -0.264533 -0.460772
-0.038720 -0.227280 -0.437440
-0.074332 -0.209586 -0.480842
0.022520 -0.263237 -0.389299
-0.012160 -0.247554 -0.433628
-0.015935 -0.214756 -0.427996
-0.026792 -0.186474 -0.417776
0.071228 -0.235678 -0.316485
0.014261 -0.232855 -0.415024
-0.009000 -0.209776 -0.454308
-0.028023 -0.184757 -0.462054
0.062703 -0.239953 -0.378439
0.017491 -0.230097 -0.450269
0.017489 -0.195533 -0.435360
0.002647 -0.169148 -0.434113
0.080748 -0.229462 -0.377160
0.028673 -0.223236 -0.467438
0.017206 -0.193918 -0.479660
0.013618 -0.162090 -0.451140
0.080707 -0.229003 -0.421227
0.047399 -0.212513 -0.466308
0.047185 -0.178080 -0.451102
0.032338 -0.151698 -0.449852
0.130739 -0.200812 -0.337356
0.076858 -0.196336 -0.437515
0.080313 -0.160841 -0.412948
0.062099 -0.136640 -0.420880
0.137881 -0.196384 -0.362837
0.105825 -0.180453 -0.408291
0.091399 -0.153896 -0.429464
0.062271 -0.134129 -0.464988
0.131776 -0.199266 -0.425181
0.092721 -0.185913 -0.489224
0.123675 -0.137169 -0.390530
0.091596 -0.119340 -0.435439
0.153162 -0.186961 -0.413777
0.107946 -0.176989 -0.496557
0.117586 -0.138108 -0.452988
0.092438 -0.116447 -0.479516
0.180837 -0.171206 -0.383524
0.146507 -0.156332 -0.438765
0.135907 -0.127817 -0.450633
0.121318 -0.101930 -0.449399
0.182520 -0.169771 -0.427392
0.151589 -0.152534 -0.473505
0.147563 -0.120561 -0.466714
0.136261 -0.093186 -0.456154
0.209739 -0.154294 -0.396588
0.176257 -0.138923 -0.452213
0.181945 -0.103060 -0.417211
0.164406 -0.079111 -0.425354
0.230357 -0.142462 -0.384146
0.191211 -0.130181 -0.458711
0.190345 -0.097285 -0.442286
0.166303 -0.075624 -0.469208
0.274533 -0.117744 -0.296175
0.218390 -0.115386 -0.427435
0.223697 -0.080398 -0.392000
0.193985 -0.061831 -0.437865
0.262178 -0.123986 -0.386775
0.233161 -0.106763 -0.433513
0.220169 -0.079873 -0.454558
0.196547 -0.057967 -0.481653
0.279469 -0.114004 -0.383094
0.247978 -0.098117 -0.439442
0.241023 -0.068569 -0.441522
0.223756 -0.044460 -0.449777
0.293902 -0.105589 -0.388705
0.254352 -0.093598 -0.473693
0.261637 -0.057410 -0.428224
0.235780 -0.036862 -0.465001
0.324511 -0.088381 -0.337049
0.277752 -0.080762 -0.450848
0.279217 -0.047596 -0.424196
0.265154 -0.022695 -0.422999
0.322898 -0.088697 -0.399488
0.295393 -0.070754 -0.446781
0.280378 -0.044789 -0.477286
0.257605 -0.022388 -0.504701
0.327281 -0.085736 -0.442948
0.307703 -0.063326 -0.461652
0.311425 -0.029277 -0.425116
0.281129 -0.010462 -0.481359
0.352062 -0.071730 -0.409684
0.325284 -0.053364 -0.457232
0.321045 -0.022835 -0.449323
0.296330 -0.001623 -0.486506
0.366704 -0.063219 -0.414561
0.337822 -0.045814 -0.471850
0.338502 -0.013115 -0.444596
0.324427 0.011780 -0.443395
0.381384 -0.054692 -0.419290
0.352941 -0.037031 -0.476720
0.341274 -0.009392 -0.497570
0.326853 0.016108 -0.496339
0.409629 -0.038890 -0.365868
0.386691 -0.019523 -0.404117
0.368380 0.004230 -0.453895
0.354300 0.029122 -0.452692
0.410856 -0.037587 -0.428303
0.376541 -0.022553 -0.515064
0.374240 0.009313 -0.497093
0.359882 0.034688 -0.495866
0.438294 -0.022264 -0.374325
0.407237 -0.006569 -0.451581
0.398404 0.021639 -0.462590
0.384318 0.046527 -0.461386
0.456747 -0.011765 -0.358874
0.432732 0.006913 -0.407113
0.411330 0.029546 -0.476445
0.399378 0.055251 -0.465505
0.467092 -0.005581 -0.382202
0.437216 0.010798 -0.459781
0.438878 0.042984 -0.421908
0.422998 0.066608 -0.430480
0.477763 0.000786 -0.405461
0.446383 0.016874 -0.492957
0.457616 0.052990 -0.406086
0.437828 0.075188 -0.434221
0.485131 0.005427 -0.448223
0.459791 0.024886 -0.506519
0.468426 0.060075 -0.429205
0.452687 0.083781 -0.437812
0.513997 0.021360 -0.373315
0.496896 0.043269 -0.392520
0.481401 0.067991 -0.442438
0.459935 0.090279 -0.480461
0.528380 0.029669 -0.376564
0.504490 0.048676 -0.435083
0.498087 0.077212 -0.435906
0.482492 0.101000 -0.444545
0.536425 0.034687 -0.419020
0.521009 0.057960 -0.428448
0.502802 0.082425 -0.498069
0.497434 0.109625 -0.447686
0.557224 0.046319 -0.382627
0.529473 0.063859 -0.470888
0.527855 0.094389 -0.442007
0.512402 0.118259 -0.450676
0.568798 0.053177 -0.405176
0.543093 0.071967 -0.483698
0.545862 0.103943 -0.425096
0.527394 0.126903 -0.453515
0.588899 0.064397 -0.368345
0.558324 0.080746 -0.486503
0.557718 0.111602 -0.447509
0.548560 0.136800 -0.416699
0.600667 0.071357 -0.390630
0.580390 0.092195 -0.439694
0.575472 0.120999 -0.430244
0.563298 0.145287 -0.419185
0.615190 0.079719 -0.393005
0.590140 0.098815 -0.481750
0.587670 0.128844 -0.452408
0.572504 0.152880 -0.461126
0.634306 0.090356 -0.355562
0.610211 0.109358 -0.444418
0.605163 0.138082 -0.434796
0.587582 0.161552 -0.463360
0.642159 0.095411 -0.417176
0.620601 0.116336 -0.486263
0.617699 0.146111 -0.456703
0.607630 0.170786 -0.425754
0.662846 0.106762 -0.359498
0.639046 0.126184 -0.458479
0.634928 0.155187 -0.438749
0.617791 0.178913 -0.467372
0.671634 0.112344 -0.420940
0.650148 0.133561 -0.500109
0.642705 0.162529 -0.510126
0.632921 0.187600 -0.469150
0.691449 0.123185 -0.362860
0.673719 0.144842 -0.412245
0.664756 0.172309 -0.442103
0.648066 0.196291 -0.470776
0.702703 0.129996 -0.404182
0.681731 0.151435 -0.493447
0.677956 0.180700 -0.463478
0.666971 0.204849 -0.432425
0.720107 0.139620 -0.365645
0.703137 0.161714 -0.415104
0.694639 0.189442 -0.444856
0.681841 0.213372 -0.433720
0.735685 0.148371 -0.346867
0.715123 0.169578 -0.456214
0.711032 0.198013 -0.426058
0.696722 0.221896 -0.434865
0.748811 0.156063 -0.367854
0.731992 0.178492 -0.427353
0.724568 0.206582 -0.447008
0.711613 0.230421 -0.435861
0.761318 0.163573 -0.408692
0.743077 0.186576 -0.498168
0.738416 0.215324 -0.467825
0.726513 0.238947 -0.436707
0.778719 0.172914 -0.339511
0.761647 0.195460 -0.429036
0.754534 0.223722 -0.448557
0.741421 0.247472 -0.437402
0.790679 0.180363 -0.410063
0.773807 0.204149 -0.499602
0.770355 0.231947 -0.429127
0.756336 0.255996 -0.437949
0.806321 0.188951 -0.370539
0.788875 0.213007 -0.510083
0.784527 0.240859 -0.449505
0.771257 0.264519 -0.438345
0.820066 0.197148 -0.410843
0.804331 0.221833 -0.510416
0.799006 0.249942 -0.469739
0.784855 0.274559 -0.478541
0.834766 0.205537 -0.411012
0.821035 0.229382 -0.430613
0.814538 0.257986 -0.449849
0.800343 0.282826 -0.468651
0.849447 0.214086 -0.431033
0.835335 0.239273 -0.500618
0.829326 0.267235 -0.469782
0.816041 0.290070 -0.438634
0.863323 0.220688 -0.280920
0.850751 0.246326 -0.430507
0.844558 0.275099 -0.449591
0.830973 0.298579 -0.438431
0.878595 0.230347 -0.390637
0.866186 0.257102 -0.510194
0.859650 0.284512 -0.469217
0.845905 0.307084 -0.438077
0.892497 0.238001 -0.360234
0.881060 0.264580 -0.469777
0.874928 0.293616 -0.478694
0.860836 0.315582 -0.437574
0.908284 0.247421 -0.409642
0.896220 0.273207 -0.469190
0.889971 0.301765 -0.468043
0.876258 0.326631 -0.476836
0.921510 0.254593 -0.368969
0.910180 0.280154 -0.428504
0.904590 0.309260 -0.447266
0.890690 0.332561 -0.436118
0.937680 0.264134 -0.408060
0.927656 0.291824 -0.497506
0.920621 0.319595 -0.476236
0.905611 0.341039 -0.435166
0.952371 0.272479 -0.407049
0.941228 0.298540 -0.456539
0.934583 0.326297 -0.445201
0.921577 0.351814 -0.463956
0.968247 0.281668 -0.425836
0.956821 0.307641 -0.465321
0.950560 0.336183 -0.463870
0.937138 0.361215 -0.472643
0.981733 0.289144 -0.404583
0.971955 0.316228 -0.463974
0.964549 0.343300 -0.442534
0.950334 0.366422 -0.431410
0.997896 0.298486 -0.423047
0.987081 0.324806 -0.462475
0.984044 0.357217 -0.510617
0.967535 0.378452 -0.469631
1.007771 0.303552 -0.361726
1.001443 0.332696 -0.450876
0.994478 0.360261 -0.439266
0.980107 0.383295 -0.428160
1.029302 0.316457 -0.439548
1.023105 0.346959 -0.528600
1.011021 0.370448 -0.457269
0.997889 0.395645 -0.466010
1.042294 0.323634 -0.417751
1.036012 0.353517 -0.496789
1.024361 0.377178 -0.435399
1.013048 0.404223 -0.463972
1.057069 0.331992 -0.415689
1.051394 0.362219 -0.494642
1.041180 0.387510 -0.453060
1.028193 0.412789 -0.461781
1.075203 0.342514 -0.443209
1.066760 0.370907 -0.492342
1.054190 0.394043 -0.430933
1.043323 0.421340 -0.459439
1.088975 0.350206 -0.430917
1.085502 0.382249 -0.519575
1.076773 0.409677 -0.497676
1.062555 0.434489 -0.496465
1.098757 0.355368 -0.388845
1.097444 0.388241 -0.487279
1.087477 0.414074 -0.455487
1.080161 0.445572 -0.513501
1.118717 0.366997 -0.425707
1.116602 0.399807 -0.514126
1.107554 0.427049 -0.492125
1.093330 0.451858 -0.490915
1.139258 0.378950 -0.462308
1.133478 0.409578 -0.521024
1.128211 0.440346 -0.528495
1.107433 0.459239 -0.478072
1.142386 0.379977 -0.380531
1.147623 0.417299 -0.508055
1.131260 0.438351 -0.436816
1.118706 0.463874 -0.445460
1.153741 0.386190 -0.357815
1.163101 0.426019 -0.504787
1.155045 0.454226 -0.492458
1.146359 0.484607 -0.530470
1.184561 0.404473 -0.452742
1.180136 0.435864 -0.511172
1.161125 0.455166 -0.430202
1.148714 0.480770 -0.438813
1.187552 0.405501 -0.380701
1.182405 0.435111 -0.429251
1.190625 0.475488 -0.514671
1.168342 0.493533 -0.464581
1.207455 0.416976 -0.406511
1.209392 0.452067 -0.494054
1.199378 0.478750 -0.471787
1.185135 0.503549 -0.470581
1.225906 0.427535 -0.422306
1.226573 0.461979 -0.499922
1.223450 0.494351 -0.516564
1.207155 0.518222 -0.505595
1.229057 0.428733 -0.359985
1.240121 0.469332 -0.486128
1.229782 0.495827 -0.463786
1.224412 0.528488 -0.511154
1.251494 0.441712 -0.394921
1.247636 0.472527 -0.443078
1.252617 0.510308 -0.498357
1.245487 0.542043 -0.535905
1.278682 0.457544 -0.448936
1.280859 0.493475 -0.526055
1.260068 0.512818 -0.455177
1.245814 0.537610 -0.453974
1.289382 0.463348 -0.425156
1.277597 0.489329 -0.434404
1.291698 0.533888 -0.527897
1.276885 0.559646 -0.526648
1.304239 0.471672 -0.420617
1.303393 0.505073 -0.478087
1.290228 0.529716 -0.445964
1.286321 0.563196 -0.492901
1.321377 0.481367 -0.425559
1.318660 0.513622 -0.473260
1.316325 0.546421 -0.489182
1.308146 0.577150 -0.516764
1.333852 0.488248 -0.411096
1.350126 0.533048 -0.535494
1.317966 0.544818 -0.426564
1.314855 0.578583 -0.473270
1.351068 0.497976 -0.415693
1.349087 0.530643 -0.463150
1.344649 0.561840 -0.469260
1.341552 0.596412 -0.515812
1.363325 0.504725 -0.400984
1.381502 0.550589 -0.524729
1.357429 0.568558 -0.454341
1.345311 0.595605 -0.462655
1.388432 0.519158 -0.433819
1.389517 0.554278 -0.490535
1.387559 0.587916 -0.505881
1.372658 0.613785 -0.504632
1.398006 0.524295 -0.409287
1.423160 0.574899 -0.551334
1.387589 0.585392 -0.443170
1.375610 0.612516 -0.451433
1.440266 0.548911 -0.498396
1.430947 0.578450 -0.516882
1.405257 0.595668 -0.446813
1.403598 0.631043 -0.492833
1.438753 0.547435 -0.435672
1.454785 0.592534 -0.539099
1.417584 0.602112 -0.431399
1.419003 0.639628 -0.486701
1.459495 0.559203 -0.448470
1.462050 0.595783 -0.504503
1.449276 0.622320 -0.481660
1.434363 0.648182 -0.480417
1.462678 0.560545 -0.404682
1.486229 0.610044 -0.526233
1.447404 0.618713 -0.419031
1.449677 0.656704 -0.473979
1.477397 0.568733 -0.398412
1.478122 0.603388 -0.444736
1.479863 0.639336 -0.468630
1.473544 0.671742 -0.495374
1.498290 0.580568 -0.410644
1.520523 0.629386 -0.522064
1.489070 0.643594 -0.443281
1.477225 0.671431 -0.451349
1.513057 0.588773 -0.404016
1.523698 0.630067 -0.477891
1.519492 0.662643 -0.482802
1.504357 0.688861 -0.481546
1.518023 0.591193 -0.369461
1.538986 0.638555 -0.470855
1.519080 0.660255 -0.429469
1.507371 0.688168 -0.437475
1.535802 0.601171 -0.371867
1.554223 0.647009 -0.463666
1.550105 0.679628 -0.468359
1.538115 0.708183 -0.476304
1.557064 0.613189 -0.383254
1.566082 0.653310 -0.447135
1.575201 0.694841 -0.488417
1.553409 0.716659 -0.468820
1.606252 0.641600 -0.467625
1.598110 0.672433 -0.485459
1.607380 0.714842 -0.526383
1.575227 0.729934 -0.479443
1.614399 0.645876 -0.441668
1.623854 0.687517 -0.505038
1.605907 0.711842 -0.472851
1.593908 0.740870 -0.480678
1.640218 0.660517 -0.461138
1.642891 0.698328 -0.506078
1.614177 0.715539 -0.446713
1.598955 0.741868 -0.445460
1.651712 0.666752 -0.444038
1.654803 0.704634 -0.488795
1.636381 0.728691 -0.456674
1.638505 0.767920 -0.500509
1.659269 0.670685 -0.417849
1.673859 0.715443 -0.489453
1.658801 0.741955 -0.466334
1.643294 0.768764 -0.465061
1.681725 0.683328 -0.427562
1.700470 0.730982 -0.507826
1.681434 0.755331 -0.475689
1.669419 0.784988 -0.483349
1.712147 0.700609 -0.454843
1.704578 0.732397 -0.472213
1.700504 0.766292 -0.475826
1.684781 0.793459 -0.474539
1.687822 0.685939 -0.357112
1.715966 0.738389 -0.454470
1.731168 0.784972 -0.502341
1.715163 0.812621 -0.501034
1.734305 0.712566 -0.419444
1.735040 0.749184 -0.454363
1.750581 0.796109 -0.501892
1.730663 0.821157 -0.491757
1.736923 0.713619 -0.384012
1.754184 0.760010 -0.454025
1.758130 0.799366 -0.474841
1.746095 0.829648 -0.482326
1.772251 0.733706 -0.418871
1.720365 0.737924 -0.339424
1.777471 0.810451 -0.474044
1.757483 0.835300 -0.464001
1.803967 0.751669 -0.444432
1.813399 0.794607 -0.496293
1.805096 0.826984 -0.490417
1.796950 0.860651 -0.506496
1.836146 0.769880 -0.469503
1.828857 0.803096 -0.486350
1.828870 0.840944 -0.497719
1.824821 0.877791 -0.522357
1.842699 0.773203 -0.442205
1.857078 0.819470 -0.502182
1.857078 0.857784 -0.513309
1.823803 0.874774 -0.477522
1.866568 0.786568 -0.449337
1.859550 0.819932 -0.466004
1.872678 0.866335 -0.502761
1.856092 0.894938 -0.501421
1.872708 0.789652 -0.421915
1.896836 0.841858 -0.498372
1.901322 0.883401 -0.517640
1.871610 0.903437 -0.490721
1.901232 0.805694 -0.437079
1.889937 0.836575 -0.445051
1.903641 0.883286 -0.481202
1.895788 0.917909 -0.496818
1.883976 0.795245 -0.367172
1.900473 0.842035 -0.425886
1.914499 0.888759 -0.461757
1.902407 0.920283 -0.468859
1.935844 0.824764 -0.424039
1.938434 0.864310 -0.457158
1.952557 0.911879 -0.492581
1.944676 0.947122 -0.507993
1.979187 0.849324 -0.463263
1.990967 0.895458 -0.512912
1.986541 0.932300 -0.514438
1.969379 0.961860 -0.513065
1.955986 0.835460 -0.385249
1.949763 0.869259 -0.401347
1.988073 0.931726 -0.477712
2.003505 0.982986 -0.534361
2.028995 0.877097 -0.473338
2.026881 0.915356 -0.497579
2.031977 0.958482 -0.515310
2.000529 0.978842 -0.489212
2.049221 0.888269 -0.469630
2.022928 0.911946 -0.452608
2.037964 0.960794 -0.486615
2.034982 1.000132 -0.509806
2.059500 0.893705 -0.449322
2.077464 0.944158 -0.505949
2.063152 0.975449 -0.490538
2.050584 1.008619 -0.497295
2.084726 0.907742 -0.453336
2.088036 0.949587 -0.485237
2.083549 0.987013 -0.486014
2.066092 1.017048 -0.484630
2.110109 0.921856 -0.456995
2.138775 0.979400 -0.529035
2.119005 1.008191 -0.505354
2.101265 1.038706 -0.503951
2.166713 0.953898 -0.508423
2.088086 0.947680 -0.411586
2.134572 1.016636 -0.492172
2.126831 1.053861 -0.506736
2.161333 0.950310 -0.463239
2.190840 1.008946 -0.534327
2.144908 1.021752 -0.470900
2.127232 1.052144 -0.469507
2.224268 0.985937 -0.521228
2.211856 1.020661 -0.528510
2.186183 1.046547 -0.496877
2.178400 1.084383 -0.511212
2.223865 0.985200 -0.483758
2.232892 1.032377 -0.522429
2.196440 1.051604 -0.475192
2.157743 1.068657 -0.442490
2.217577 0.981097 -0.438651
2.264649 1.050552 -0.531694
2.259609 1.090193 -0.531202
2.241011 1.122147 -0.529745
2.276474 1.014341 -0.486865
2.318310 1.081899 -0.571478
2.275387 1.098712 -0.516599
2.262089 1.134183 -0.522859
2.242038 0.994125 -0.403185
2.274198 1.054354 -0.471819
2.291055 1.107164 -0.501840
2.277814 1.142665 -0.508047
2.329610 1.043734 -0.488476
2.317172 1.079236 -0.495458
2.284650 1.101700 -0.456499
2.266324 1.133167 -0.455073
2.345052 1.052050 -0.473545
2.327085 1.084229 -0.472885
2.366455 1.151808 -0.532260
2.347284 1.184720 -0.530771
2.320373 1.037438 -0.405767
2.381950 1.116191 -0.510476
2.382252 1.160302 -0.516581
2.390762 1.211437 -0.552531
2.416010 1.091552 -0.495519
2.369048 1.107495 -0.457496
2.375274 1.154504 -0.471008
2.378755 1.201634 -0.499264
2.449004 1.109857 -0.501962
2.441891 1.150159 -0.516086
2.407773 1.173489 -0.477381
2.394313 1.209982 -0.483278
2.446899 1.108126 -0.463781
2.434287 1.144645 -0.470441
2.428936 1.185352 -0.468614
2.409752 1.218257 -0.467138
2.450278 1.109528 -0.433097
2.525993 1.198483 -0.549066
2.514268 1.237307 -0.539406
2.471182 1.256591 -0.508861
2.519305 1.148333 -0.482073
2.512267 1.189308 -0.495821
2.530135 1.245793 -0.522237
2.510102 1.280141 -0.520703
2.571045 1.177255 -0.508292
2.581674 1.229731 -0.543412
2.563709 1.265316 -0.526321
2.549337 1.303850 -0.531905
2.598880 1.192545 -0.505178
2.567358 1.220222 -0.490217
2.585482 1.277466 -0.515732
2.547373 1.300728 -0.492974
2.639132 1.214885 -0.515766
2.637714 1.261132 -0.536154
2.619340 1.297121 -0.518890
2.604789 1.336192 -0.524336
2.592628 1.187888 -0.427864
2.647408 1.265914 -0.510961
2.665603 1.324450 -0.535421
2.620562 1.344587 -0.506055
2.695443 1.245757 -0.507281
2.694082 1.292667 -0.527277
2.681455 1.332877 -0.516729
2.660563 1.368664 -0.515148
2.698413 1.246872 -0.474979
2.703608 1.297338 -0.501647
2.703382 1.345068 -0.504705
2.706993 1.396850 -0.530398
2.752055 1.276747 -0.497170
2.763366 1.331799 -0.530359
2.737807 1.364982 -0.505920
2.685644 1.381262 -0.470550
2.825474 1.317809 -0.538642
2.766455 1.332641 -0.497431
2.803993 1.404494 -0.540073
2.788495 1.445746 -0.545130
2.821900 1.315185 -0.498758
2.858984 1.386434 -0.557948
2.813525 1.408973 -0.513356
2.772947 1.433923 -0.491855
2.876665 1.345621 -0.518551
2.868551 1.391083 -0.530921
2.835648 1.421223 -0.499744
2.820246 1.462525 -0.504678
2.885805 1.350191 -0.491631
2.903926 1.410987 -0.530012
2.870663 1.441404 -0.498844
2.874301 1.495409 -0.523182
2.974297 1.399673 -0.542361
2.952580 1.438710 -0.541490
2.918868 1.469673 -0.510258
2.896546 1.507858 -0.508598
2.980554 1.506183 -0.533580
2.964237 1.549366 -0.538249
2.976566 1.502329 -0.492822
2.953957 1.540992 -0.491150
3.038809 1.539105 -0.514619
3.022301 1.582819 -0.519139
3.061260 1.551455 -0.498334
3.051373 1.599546 -0.508942
3.130985 1.592720 -0.524408
3.093852 1.624788 -0.510490
3.167237 1.613462 -0.519101
3.150017 1.658690 -0.523367
3.210448 1.638430 -0.519175
3.192990 1.684162 -0.523354
3.219332 1.642429 -0.489115
1.029153 0.310778 1.376066
3.229318 1.705387 -0.516748
3.272614 1.731000 -0.515369
1.040325 0.313121 1.373880
1.038421 0.316372 1.374018
1.011748 0.299388 1.398610
1.049784 0.318653 1.372161
1.061831 0.330871 1.361117
1.041965 0.318202 1.379852
1.052189 0.319891 1.376231
1.064407 0.332197 1.365477
1.024530 0.303021 1.399800
1.008559 0.296932 1.410669
1.054532 0.321092 1.380347
1.066918 0.333483 1.369887
1.033804 0.308446 1.398117
1.046483 0.320518 1.387789
1.020150 0.300098 1.410294
0.996741 0.289211 1.425864
1.012143 0.298761 1.417208