# This PCD file was generated using the MATLAB® pcwrite function
# from Computer Vision System Toolbox®.
# .PCD v.7 - Point Cloud Data file format
VERSION .7
FIELDS x y z
SIZE 4 4 4
TYPE F F F
COUNT 1 1 1
WIDTH 831
HEIGHT 1
VIEWPOINT 0 0 0 1 0 0 0
POINTS 831
DATA ascii
38.922325 -20.681036 4.783903
39.060505 -21.211199 4.605946
38.827091 -20.631304 4.348934
39.020813 -21.151928 4.100645
38.824760 -20.555931 3.789953
38.986534 -21.090042 3.578194
38.796303 -20.406284 2.664917
39.010929 -20.939093 2.379082
38.770096 -20.332039 2.099049
38.953499 -20.878349 1.850372
38.741741 -20.256567 1.523155
38.882816 -20.819510 1.328030
36.128593 -20.903276 4.475761
36.112087 -21.450098 4.494640
35.764637 -20.928192 4.407644
35.754414 -21.471317 4.419292
35.350201 -20.968197 4.416140
35.368755 -21.500420 4.388258
34.948887 -21.005363 4.413250
34.945007 -21.540380 4.418549
34.571381 -21.036421 4.382299
34.540146 -21.576277 4.429289
34.167740 -21.076031 4.396654
34.159058 -21.606609 4.411772
33.787571 -21.109520 4.382605
33.779316 -21.637337 4.398527
33.408794 -21.143400 4.372810
33.400974 -21.668455 4.389534
33.031456 -21.177664 4.367245
33.024075 -21.699957 4.384764
32.655602 -21.212305 4.365887
32.648659 -21.731834 4.384192
32.276184 -21.248947 4.377159
30.831184 -21.964085 5.008387
30.689995 -21.428291 4.619694
30.800255 -21.895159 4.434771
30.457642 -21.419603 4.401224
30.533813 -21.897984 4.276352
30.208889 -21.416182 4.210567
29.898819 -22.018364 4.809835
29.571644 -22.042591 4.781979
29.279673 -21.564247 4.670403
29.267735 -22.059752 4.713438
28.957428 -21.589340 4.639551
28.963886 -22.077257 4.647852
28.674812 -21.600231 4.532133
28.668797 -22.092152 4.567438
28.378788 -21.616320 4.454004
28.416092 -22.092644 4.400541
28.074257 -21.635975 4.396570
27.994467 -22.152437 4.594271
27.634979 -21.709057 4.638519
27.597940 -22.205097 4.747993
27.301361 -21.742159 4.660303
27.337963 -22.209515 4.608055
27.117683 -22.721260 4.773861
26.996758 -21.764320 4.622173
26.989925 -22.246565 4.669903
26.823048 -22.738377 4.720255
26.975723 -23.165049 4.397848
26.673332 -21.794807 4.632454
26.698128 -22.263382 4.607967
26.616680 -22.725349 4.459198
26.640362 -23.193451 4.437691
26.422771 -21.795193 4.472675
26.440334 -22.267372 4.466499
26.301716 -22.749777 4.456285
26.325563 -23.216208 4.435070
26.122492 -21.816719 4.433943
26.140388 -22.287781 4.428091
25.962034 -22.783731 4.520958
25.985977 -23.247520 4.500143
25.808125 -21.844933 4.434839
25.811834 -22.320150 4.466208
25.663986 -22.803452 4.487558
25.688141 -23.266123 4.466978
25.494783 -21.873436 4.438852
25.513262 -22.341156 4.433783
25.362825 -22.824789 4.466274
25.390701 -23.285030 4.436653
25.168715 -21.908571 4.482977
25.187439 -22.374071 4.478365
25.069103 -22.843801 4.429277
25.093681 -23.304237 4.409157
24.884739 -21.924938 4.419033
24.903854 -22.389870 4.414658
24.745556 -22.874887 4.479038
24.756840 -23.337774 4.496651
24.587444 -21.947954 4.394928
24.606899 -22.411766 4.390856
24.449902 -22.895782 4.457190
24.448633 -23.362200 4.512650
24.265038 -21.983898 4.448376
24.287956 -22.444046 4.435390
25.109032 -22.526596 1.620876
25.265015 -22.977592 1.220963
23.969397 -22.007475 4.430122
24.123974 -22.406116 4.023085
25.087078 -22.424492 0.691990
25.253437 -22.883160 0.252045
24.742231 -21.477909 1.106544
23.874395 -22.406057 3.856070
24.590145 -22.068995 1.643246
24.944170 -22.368679 0.091476
24.998814 -22.876436 -0.009754
24.586720 -21.413891 0.547153
23.504208 -22.463631 4.068727
24.668598 -21.901340 0.357540
24.644995 -22.378164 -0.035599
24.675772 -22.895571 -0.061081
24.462391 -21.328693 -0.144520
23.150110 -22.515606 4.247578
24.489161 -21.851997 -0.155727
24.324549 -22.397064 -0.093658
24.344152 -22.918499 -0.080936
24.134624 -21.352077 -0.182865
22.811142 -22.562016 4.392250
24.156170 -21.877382 -0.174835
23.992905 -22.421452 -0.110737
24.004738 -22.945183 -0.069088
23.809763 -21.374245 -0.227715
23.826431 -21.901669 -0.200378
23.672546 -22.441040 -0.162930
23.682541 -22.965317 -0.111408
23.477118 -21.401413 -0.241047
23.483955 -21.933361 -0.175156
23.354706 -22.459702 -0.221821
23.365650 -22.983517 -0.169971
23.142536 -21.430450 -0.241745
23.163109 -21.954044 -0.223221
23.014011 -22.490158 -0.191528
23.025810 -23.012260 -0.139236
22.813648 -21.456699 -0.258476
22.832373 -21.980700 -0.230049
22.694073 -22.510754 -0.234943
22.706818 -23.032253 -0.182327
22.492336 -21.478643 -0.300976
22.511799 -22.002052 -0.272270
22.353020 -22.543053 -0.188740
22.378397 -23.057081 -0.183952
21.094791 -22.226200 4.197479
22.145952 -21.517830 -0.234829
22.166023 -22.039131 -0.205658
22.054209 -22.552963 -0.313171
22.075665 -23.069893 -0.288971
20.863998 -22.211473 3.948763
21.221802 -22.455666 2.489948
21.850838 -22.058323 -0.261219
21.723457 -22.580839 -0.299599
21.747740 -23.095369 -0.284790
20.696976 -22.148363 3.392715
21.178190 -21.800083 1.191456
21.093945 -22.366907 1.697956
21.395718 -22.607754 -0.292675
21.431080 -23.115587 -0.326168
20.869148 -21.824121 1.173271
20.928335 -22.295807 1.021915
21.070766 -22.633715 -0.292469
21.136532 -23.123978 -0.471786
20.585638 -21.828730 1.031860
20.796347 -22.193913 0.122807
20.790625 -22.631464 -0.513229
20.814959 -23.147125 -0.488251
20.582201 -21.603754 -0.583027
20.613686 -22.119335 -0.591885
20.468681 -22.655663 -0.527035
20.495550 -23.169491 -0.511600
20.251856 -21.635616 -0.556969
20.283688 -22.149929 -0.565578
20.150581 -22.677715 -0.557495
20.171036 -23.195454 -0.502762
19.939392 -21.652719 -0.625320
19.964905 -22.172606 -0.594822
19.824192 -22.706219 -0.536221
19.850586 -23.219534 -0.510586
19.611897 -21.683676 -0.603153
19.642944 -22.198332 -0.601696
19.503448 -22.731342 -0.541389
19.540070 -23.237434 -0.574432
19.289860 -21.710432 -0.607342
19.316820 -22.228428 -0.576321
19.184620 -22.755556 -0.553516
19.213913 -23.266457 -0.537323
18.971111 -21.734518 -0.628223
18.997396 -22.253401 -0.587223
18.866068 -22.780083 -0.562813
18.901649 -23.286108 -0.585827
18.649797 -21.761892 -0.626705
18.685020 -22.271965 -0.644375
18.553097 -22.800106 -0.608646
18.578352 -23.314629 -0.552784
18.330221 -21.788088 -0.632137
18.359440 -22.304277 -0.600540
18.229893 -22.830063 -0.572956
18.256069 -23.343410 -0.516834
18.016819 -21.807238 -0.683853
18.042137 -22.328842 -0.612804
17.907732 -22.860275 -0.534363
17.944096 -23.364023 -0.557011
17.692106 -21.841400 -0.634533
17.723930 -22.355053 -0.612434
17.595125 -22.881258 -0.571869
17.627523 -23.389174 -0.554924
17.369637 -21.874346 -0.592140
17.405106 -22.382883 -0.599392
17.282227 -22.902586 -0.606651
17.311350 -23.414621 -0.550056
17.059172 -21.890106 -0.665089
17.092386 -22.403109 -0.642750
16.961962 -22.933649 -0.559586
16.999201 -23.436224 -0.582016
16.737898 -21.923624 -0.617050
16.774239 -22.431545 -0.624134
16.649248 -22.955614 -0.588867
16.686808 -23.458166 -0.611267
16.423660 -21.945860 -0.645096
16.457474 -22.458961 -0.612595
16.333458 -22.982567 -0.575806
16.371296 -23.484543 -0.598118
16.109213 -21.968435 -0.670418
16.143833 -22.481480 -0.637848
16.023190 -23.000563 -0.639275
16.058836 -23.507137 -0.621910
15.792337 -21.997065 -0.653469
15.830010 -22.504335 -0.660374
15.709890 -23.023542 -0.660393
15.746207 -23.530067 -0.642986
15.479794 -22.014603 -0.712849
15.516027 -22.527527 -0.680176
15.392817 -23.055998 -0.599403
15.429713 -23.561365 -0.581837
15.163319 -22.043852 -0.690392
15.201910 -22.551054 -0.697243
15.081410 -23.075048 -0.654758
15.119021 -23.580919 -0.637211
14.848629 -22.067745 -0.704754
14.887681 -22.574913 -0.711586
14.768092 -23.099001 -0.667686
14.806372 -23.604820 -0.650116
14.533852 -22.091972 -0.716377
14.573365 -22.599104 -0.723194
14.453925 -23.127773 -0.638157
14.492830 -23.632986 -0.620510
14.219011 -22.116528 -0.725262
14.258432 -22.628653 -0.692387
14.141251 -23.147890 -0.685383
14.180402 -23.657515 -0.627972
13.904132 -22.141409 -0.731411
13.944566 -22.648468 -0.738209
13.827777 -23.172823 -0.690147
13.868096 -23.677513 -0.682476
13.589236 -22.166618 -0.734825
13.630131 -22.673641 -0.741611
13.514299 -23.198078 -0.692181
13.555486 -23.707541 -0.634747
13.274348 -22.192150 -0.735500
13.315703 -22.699135 -0.742287
13.200843 -23.223656 -0.691490
13.243047 -23.733036 -0.634056
12.959272 -22.216637 -0.743343
13.002148 -22.729870 -0.700539
12.888398 -23.253904 -0.648323
12.930420 -23.757900 -0.640610
12.644695 -22.244179 -0.728638
12.686970 -22.751087 -0.735439
12.574085 -23.275768 -0.681934
12.615783 -23.777443 -0.704136
12.328397 -22.265259 -0.760704
12.372712 -22.777542 -0.727913
12.259169 -23.298008 -0.712799
12.302852 -23.803946 -0.695278
12.015362 -22.297480 -0.710827
12.060439 -22.809139 -0.677990
11.945683 -23.324881 -0.701199
11.988070 -23.827053 -0.723484
11.698602 -22.319248 -0.737396
11.741745 -22.825394 -0.754219
11.632338 -23.352066 -0.686867
11.677359 -23.857889 -0.669399
11.383920 -22.346712 -0.721634
11.427436 -22.852823 -0.738476
11.319156 -23.379560 -0.669815
11.364845 -23.885326 -0.652382
11.065704 -22.367872 -0.752552
11.110379 -22.875826 -0.759605
11.000056 -23.399021 -0.729366
11.049512 -23.909452 -0.672375
10.750966 -22.395992 -0.731285
10.796918 -22.905083 -0.728477
10.686580 -23.427193 -0.706818
10.732857 -23.933048 -0.699520
10.430044 -22.415270 -0.776390
10.478427 -22.927614 -0.753971
10.372402 -23.454639 -0.691444
10.420197 -23.961470 -0.674286
10.111165 -22.438860 -0.789059
10.161301 -22.952850 -0.756886
10.055242 -23.479347 -0.703014
10.103749 -23.986671 -0.685974
9.787512 -22.457649 -0.838348
9.837462 -22.971518 -0.816277
10.044994 -23.784475 2.026825
10.099824 -24.260935 2.126949
9.796452 -22.841290 1.911926
9.855719 -23.328461 2.037636
9.770105 -23.823708 2.176319
9.928006 -24.372726 3.127182
9.526703 -22.890497 2.111629
9.584867 -23.372898 2.217766
9.502724 -23.866993 2.367558
9.674294 -24.416389 3.357164
9.262901 -22.942232 2.333164
9.312909 -23.413975 2.370560
9.227480 -23.902393 2.482109
9.361931 -24.420975 3.135075
8.998412 -22.990147 2.527351
9.043360 -23.455120 2.525593
8.959780 -23.941839 2.638344
9.013683 -24.407780 2.699081
8.712721 -23.018057 2.566784
8.777740 -23.497444 2.692657
8.688349 -23.977468 2.757435
8.822664 -24.485426 3.330208
8.401720 -23.026367 2.452030
8.731606 -23.689894 4.196062
8.487629 -23.521049 2.695107
8.647989 -24.148735 4.263399
8.413801 -24.010338 2.849331
8.632647 -24.557373 3.903233
8.101908 -23.045078 2.418423
8.486263 -23.733322 4.385178
8.177063 -23.531843 2.582565
8.385345 -24.179585 4.345827
8.109704 -24.026236 2.767029
8.348558 -24.578985 3.878122
8.161882 -23.312729 4.369696
8.217402 -23.760441 4.429483
7.883605 -23.555120 2.580559
8.440185 -24.376719 6.153828
8.068068 -24.181353 4.126944
7.814597 -24.048277 2.746311
8.490559 -24.793459 6.199261
8.095837 -24.615463 4.032093
7.907367 -23.349916 4.494507
7.510646 -23.090988 2.417858
7.945257 -23.785650 4.456593
7.598996 -23.584133 2.630009
8.202327 -24.410116 6.277124
7.516863 -24.069761 2.718491
8.245940 -24.822479 6.283365
7.559088 -24.530107 2.690086
7.492983 -23.287037 3.813499
7.739072 -23.847475 4.817677
7.297420 -23.603779 2.594173
7.891457 -24.408401 6.031471
7.204460 -24.085155 2.625057
7.978946 -24.842199 6.252239
7.655894 -23.573137 5.955372
7.350919 -23.393444 4.497736
7.058142 -23.220938 3.098404
7.627788 -23.955608 5.608423
7.004911 -23.629139 2.609787
7.670389 -24.449640 6.237225
7.711032 -24.862284 6.223564
7.455536 -23.630909 6.258892
7.116615 -23.440668 4.706818
7.496197 -24.045801 6.243380
7.392625 -24.465384 6.172295
6.509351 -24.090252 2.155331
7.484762 -24.898134 6.392176
6.527603 -24.551668 2.008823
7.218214 -23.666018 6.379738
6.843672 -23.465418 4.733690
7.272244 -24.086163 6.422501
7.144439 -24.494154 6.245905
6.782002 -24.347578 4.663486
6.152740 -24.093090 1.916096
6.980104 -24.837357 5.327774
5.584416 -24.357250 -0.807182
6.845297 -23.630964 5.922678
6.994062 -24.100687 6.361273
5.942018 -23.623489 1.888035
6.848624 -24.504416 6.118172
5.184388 -23.862644 -0.867710
6.835401 -24.902935 5.871008
5.262270 -24.387995 -0.775990
6.675084 -23.700495 6.328245
5.956205 -23.348492 3.405884
4.909917 -22.836168 -0.847462
6.596273 -24.064463 5.819544
4.957215 -23.353998 -0.886597
6.681724 -24.563694 6.525198
6.811597 -25.002714 6.869680
4.913908 -24.410917 -0.848446
7.034819 -24.015059 8.784655
6.388642 -23.711954 6.253353
4.553305 -22.851048 -0.936310
6.401366 -24.117859 6.121426
4.620546 -23.379318 -0.898663
6.632910 -24.661745 7.367167
6.033457 -24.450811 5.032093
6.632126 -25.049583 7.190159
4.590811 -24.442450 -0.811264
6.822089 -24.048552 8.908756
4.209769 -22.873369 -0.964092
6.676832 -24.355959 8.194986
4.285585 -23.406078 -0.897991
6.564991 -24.747282 8.082716
6.513839 -25.112083 7.723776
6.021788 -24.972370 5.862789
4.267741 -24.474323 -0.771191
6.574308 -24.066236 8.900412
6.546163 -24.422064 8.639238
3.957842 -23.436243 -0.865429
6.636021 -24.872681 9.258486
6.260406 -24.751575 7.894428
5.509176 -24.509365 5.166317
6.154166 -25.105988 7.343412
3.931561 -24.502964 -0.776318
6.252754 -24.053888 8.636251
6.376886 -24.470840 8.920931
3.600321 -23.455917 -0.935268
6.290418 -24.861134 8.897715
6.309056 -25.236326 8.810005
6.018230 -24.079166 8.690376
6.081272 -24.473465 8.754473
6.115211 -24.903147 9.143250
6.147255 -25.279228 9.103794
5.827267 -24.121235 8.889271
5.991404 -24.547342 9.286961
5.937965 -24.943333 9.370787
2.819206 -24.055702 -0.899479
5.932361 -25.308142 9.207407
5.680668 -24.178560 9.222342
5.756965 -24.570669 9.324678
5.725419 -24.972786 9.475807
5.694996 -25.331755 9.236589
5.435896 -24.198608 9.234226
4.468461 -23.853317 6.224701
5.516572 -24.592344 9.345551
5.489657 -24.995907 9.506695
5.494184 -25.363623 9.381943
5.178260 -24.214653 9.210644
5.297777 -24.620863 9.434834
5.225564 -25.012131 9.454601
5.260870 -25.388294 9.424623
4.076767 -25.140133 5.843464
1.862054 -24.675976 -0.854637
5.009431 -24.260929 9.453087
5.089547 -24.652309 9.554260
4.989018 -25.035852 9.490046
4.895900 -25.386692 9.082088
4.834362 -24.303860 9.668365
4.840172 -24.671894 9.553137
4.719393 -25.052082 9.433613
1.069609 -24.197245 -0.939877
4.682629 -25.416700 9.196064
4.682664 -24.352942 9.940895
4.751496 -24.735411 10.004372
4.614312 -25.106253 9.839363
4.518014 -25.455580 9.443260
4.421126 -24.367582 9.906355
4.408393 -24.730036 9.744987
4.314249 -25.116104 9.702879
4.222086 -25.470226 9.326256
4.299738 -24.423677 10.246351
4.144709 -24.746872 9.713221
4.046695 -25.134041 9.662863
3.955342 -25.490927 9.296440
0.101695 -24.831175 -0.856812
3.680964 -24.338163 9.298367
3.973553 -24.786945 9.925541
2.700734 -24.477066 6.647614
3.737785 -25.144331 9.523411
3.575086 -25.493563 8.980963
3.348123 -24.337551 9.116550
3.307708 -24.709774 8.889496
3.459194 -25.161800 9.470694
3.259021 -25.508385 8.846260
2.852713 -24.295902 8.551908
2.127357 -24.104799 6.784500
1.163996 -23.850990 4.437155
3.421782 -24.817009 9.818380
3.463698 -25.233292 10.112656
2.518399 -25.055527 7.815937
2.841492 -25.508905 8.474873
3.033466 -24.431217 9.626623
2.377559 -24.263773 8.067219
0.969289 -23.904263 4.719078
3.262716 -24.859007 10.054045
3.040574 -25.224201 9.714048
2.567478 -25.532679 8.467764
2.791107 -24.455324 9.672621
-1.808911 -23.317062 -1.002888
2.902768 -24.857336 9.814352
2.851130 -25.258656 9.879498
2.304395 -25.558514 8.490921
2.420199 -24.448849 9.429497
2.541896 -24.857407 9.588114
2.340892 -25.238499 9.316429
2.073103 -25.589041 8.589746
0.495604 -25.375711 5.007515
2.318802 -24.507200 9.798670
-0.020964 -23.962742 4.618597
2.319352 -24.886915 9.684357
1.840655 -25.223381 8.805721
1.042227 -25.093019 7.042456
1.686769 -25.599455 8.344648
0.069963 -25.389202 4.757824
2.026719 -24.520758 9.742964
2.043515 -24.906118 9.664825
0.639434 -24.634876 6.613287
1.708234 -25.269371 9.116541
0.760242 -25.119905 7.070429
-0.235488 -25.419418 4.785290
-2.870522 -25.089920 -0.927681
1.681771 -24.523647 9.582382
1.431136 -24.863014 8.935635
1.520533 -25.305918 9.301449
0.473555 -25.146505 7.092167
-0.364025 -25.018976 5.324739
0.911657 -25.624737 7.895723
0.455699 -25.569918 6.929289
-0.562753 -25.447472 4.770618
0.947427 -24.445293 8.627995
-3.729230 -23.450933 -1.044865
1.341369 -24.919189 9.328949
1.174163 -25.318754 9.155380
0.295105 -25.189489 7.341282
-0.465990 -25.525187 5.640881
0.769177 -24.488039 8.844891
0.905395 -24.913015 9.006227
0.055794 -24.763876 7.279715
-4.042544 -24.044455 -1.048676
0.771214 -25.324799 8.906048
0.075731 -25.226025 7.501968
0.378186 -25.682766 7.994223
-0.434674 -25.592457 6.345982
0.571335 -24.526182 9.018444
-4.516225 -23.506508 -1.053593
0.668985 -24.943081 9.098850
-0.150850 -24.803650 7.468719
1.196921 -25.446247 10.309170
0.385562 -25.334957 8.706264
1.221709 -25.830799 10.250515
-0.338206 -25.664253 7.155386
1.526687 -24.788383 11.423964
0.284223 -24.546547 9.016434
-5.087607 -23.500956 -1.392590
0.178039 -24.931286 8.696932
-4.967412 -24.083351 -1.316532
-0.178726 -25.322948 8.174267
0.969355 -25.857435 10.287771
-1.225590 -25.632282 6.024963
1.259583 -24.806213 11.414305
-0.143230 -24.541000 8.753065
0.036023 -24.977900 8.981453
-1.437822 -24.742540 6.173466
-5.178056 -24.145258 -0.952457
0.514830 -25.474926 10.050901
0.674893 -25.880264 10.247969
0.911151 -24.809725 11.258350
0.868566 -25.174454 11.077265
0.372813 -25.515543 10.305651
0.421359 -25.907635 10.290619
0.463127 -24.796906 10.932001
0.506055 -25.181639 10.908134
0.195745 -25.551353 10.491030
0.095578 -25.928780 10.204401
-2.176135 -25.722517 6.060770
0.247334 -24.826742 11.037420
0.207767 -25.199564 10.865387
0.040493 -25.589376 10.712439
-0.149721 -25.957800 10.270187
-0.022038 -24.847559 11.049625
-0.052705 -25.223593 10.895317
-0.823340 -25.115026 9.543304
-0.171494 -25.620644 10.830759
-0.310645 -25.994123 10.485867
-0.342436 -24.860550 10.978619
-0.484159 -25.224695 10.634712
-1.289918 -25.554670 9.399488
-0.574453 -26.021883 10.521172
-0.608962 -24.883091 11.005533
-0.900785 -25.229610 10.414072
-2.188648 -25.059204 8.243063
-1.641142 -25.574980 9.314938
-2.352332 -25.501350 8.122927
-0.910126 -26.044518 10.438946
-1.036477 -24.881199 10.771154
-1.095022 -25.264698 10.574430
-0.946359 -25.700712 10.957893
-1.496833 -26.049578 9.950481
-1.295888 -24.906422 10.822008
-1.140836 -25.318052 10.974106
-1.345611 -25.714556 10.779285
-1.714869 -26.082952 10.082430
-1.741799 -24.904757 10.580486
-1.828968 -25.292774 10.342142
-1.893167 -25.715960 10.377867
-2.261952 -26.094296 9.692011
-8.973056 -25.643946 -0.962486
-2.236186 -24.898088 10.277769
-2.195208 -25.308620 10.241165
-9.429217 -24.464916 -1.042545
-2.172781 -25.743626 10.412249
-3.167880 -26.084690 8.762558
-4.145186 -26.022062 7.240372
-9.382678 -25.686438 -0.917206
-2.304870 -24.952368 10.640398
-2.547954 -25.327082 10.169733
-9.885478 -24.498123 -1.060009
-2.666831 -25.753246 10.124037
-3.494580 -26.114588 8.758474
-9.847878 -25.726177 -0.951149
-3.088893 -24.909510 9.924623
-10.421260 -23.926004 -1.043602
-2.792459 -25.358347 10.268707
-10.299470 -24.536951 -1.005825
-2.939198 -25.783079 10.182869
-10.435538 -25.160727 -1.015236
-3.229295 -26.179594 9.647877
-4.543374 -26.103031 7.677031
-3.448625 -24.926231 9.863461
-10.859614 -23.960161 -1.016975
-3.372684 -25.354223 9.874405
-10.753467 -24.572212 -1.004997
-10.872703 -25.201082 -0.987850
-4.623614 -26.149845 8.066919
-10.751309 -25.809988 -0.953278
-4.652190 -24.837046 8.593847
-11.327697 -23.991400 -1.026447
-11.180814 -24.611137 -0.957958
-11.345347 -25.239491 -1.004818
-4.914578 -26.184742 8.143827
-11.199937 -25.853319 -0.938408
-11.786223 -24.024853 -1.014240
-11.683843 -24.643278 -1.012348
-11.773898 -25.282131 -0.951050
-11.655839 -25.897087 -0.926620
-12.263846 -24.056965 -1.021103
-12.160537 -24.679150 -1.020164
-12.273448 -25.320425 -0.989830
-12.130834 -25.940775 -0.933975
-12.767047 -24.087154 -1.054592
-12.615664 -24.718031 -0.990173
-12.728219 -25.362856 -0.958206
-12.607793 -25.985279 -0.935783
-13.248853 -24.120951 -1.050102
-13.095984 -24.755493 -0.987061
-13.232188 -25.402878 -0.985420
-13.086659 -26.030602 -0.932018
-13.732509 -24.155563 -1.040001
-13.578172 -24.793774 -0.978336
-13.714343 -25.445330 -0.974804
-13.543210 -26.077703 -0.890762
-14.187427 -24.194244 -0.984776
-14.080451 -24.831333 -0.987694
-14.198274 -25.488598 -0.958523
-14.074286 -26.122770 -0.939251
-14.705142 -24.227240 -1.002777
-14.597215 -24.868778 -1.006763
-14.733426 -25.529829 -0.999321
-14.583470 -26.169710 -0.949772
-15.268918 -24.256781 -1.069023
-15.110097 -24.907642 -1.011784
-15.189977 -25.576538 -0.932236
-15.069877 -26.218380 -0.922913
-15.753871 -24.295410 -1.027718
-15.618825 -24.947891 -1.002876
-15.735969 -25.619286 -0.968277
-15.608363 -26.266308 -0.952339
-16.272114 -24.331812 -1.019112
-16.142239 -24.988092 -1.003254
-16.278294 -25.663378 -0.989864
-16.092033 -26.316875 -0.905819
-16.766579 -24.371483 -0.973759
-16.609879 -25.033297 -0.928497
-16.739185 -25.712481 -0.905556
-16.615696 -26.367207 -0.899460
-17.347099 -24.404436 -1.020924
-17.201927 -25.070839 -0.992458
-17.318222 -25.756931 -0.952282
-17.186989 -26.417355 -0.939816
-17.891197 -24.441908 -1.015682
-17.725052 -25.114264 -0.966049
-17.893688 -25.802784 -0.984142
-17.728291 -26.469324 -0.935284
-18.397621 -24.483683 -0.959000
-18.283134 -25.156506 -0.970627
-18.445343 -25.850819 -0.978878
-18.251831 -26.522669 -0.901619
-18.999271 -24.518684 -0.999817
-18.863678 -25.198549 -0.990486
-18.992485 -25.900106 -0.959339
-18.803890 -26.576422 -0.891228
-19.583664 -24.556440 -1.010910
-19.446899 -25.241686 -1.002991
-19.555195 -25.949865 -0.947697
-19.419014 -26.630175 -0.940170
-20.170635 -24.595284 -1.014587
-20.025883 -25.286289 -1.000782
-20.167992 -25.998985 -0.979980
-20.023670 -26.685331 -0.966518
-20.794598 -24.632683 -1.046921
-20.614132 -25.331589 -0.998486
-20.749222 -26.050409 -0.968201
-20.589798 -26.742161 -0.941608
-21.379826 -24.674253 -1.028191
-21.211754 -25.377615 -0.995872
-21.339680 -26.102680 -0.956203
-21.144024 -26.800146 -0.895191
-22.002369 -24.714472 -1.037533
-21.797798 -25.425436 -0.971371
-21.932430 -26.156031 -0.936649
-21.763119 -26.858540 -0.905930
-22.599297 -24.757750 -1.010647
-22.400112 -25.473652 -0.953526
-22.584145 -26.208963 -0.965870
-22.406162 -26.917961 -0.929779
-23.198368 -24.802105 -0.976128
-23.018974 -25.522329 -0.941929
-23.153088 -26.265270 -0.902664
-22.973618 -26.979036 -0.868164
-23.849934 -24.844419 -0.982365
-23.618679 -25.573080 -0.901493
-23.810158 -26.320597 -0.915348
-23.600246 -27.040890 -0.854874
-24.453442 -24.891010 -0.932030
-24.249382 -25.623722 -0.880856
-24.120922 -26.384430 -0.590057
-24.149414 -27.104052 -0.757755
-25.176025 -24.931938 -0.982643
-24.940964 -25.673273 -0.906467
-24.311455 -26.450563 -0.153301
-24.867996 -27.168102 -0.810440
-25.843201 -24.977594 -0.969593
-25.657883 -25.723373 -0.943027
-24.378929 -26.518406 0.391838
-25.612358 -27.233650 -0.873558
-26.512993 -25.024513 -0.947693
-16.232319 -26.127409 8.154760
-26.289051 -25.778008 -0.889633
-24.320545 -26.587362 1.042244
-26.278778 -27.300461 -0.852901
-15.927163 -25.649206 8.993834
-16.869724 -26.163813 8.056616
-27.056984 -25.829350 -0.947151
-23.923374 -26.659674 1.979668
-26.977665 -27.368673 -0.849823
-27.973343 -25.116550 -0.975208
-17.043037 -26.216085 8.373953
-23.654896 -26.011450 2.631218
-23.845665 -26.725857 2.619957
-24.696266 -27.418886 1.751766
-27.641621 -27.437994 -0.804501
-18.059940 -25.667383 8.078056
-16.543911 -26.287683 9.263443
-24.026405 -26.788225 3.029865
-24.891537 -27.481001 2.163254
-23.072395 -25.502758 4.361355
-22.558304 -26.178965 4.668581
-29.254208 -26.807867 -0.775883
-25.051853 -27.542580 2.601345
-22.388947 -26.248579 5.338818
-22.140320 -26.927233 5.684494
-19.182457 -25.804596 8.563587
-30.767380 -25.324621 -0.778328
-19.079113 -26.391075 8.539373
-30.540760 -26.119411 -0.740681
-22.167713 -26.985847 6.177494
-31.555626 -25.376551 -0.772251
-19.339622 -26.442707 8.798594
-31.350758 -26.178995 -0.755753
-19.131420 -27.054468 9.089493
-18.381187 -27.624397 9.579618
-21.919319 -27.674482 6.767237
-19.495621 -26.496542 9.140396
-32.458977 -27.081533 -0.816193
-22.067837 -27.729473 7.150702
-18.473961 -26.011822 10.485798
-19.957462 -26.544451 9.245510
-33.395557 -27.153917 -0.895237
-22.307552 -27.785822 7.461620
-20.157600 -26.011951 9.659937
-20.188362 -26.597031 9.531279
-34.048538 -26.363338 -0.919113
-22.512569 -27.841604 7.798710
-19.540749 -26.091660 10.570116
-20.609650 -26.646725 9.676317
-21.111759 -26.695959 9.767952
-22.848347 -27.951548 8.524439
-21.968353 -27.375525 9.739542
-22.896889 -28.003647 8.969975
-20.316521 -26.241739 11.336107
-32.009274 -26.694422 3.036915
-21.032970 -26.280277 11.280256
-21.107635 -26.862286 11.127108
-36.356434 -28.447344 0.656242
-39.479984 -25.896519 -0.691647
-21.808323 -27.530609 11.215567
-24.386692 -26.319393 9.938900
-24.167717 -26.952225 9.975145
-40.583858 -27.798952 -0.729404
-25.090355 -26.366077 9.953409
-25.272167 -27.004978 9.725367
-21.456066 -28.208506 12.226280
-31.651222 -27.046041 6.129097
-21.720165 -27.729322 13.015118
-21.644772 -27.776636 13.484488
-19.124889 -27.865913 16.177700
13.546613 -27.175303 35.016804
13.591206 -27.176701 35.039574
13.491062 -27.177511 34.993755
13.545056 -27.179209 35.020134
13.490315 -27.182024 34.995617
13.551965 -27.176188 35.028542
13.489200 -27.182392 34.997959
13.478655 -27.178923 34.996548
13.515242 -27.181425 35.013027
13.504828 -27.178345 35.011421
13.523355 -27.181299 35.019310
13.540363 -27.177362 35.029900
13.558908 -27.179739 35.037693
13.539536 -27.177656 35.031803
13.521546 -27.181934 35.023422
13.557122 -27.177237 35.041527
13.511485 -27.182743 35.021564
13.510241 -27.179342 35.024143
13.529029 -27.182060 35.031410
13.518970 -27.182880 35.029648