# This PCD file was generated using the MATLAB® pcwrite function
# from Computer Vision System Toolbox®.
# .PCD v.7 - Point Cloud Data file format
VERSION .7
FIELDS x y z
SIZE 4 4 4
TYPE F F F
COUNT 1 1 1
WIDTH 914
HEIGHT 1
VIEWPOINT 0 0 0 1 0 0 0
POINTS 914
DATA ascii
42.173615 -24.287947 4.383150
42.162502 -24.883972 4.382967
41.689560 -24.335060 4.387249
41.678654 -24.926682 4.388157
41.207748 -24.382698 4.397345
40.261726 -24.553282 4.987730
40.449764 -25.077932 4.746525
40.238850 -24.482780 4.450802
40.425850 -25.013065 4.207615
40.202370 -24.414291 3.919594
40.315159 -24.968027 3.767872
40.403622 -24.872509 3.061089
40.220093 -24.247427 2.702133
40.362411 -24.807316 2.508034
40.306824 -24.139250 1.966526
40.372307 -24.727568 1.873692
40.283829 -24.059299 1.362370
38.022629 -25.253477 4.466270
40.361351 -24.651241 1.252533
37.602833 -24.735733 4.464588
37.600128 -25.290058 4.466536
37.170570 -24.779467 4.485079
37.162441 -25.331570 4.496023
36.801991 -24.805630 4.421276
36.771904 -25.361519 4.465548
36.367817 -24.851847 4.459583
36.360470 -25.397881 4.472233
35.974197 -24.887022 4.445454
35.950882 -25.434654 4.483660
35.587414 -24.920969 4.427483
35.586288 -25.459846 4.433472
35.207291 -24.953678 4.405500
35.201221 -25.491428 4.420561
34.823204 -24.988417 4.396078
34.796608 -25.529392 4.445471
34.399342 -25.036613 4.458223
34.394047 -25.567734 4.475010
34.059422 -25.059044 4.389997
34.054668 -25.588503 4.407419
33.679821 -25.094921 4.393288
33.675514 -25.621613 4.411482
33.282097 -25.137690 4.434948
33.297955 -25.655090 4.419727
32.944832 -25.161243 4.378031
32.941483 -25.682953 4.397688
32.588921 -25.191687 4.359091
32.586082 -25.711178 4.379435
32.215313 -25.228996 4.378622
32.212940 -25.745718 4.399719
31.861956 -25.260139 4.367365
31.934265 -25.750824 4.249382
31.618887 -25.252628 4.149654
31.563145 -25.786066 4.276970
31.140951 -25.329950 4.391203
31.162497 -25.832031 4.370300
30.778397 -25.366970 4.417732
30.795635 -25.867907 4.406199
30.631466 -26.383541 4.411852
30.651255 -26.879461 4.395462
30.447792 -25.392967 4.386023
30.448002 -25.898167 4.410490
30.302050 -26.406368 4.382772
30.304848 -26.905434 4.402517
30.100960 -25.425774 4.393305
30.118690 -25.922829 4.382685
29.956488 -26.434891 4.392883
29.959803 -26.931725 4.413187
29.755497 -25.458895 4.404200
29.773451 -25.953733 4.394072
29.612320 -26.463726 4.406586
29.620302 -26.957125 4.418428
29.427746 -25.485872 4.382738
29.429621 -25.984947 4.409048
29.269581 -26.492867 4.423866
29.261723 -26.988827 4.472443
29.084816 -25.519619 4.400656
29.087238 -26.016468 4.427589
28.944233 -26.516972 4.408390
28.953136 -27.006460 4.421196
28.759033 -25.547230 4.385885
28.762051 -26.042400 4.413368
28.588539 -26.552044 4.469053
28.613489 -27.033974 4.445917
28.418776 -25.581579 4.410742
28.437744 -26.068645 4.402388
28.265587 -26.576754 4.460333
28.275379 -27.061773 4.474136
28.110119 -25.603386 4.366079
28.099266 -26.101065 4.431219
27.943562 -26.601767 4.454821
27.927593 -27.093422 4.533413
27.739265 -25.652740 4.480103
27.747627 -26.139618 4.500244
27.607861 -26.632376 4.489351
27.622265 -27.112293 4.494850
27.446980 -25.668755 4.405109
27.455967 -26.155056 4.425596
27.320312 -26.646086 4.407145
27.331635 -27.126751 4.422159
27.115746 -25.702660 4.434263
27.149908 -26.176666 4.390581
26.986870 -26.677273 4.448112
26.998642 -27.155699 4.463600
26.796329 -25.732059 4.438995
26.802902 -26.216043 4.469774
26.651714 -26.710035 4.501778
26.667355 -27.184910 4.508430
26.464573 -25.768103 4.484022
26.471718 -26.249851 4.515375
26.338455 -26.735180 4.502850
26.364557 -27.204988 4.481812
26.160717 -25.791710 4.457880
26.184935 -26.265085 4.442982
26.035904 -26.756680 4.478874
26.049171 -27.230051 4.495579
25.857330 -25.815622 4.434610
25.865814 -26.295103 4.466805
25.733837 -26.778481 4.457756
25.747650 -27.250719 4.474796
25.529606 -25.852468 4.489199
25.554249 -26.322502 4.474987
25.651394 -26.708168 3.770496
25.784199 -27.144901 3.428226
25.385006 -25.795000 3.982990
25.583433 -26.189125 3.431171
25.479643 -26.672401 3.327896
25.495800 -27.158428 3.343906
25.270531 -25.717764 3.354267
25.314804 -26.193090 3.281765
25.216282 -26.674801 3.160603
25.244884 -27.157284 3.138733
26.165215 -26.794352 0.158653
24.980206 -25.732281 3.273361
25.027195 -26.206045 3.191368
25.813236 -26.285313 0.106796
25.825592 -26.819038 0.147102
24.722553 -25.728371 3.081249
25.609554 -25.227684 0.047680
25.632429 -25.761375 0.054562
25.465240 -26.315468 0.126598
25.475597 -26.848640 0.176888
25.276882 -25.252016 0.011208
25.273289 -25.799080 0.113594
25.129147 -26.340786 0.111515
25.153801 -26.867083 0.114380
24.905365 -25.300039 0.120686
24.939598 -25.824274 0.090225
24.793629 -26.366425 0.099541
24.805779 -26.897287 0.150627
22.769751 -26.436565 6.929710
24.599636 -25.309465 -0.004894
24.624062 -25.839897 0.002922
24.458723 -26.392384 0.090675
22.846138 -27.656961 6.361320
24.255962 -25.342533 0.015701
24.275972 -25.874237 0.043068
24.124451 -26.418655 0.084888
22.606152 -27.661180 6.216084
22.768042 -26.127747 4.712818
23.918142 -25.372801 0.020332
22.825487 -26.565420 4.576433
23.934101 -25.906034 0.067295
23.811844 -26.433847 -0.004589
22.411123 -27.643244 5.879644
23.868980 -26.942192 -0.126316
22.522297 -26.122267 4.519295
22.132441 -26.836460 6.271027
22.138216 -27.212339 5.754166
22.213068 -27.624750 5.534632
23.525654 -26.972534 -0.087456
22.273785 -26.117237 4.327631
21.641010 -26.997204 7.222309
21.838514 -27.246872 5.846743
21.694279 -27.768944 6.596745
21.212776 -26.703299 7.865473
21.371525 -27.022228 7.241463
21.360195 -27.390465 6.786242
21.359749 -27.824413 6.898088
21.662712 -27.662992 5.489311
21.001663 -26.689707 7.636528
22.380375 -25.644814 1.008568
21.098869 -27.050251 7.282501
21.072342 -27.424900 6.886229
21.161320 -27.807783 6.570309
20.871845 -26.609678 6.982544
22.103519 -25.638065 0.788109
20.887579 -27.035616 7.025015
20.731430 -27.495495 7.271389
20.736977 -27.918633 7.365219
20.906010 -26.386581 5.406000
20.538784 -27.120674 7.469521
20.476147 -27.512751 7.240858
20.459080 -27.949818 7.461960
20.638870 -26.401011 5.344011
20.270794 -27.149235 7.518332
20.283325 -27.485933 6.860836
20.288221 -27.915539 6.974253
20.063667 -26.692739 7.077185
20.379490 -26.408234 5.235603
21.353689 -25.530632 -0.445034
20.293549 -26.942793 5.890556
20.089241 -27.456083 6.452585
20.057735 -27.915751 6.791142
19.787357 -26.729343 7.168976
19.877724 -27.088413 6.772797
19.822687 -27.478212 6.457098
19.833935 -27.909906 6.550928
19.523586 -26.755627 7.194965
19.585125 -27.136986 6.964861
19.460472 -27.579615 7.101971
19.540760 -27.951979 6.744862
19.427454 -26.606392 6.068485
19.410315 -27.077484 6.375385
19.178242 -27.621233 7.269365
19.390032 -27.437262 5.775478
19.122169 -28.092695 7.847202
19.104834 -26.690132 6.470116
18.925621 -27.320341 7.985943
19.178673 -27.065998 6.130312
18.900629 -27.661697 7.429646
18.906500 -28.084183 7.584791
18.865364 -26.683502 6.276596
18.698832 -27.316355 7.803894
18.918047 -27.081841 6.083590
18.664026 -27.665047 7.287151
18.733395 -28.035908 6.949034
18.860720 -26.374062 4.061342
18.974203 -26.735056 3.362179
18.492191 -27.598404 6.564640
18.342119 -28.179537 8.102001
18.229860 -26.874033 7.252352
18.502285 -26.500099 4.744671
18.276634 -27.260578 7.080671
18.137169 -27.726398 7.452303
18.111156 -28.183577 7.954390
17.978493 -26.889923 7.213634
18.053001 -27.238329 6.755808
17.898964 -27.729527 7.306227
17.923613 -28.139015 7.343473
17.779554 -26.820293 6.595762
17.804001 -27.245684 6.649771
17.682095 -27.701342 6.895023
17.719442 -28.102699 6.802998
17.540905 -26.803818 6.334091
17.527161 -27.295349 6.861975
17.421225 -27.728861 6.950682
17.473289 -28.109556 6.670357
17.217766 -26.947989 7.169765
17.198549 -27.444109 7.828230
17.105448 -27.849577 7.801258
17.150927 -28.223360 7.571644
16.864450 -27.193277 8.710098
17.462847 -25.840824 -0.593086
16.918169 -27.529587 8.323149
16.861343 -27.863058 7.743111
16.906519 -28.235477 7.493465
16.630556 -27.196686 8.594368
16.792349 -26.775042 5.679142
17.141708 -25.864574 -0.615768
16.674112 -27.551386 8.335730
16.634890 -27.836609 7.339874
16.684660 -28.203430 6.980268
16.454815 -27.015520 7.195238
16.498579 -27.388386 6.924011
16.371117 -27.889828 7.623192
16.401535 -28.288881 7.621674
16.203686 -27.029062 7.142231
16.498226 -25.915937 -0.632977
16.246693 -27.398792 6.841095
16.123085 -27.908812 7.611078
16.152803 -28.310829 7.639410
16.175417 -25.947748 -0.597790
16.013851 -27.323099 6.086166
15.868299 -27.956306 7.849432
15.935093 -27.673813 5.366341
15.903682 -28.335976 7.689157
15.742694 -26.752720 4.894619
15.854196 -25.974220 -0.599377
15.758770 -27.303076 5.759436
15.647539 -27.818403 6.450785
15.662635 -28.324863 7.372961
15.470066 -26.772903 4.877331
15.497071 -27.293831 5.514193
15.574546 -26.516462 -0.616234
15.387565 -27.860174 6.633718
15.416787 -28.308571 6.999079
15.212329 -26.017017 -0.673397
15.254203 -26.534653 -0.681652
15.130938 -27.890854 6.719563
15.164415 -28.296942 6.667084
14.890762 -26.043123 -0.676514
14.970892 -27.528433 7.034721
14.933338 -26.566940 -0.635155
14.875473 -27.916161 6.757950
14.912679 -28.374699 7.252956
14.688642 -27.187147 7.375103
14.569356 -26.070934 -0.666927
14.720306 -27.575241 7.242838
14.626088 -27.976709 7.116587
14.666534 -28.423176 7.542431
14.248627 -26.101795 -0.634739
14.467617 -27.590036 7.195168
14.293388 -26.627373 -0.573479
14.376892 -28.010891 7.238876
14.408205 -28.404093 7.127441
13.924951 -26.117979 -0.708691
13.971181 -26.645790 -0.637669
14.111397 -27.986816 6.826794
14.024303 -27.711355 4.293209
13.854216 -27.173395 -0.654728
14.148902 -28.403774 6.903812
14.064727 -28.163607 4.366543
13.603231 -26.145424 -0.700619
13.649031 -26.668282 -0.669296
13.885378 -28.080555 7.499807
13.907780 -28.453575 7.209707
13.281623 -26.173195 -0.689747
13.720643 -27.676235 7.392607
13.324846 -26.687531 -0.727852
13.640179 -28.109625 7.578815
13.648788 -28.460543 7.060177
12.955498 -26.190586 -0.755219
13.425461 -27.603323 6.620243
13.001859 -26.712006 -0.743927
13.318028 -28.001347 6.369587
12.891700 -27.252563 -0.657784
12.940001 -27.772165 -0.611725
12.633489 -26.219055 -0.738716
12.684422 -26.747572 -0.668018
12.570937 -27.279980 -0.649906
12.618148 -27.796904 -0.633713
12.309398 -26.243877 -0.749069
12.360775 -26.771519 -0.688389
12.904871 -28.187241 7.729246
12.247869 -27.304598 -0.668980
12.918579 -28.558519 7.439840
12.772626 -28.385916 5.543262
12.297323 -27.823822 -0.633026
11.983313 -26.266432 -0.776337
12.034149 -26.792315 -0.735615
12.676302 -28.231409 7.955366
11.922602 -27.327524 -0.705040
12.671484 -28.582954 7.477871
11.668661 -26.306362 -0.672413
11.936722 -27.106804 1.702202
11.713879 -26.822882 -0.700840
12.424988 -28.246746 7.906082
11.597488 -27.351883 -0.728325
12.431486 -28.613811 7.587454
11.602251 -26.661976 1.830967
11.333327 -26.317911 -0.782803
11.632901 -27.129915 1.688530
11.390026 -26.849100 -0.702816
11.281098 -27.385792 -0.659695
11.330088 -27.903114 -0.653778
11.324038 -26.714493 2.046638
11.466008 -27.298569 2.921585
11.337374 -27.162598 1.756527
11.063753 -26.873371 -0.721695
10.951109 -27.406815 -0.716854
11.001894 -27.926199 -0.701225
11.016138 -26.731087 1.988880
11.084002 -27.235544 2.172310
10.734571 -26.895741 -0.757423
10.918339 -27.675735 1.668312
10.631965 -27.438307 -0.672310
11.675484 -28.673264 7.542505
10.688191 -27.960943 -0.617172
10.723553 -26.764671 2.061760
10.739170 -27.219532 1.821274
10.418404 -26.931025 -0.681824
10.612391 -27.699585 1.654037
10.306864 -27.465117 -0.674324
11.455964 -28.715916 7.788874
10.610174 -26.964247 3.424339
10.414305 -26.782017 2.009407
10.651012 -27.424314 3.393238
10.432460 -27.241659 1.798481
10.087091 -26.953014 -0.721642
10.675978 -27.987810 4.283646
9.971774 -27.485399 -0.742451
11.221352 -28.746576 7.898750
10.351179 -27.014750 3.638145
10.115429 -26.809849 2.038353
10.390585 -27.471195 3.597527
10.122199 -27.261925 1.758755
10.635586 -28.172245 5.905722
10.293806 -27.944683 3.612186
9.636650 -27.507141 -0.797699
10.355405 -28.412682 3.722351
9.703475 -28.037134 -0.694016
10.346942 -27.269976 5.461653
10.422479 -27.729063 5.669874
10.119752 -27.508057 3.715492
10.061110 -28.003727 3.967352
9.686878 -27.770412 1.598045
9.320412 -27.541937 -0.722103
10.387302 -28.609039 5.761379
9.376308 -28.064734 -0.697350
10.053942 -27.276821 5.344576
9.508605 -26.858948 2.045349
10.111031 -27.723564 5.424658
9.800852 -27.510878 3.531662
9.509958 -27.311417 1.756359
9.822826 -28.055763 4.255409
9.419714 -27.819727 1.840168
8.985466 -27.565462 -0.761620
10.094871 -28.620687 5.624540
9.042219 -28.089428 -0.737110
9.761984 -27.286654 5.249809
9.209896 -26.887705 2.082214
9.601988 -27.594170 4.065922
9.219387 -27.347075 1.852287
9.578892 -28.101912 4.486376
8.710476 -28.116196 -0.754196
9.369601 -27.229731 4.620844
8.902514 -26.910637 2.072884
9.442350 -27.695286 4.767500
8.915892 -27.374243 1.872440
9.311483 -28.133848 4.572355
9.483950 -28.637613 5.261229
8.798817 -28.331427 1.525864
8.392414 -28.149805 -0.689865
9.232109 -27.346622 5.380407
8.609573 -26.943651 2.144291
9.283428 -27.789015 5.410906
9.278339 -28.280741 5.862841
9.199594 -28.658171 5.221119
8.987946 -27.388966 5.546432
9.084686 -27.854166 5.801270
9.033602 -28.316549 6.000153
9.044109 -28.730995 5.828625
8.778299 -28.624905 4.509312
8.705378 -27.407412 5.520094
8.825228 -27.884014 5.871601
8.741281 -28.330463 5.905659
8.757072 -28.749428 5.763388
7.376716 -28.227383 -0.792564
8.411277 -27.420305 5.447853
7.733701 -27.042881 2.363888
8.608984 -27.935038 6.138483
8.395273 -28.323132 5.580591
7.567186 -27.974268 1.836926
8.474897 -28.770611 5.730072
8.257274 -27.509045 5.997925
8.172094 -27.879835 5.417631
8.103519 -28.340963 5.521284
8.371841 -28.853638 6.486696
7.802524 -28.659431 3.998371
7.877803 -27.477886 5.562954
8.131968 -28.010799 6.434702
8.176885 -28.499510 6.995203
8.136065 -28.888351 6.631706
7.547483 -27.475721 5.363651
7.187359 -27.300669 3.907707
6.004436 -26.725658 -0.874722
7.741164 -27.981861 5.952902
6.062741 -27.259800 -0.876911
7.866650 -28.506233 6.822321
8.122501 -28.991207 7.669266
7.409386 -28.770662 4.784264
7.879885 -27.784779 7.765654
7.724968 -28.112053 6.979473
7.016949 -27.820608 4.203114
5.726289 -27.289328 -0.857956
7.732136 -28.576195 7.347143
7.814380 -29.000319 7.487658
5.698779 -28.376289 -0.762581
7.694580 -27.839710 8.057226
7.421081 -28.120281 6.849833
5.407338 -27.326260 -0.768620
7.330931 -28.553484 6.842272
6.939795 -28.422821 5.379282
6.890439 -28.837727 5.005423
5.345928 -28.402802 -0.807167
7.566623 -27.917015 8.541492
4.968703 -26.802914 -0.894188
7.240491 -28.176769 7.183949
6.486652 -27.891758 4.429428
6.824748 -28.501503 5.996458
6.428830 -28.374836 4.565619
4.927529 -27.894524 -0.860054
7.004697 -28.971474 6.470499
6.555000 -28.850475 4.835527
7.381310 -27.966768 8.796555
6.056047 -27.420589 4.142279
6.989306 -28.205397 7.250917
4.685442 -27.369408 -0.888081
6.952862 -28.650759 7.427687
6.865521 -29.031046 6.952669
7.051270 -27.957405 8.547474
6.696828 -28.219625 7.176792
6.684510 -28.673691 7.430571
5.631016 -28.363777 3.865879
6.140740 -28.943878 5.415503
4.304209 -28.491667 -0.834579
6.840526 -27.996273 8.710976
6.560744 -28.287380 7.629625
3.973936 -27.420559 -0.936424
6.386557 -28.688749 7.340628
3.880149 -27.980923 -0.876503
6.069125 -29.020641 6.132240
3.937877 -28.518106 -0.894478
6.513217 -27.991444 8.496645
3.562613 -26.906637 -0.922596
6.301705 -28.312567 7.664511
3.640123 -27.454519 -0.879482
6.122331 -28.714081 7.367788
3.532359 -28.011450 -0.865921
5.937856 -29.080158 6.619423
6.193794 -27.991726 8.323744
6.152240 -28.372038 8.042982
6.245229 -28.840698 8.592127
5.860346 -29.148981 7.249111
5.450093 -29.060120 5.976557
3.233505 -28.580004 -0.899040
5.996221 -28.035627 8.531664
5.215098 -27.768515 6.182493
2.923126 -27.508495 -0.907829
5.994302 -28.866169 8.630287
6.016374 -29.263237 8.550360
5.795212 -28.077314 8.722122
4.298142 -27.583122 4.347532
5.678727 -28.434179 8.235758
4.311798 -28.040228 4.220297
5.626823 -28.863771 8.331305
5.752341 -29.286991 8.553074
5.158663 -29.168636 6.815506
5.524247 -28.095791 8.707644
2.136677 -27.015659 -0.916561
5.410622 -28.456331 8.241169
2.182161 -27.558968 -0.978802
5.462689 -28.910971 8.628876
2.112166 -28.132509 -0.856697
5.464550 -29.306660 8.492395
2.185715 -28.679182 -0.838394
5.272670 -28.120911 8.751913
4.355687 -27.838346 6.217470
5.330827 -28.529495 8.773882
1.846543 -27.594984 -0.905754
5.316672 -28.960938 8.964720
1.747455 -28.162231 -0.867004
5.178427 -29.327442 8.444035
1.811707 -28.708746 -0.877300
5.114747 -28.174175 9.050217
4.151362 -27.887135 6.458324
5.100718 -28.560726 8.876219
1.476731 -27.622389 -0.923084
4.917994 -28.954948 8.609659
4.849113 -29.341339 8.286276
4.581822 -28.117765 8.354797
4.885842 -28.595634 9.017750
3.177870 -28.168522 4.520050
4.680012 -28.984928 8.697186
4.630056 -29.375237 8.430651
4.602009 -28.221138 9.111620
4.010638 -28.056175 7.601662
4.600372 -28.613119 8.975340
4.191216 -28.964674 8.146276
4.390969 -29.405638 8.520967
0.712954 -28.806204 -0.887924
4.263767 -28.223034 8.942827
2.728261 -27.808331 5.120544
4.365208 -28.643162 9.065353
4.046176 -29.014454 8.480640
4.290165 -29.457752 8.956209
3.606573 -29.350672 7.251265
4.001407 -28.246506 8.971067
4.093070 -28.664846 9.065226
3.883328 -29.059614 8.760130
4.032941 -29.484695 8.994095
3.288992 -29.372675 7.184235
3.672974 -28.253624 8.845949
3.673508 -28.654888 8.718693
3.572919 -29.077255 8.682114
2.562043 -28.895418 6.293589
2.888031 -29.383457 6.927334
3.215158 -28.230368 8.432138
3.231358 -28.642782 8.340763
3.462709 -29.130600 9.074247
3.237309 -29.500391 8.426268
2.987049 -28.265095 8.561172
3.215865 -28.720695 8.953358
2.685341 -28.612226 7.749538
3.370638 -29.185472 9.493612
3.514889 -29.601326 9.697817
2.879504 -28.327454 8.955040
3.111827 -28.778122 9.346138
2.333098 -28.624016 7.619917
3.157091 -29.219070 9.630974
3.184154 -29.618731 9.570406
2.627182 -28.355516 9.023590
1.730890 -28.154690 7.090734
2.596006 -28.754993 8.833696
1.137981 -28.475653 5.675180
2.785268 -29.227785 9.426199
2.925861 -29.646164 9.609896
2.170355 -28.339300 8.662661
1.466284 -28.186232 7.178291
0.861534 -28.509226 5.768084
-2.343645 -27.914614 -1.019711
2.524707 -29.254837 9.469219
1.693521 -29.129499 7.720787
2.599040 -29.665785 9.507454
1.646328 -29.552555 7.494390
1.415175 -28.262939 7.707287
0.146265 -27.995205 5.091072
1.981586 -28.793840 8.754354
1.287978 -28.669222 7.317905
0.455648 -28.519682 5.594170
0.178587 -28.978554 5.224405
-2.857924 -28.536421 -1.022652
0.037721 -29.431135 4.796675
-2.759699 -29.111609 -0.984089
1.058227 -28.274494 7.601549
-0.052134 -28.047075 5.362020
-0.042558 -28.515675 5.246199
-3.127403 -27.978840 -1.003254
0.999568 -29.168766 7.542841
-0.115076 -29.012051 5.299381
-0.214807 -29.470774 4.962641
-3.146517 -29.149006 -0.964069
0.716450 -28.290340 7.535397
-0.435951 -28.061184 5.260960
0.732072 -28.728777 7.441795
-0.260452 -28.561459 5.474314
-0.453695 -29.039726 5.288147
-0.524119 -29.504330 5.014774
-3.534271 -29.186949 -0.940109
0.459505 -28.323614 7.641092
-0.767679 -28.086653 5.270376
-0.758720 -28.560919 5.154341
-1.046377 -29.034798 4.793127
-4.056625 -28.640194 -1.010765
-0.957386 -29.525734 4.830311
-3.968763 -29.220795 -1.000946
0.059023 -28.330029 7.476095
-1.118992 -28.109114 5.248007
-4.471443 -27.480429 -1.092796
0.390205 -28.823385 7.982309
-1.254375 -28.563150 4.858332
-4.348417 -28.073557 -1.018978
-1.405798 -29.062366 4.764765
-4.466465 -28.674992 -1.013187
-1.334393 -29.553999 4.765900
-4.368368 -29.259027 -0.986324
0.014308 -28.402855 7.982161
-4.950569 -27.498497 -1.214157
-1.624102 -28.586916 4.814548
-4.764566 -28.105413 -1.027378
-1.505661 -29.122450 5.223249
-1.680513 -29.586044 4.767265
-4.778570 -29.296965 -0.985134
-0.224668 -28.439144 8.120401
-0.244156 -28.871552 7.966488
-5.304848 -28.744770 -1.031242
-5.315300 -29.324326 -1.207218
-0.604006 -28.451214 8.008823
-1.253769 -28.339514 6.853735
-5.709291 -27.573574 -1.066872
-0.541209 -28.899546 8.002831
-5.655098 -28.163366 -1.126583
-0.959667 -29.323311 7.425751
-1.538048 -29.257467 6.399328
-5.704351 -28.783165 -0.994385
-5.607967 -29.374304 -0.978397
-0.852448 -28.486437 8.135069
-1.576401 -28.825045 6.751730
-2.526936 -28.692453 5.088812
-2.152912 -29.256258 5.919668
-6.114641 -28.821030 -0.970680
-2.412922 -29.711098 5.339712
-6.022259 -29.414137 -0.964043
-1.532963 -28.451540 7.523888
-6.604654 -27.628433 -1.136673
-2.237425 -28.807964 6.197235
-6.514584 -28.229856 -1.137058
-2.135681 -29.324839 6.542311
-6.442837 -29.454201 -0.953903
-1.944162 -28.463093 7.392990
-2.281883 -28.875038 6.706707
-3.031727 -28.776838 5.446156
-6.872765 -28.273815 -1.010956
-6.948713 -28.897522 -0.927368
-2.384418 -29.832937 6.580736
-6.849421 -29.496073 -0.913475
-2.426264 -28.465193 7.156389
-3.520491 -28.297503 5.360102
-3.359022 -28.809324 5.499964
-7.318306 -28.306967 -1.026459
-2.753956 -29.391556 6.663082
-3.606968 -29.307457 5.264904
-7.429913 -28.930553 -1.001320
-2.742523 -29.864340 6.561226
-7.324316 -29.533653 -0.979774
-3.755337 -28.343130 5.570984
-7.863436 -27.731335 -1.043041
-7.770960 -28.340214 -1.045509
-7.887619 -28.966991 -1.027290
-7.775631 -29.573925 -0.998127
-3.299803 -28.488354 6.870274
-8.308235 -27.763527 -1.039364
-8.177654 -28.379925 -0.983517
-8.293915 -29.009111 -0.963749
-8.122162 -29.621990 -0.842411
-8.700571 -27.804041 -0.946983
-8.584936 -28.420193 -0.917263
-8.765839 -29.046045 -0.996601
-8.673208 -29.657433 -1.002785
-9.197121 -27.830809 -1.008884
-9.102150 -28.448795 -1.013699
-9.174091 -29.089409 -0.923927
-9.036833 -29.705547 -0.863869
-9.635401 -27.866610 -0.973839
-9.534081 -28.488001 -0.971115
-9.627350 -29.129683 -0.913307
-9.488646 -29.748955 -0.854343
-10.136711 -27.895092 -1.024582
-10.034403 -28.520796 -1.022873
-10.042709 -29.173796 -0.839855
-9.987049 -29.790653 -0.905834
-10.595135 -27.930210 -1.003922
-10.491928 -28.559122 -1.003078
-10.584221 -29.208973 -0.942322
-10.442541 -29.835621 -0.885723
-11.095407 -27.961143 -1.035072
-10.950933 -28.598181 -0.978138
-11.065731 -29.249859 -0.948517
-10.945650 -29.879063 -0.925777
-11.580578 -27.995047 -1.036076
-11.457987 -28.633551 -1.012875
-11.572622 -29.289934 -0.981522
-11.404587 -29.925587 -0.894936
-11.996771 -28.037924 -0.934990
-11.867266 -28.679035 -0.904625
-12.028679 -29.334499 -0.936077
-11.888508 -29.971806 -0.891148
-12.556635 -28.065329 -1.021179
-12.425804 -28.711809 -0.992203
-12.545805 -29.375919 -0.965443
-12.392225 -30.018106 -0.905750
-13.071587 -28.099085 -1.036961
-12.915371 -28.751898 -0.977417
-13.035101 -29.420147 -0.948883
-12.886047 -30.065769 -0.898438
-13.564362 -28.136330 -1.015068
-13.431107 -28.790785 -0.988522
-13.544504 -29.464109 -0.950272
-13.424555 -30.112715 -0.940666
-14.034065 -28.176924 -0.956085
-13.899673 -28.834538 -0.930660
-14.037380 -29.510012 -0.922077
-13.891588 -30.163202 -0.882042
-14.611149 -28.207706 -1.023979
-14.469202 -28.871307 -0.992191
-14.588240 -29.553694 -0.958164
-14.434715 -30.212021 -0.911678
-15.103037 -28.248125 -0.976517
-14.940931 -28.916695 -0.922741
-15.129171 -29.599060 -0.971992
-14.980453 -30.261848 -0.934635
-15.679314 -28.281591 -1.023014
-15.541170 -28.953651 -1.001637
-15.653292 -29.646349 -0.956169
-15.503174 -30.313381 -0.920109
-16.206963 -28.320831 -1.001392
-16.041845 -28.998936 -0.950771
-16.205200 -29.693340 -0.964497
-16.021364 -30.365986 -0.891617
-16.762564 -28.358692 -1.003635
-16.622000 -29.039829 -0.984921
-16.759481 -29.741337 -0.966019
-16.599958 -30.418114 -0.925114
-17.346838 -28.395319 -1.029049
-17.205008 -29.081821 -1.011780
-17.289671 -29.791445 -0.930649
-17.135283 -30.472315 -0.898643
-17.907263 -28.435234 -1.017323
-17.764223 -29.126553 -1.001446
-17.874857 -29.840336 -0.948452
-17.712347 -30.526680 -0.910431
-18.496721 -28.474010 -1.028236
-18.325613 -29.172283 -0.984180
-18.489614 -29.889311 -0.988438
-18.325514 -30.581545 -0.952000
-19.115896 -28.511787 -1.061031
-18.950026 -29.215548 -1.026093
-19.080286 -29.940439 -0.991177
-18.887545 -30.638420 -0.926853
-19.683336 -28.554848 -1.027695
-19.536589 -29.262264 -1.016212
-19.646025 -29.993578 -0.957310
-19.478926 -30.695929 -0.923874
-20.273420 -28.597404 -1.008942
-20.104765 -29.311131 -0.977226
-20.241327 -30.046843 -0.945255
-20.072714 -30.754528 -0.913376
-20.900564 -28.638594 -1.018517
-20.758303 -29.356808 -1.017223
-20.894773 -30.099564 -0.982906
-20.696688 -30.813951 -0.924000
-21.481226 -28.684290 -0.970337
-21.302748 -29.409151 -0.934864
-21.473978 -30.155678 -0.933887
-21.295271 -30.874775 -0.898090
-22.198454 -28.722219 -1.048500
-21.990038 -29.455902 -0.986855
-22.097559 -30.211725 -0.919804
-21.924349 -30.936516 -0.892738
-22.805235 -28.768822 -1.005463
-22.623716 -29.506525 -0.973766
-22.759363 -30.268093 -0.932522
-22.527369 -30.999554 -0.851238
-23.493353 -28.811693 -1.030689
-13.396608 -29.968225 8.532495
-23.281481 -29.557430 -0.973240
-23.366301 -30.326975 -0.881207
-23.211660 -31.063484 -0.878220
-24.111921 -28.860165 -0.978294
-13.735229 -30.012953 8.682802
-23.949244 -29.609299 -0.970932
-14.092134 -30.580627 8.474930
-24.077051 -30.384937 -0.918011
-23.848242 -31.128794 -0.848003
-24.813078 -28.905195 -0.992588
-24.656370 -29.661064 -0.993824
-14.299526 -30.630648 8.754955
-24.776537 -30.444578 -0.931656
-24.604334 -31.195400 -0.918312
-25.539511 -28.950394 -1.017662
-25.292910 -29.716850 -0.939819
-25.486498 -30.505466 -0.942642
-25.246241 -31.263248 -0.870396
-26.239481 -28.998585 -1.006287
-26.028131 -29.770527 -0.964317
-14.318321 -30.736063 9.666014
-25.972094 -31.332619 -0.887497
-15.296658 -29.630989 9.241917
-26.867144 -29.051872 -0.919613
-15.376474 -30.186674 9.064501
-15.566765 -30.772255 9.023874
-26.648626 -31.403111 -0.848454
-15.747120 -29.670630 9.315147
-15.676495 -30.235035 9.269245
-15.722803 -30.823675 9.354910
-15.942608 -31.388519 9.057676
-15.771702 -29.730696 9.756168
-15.632652 -30.293247 9.768869
-15.776188 -30.875786 9.770706
-16.379059 -31.441374 9.152113
-15.729477 -29.792845 10.246836
-15.666771 -30.348404 10.195194
-16.247286 -30.924282 9.833519
-15.766085 -29.850576 10.665195
-16.120550 -30.392639 10.270958
-16.402222 -30.975403 10.162193
-28.395319 -31.685612 0.204468
-16.272762 -29.888611 10.700127
-16.303024 -30.443804 10.572565
-16.920080 -31.024870 10.197151
-16.467405 -29.939648 10.989855
-16.842840 -30.487371 10.589535
-18.726622 -31.072241 9.222723
-16.683010 -29.989775 11.262701
-17.234812 -30.534851 10.730776
-28.334570 -31.879597 2.100857
-17.396444 -30.586914 11.053236
-28.653498 -30.390890 2.432751
-28.473013 -31.186884 2.731434
-16.795717 -30.650772 11.947643
-28.670385 -30.463867 3.015850
-28.518038 -31.254625 3.288940
-25.367846 -29.888805 6.168560
-28.712576 -30.535566 3.573009
-28.212954 -32.064846 3.964071
-28.728518 -29.859934 4.276222
-28.683599 -30.607342 4.175449
-20.856375 -31.400156 10.450825
-28.243799 -32.186928 5.083883
-23.044687 -30.157339 9.373262
-23.761271 -30.792940 8.758793
-28.445417 -31.516689 5.633001
-28.204454 -32.245659 5.672173
-28.720984 -30.082283 5.978842
-23.269560 -30.857697 9.593435
-28.141672 -32.303032 6.268822
-28.713594 -30.154568 6.536104
-28.562555 -30.884638 6.510859
-28.088381 -32.359894 6.850986
-28.758230 -30.224808 7.052532
-28.623594 -30.951212 7.015907
-18.774027 -31.582827 13.644575
-28.153334 -32.419483 7.347353
-28.603617 -31.017433 7.568850
-28.087103 -32.474659 7.924318
-23.999990 -32.400829 11.053024
14.920186 -31.160835 35.841450
14.873930 -31.159555 35.821743
14.909569 -31.161762 35.840103
14.898538 -31.159420 35.839466
14.845450 -31.165171 35.811848
14.861807 -31.160837 35.823532
14.871113 -31.164286 35.827560
14.860748 -31.161182 35.825706
14.843163 -31.165911 35.816498
14.859710 -31.161526 35.827892
14.878104 -31.164509 35.836071
14.894942 -31.160604 35.846939
14.913358 -31.163010 35.855026
14.884986 -31.161228 35.844692
14.867144 -31.165615 35.836002
14.902378 -31.160851 35.854782
14.930043 -31.162590 35.866638
14.865271 -31.166275 35.840275