# This PCD file was generated using the MATLAB® pcwrite function
# from Computer Vision System Toolbox®.
# .PCD v.7 - Point Cloud Data file format
VERSION .7
FIELDS x y z
SIZE 4 4 4
TYPE F F F
COUNT 1 1 1
WIDTH 746
HEIGHT 1
VIEWPOINT 0 0 0 1 0 0 0
POINTS 746
DATA ascii
1.088566 -0.239521 -0.146205
1.143810 -0.210767 -0.095978
1.191767 -0.186363 -0.051196
1.110514 -0.227919 -0.129119
1.158732 -0.204178 -0.084234
1.091111 -0.237830 -0.149792
1.165705 -0.200374 -0.078124
1.111951 -0.226968 -0.131090
1.159507 -0.203667 -0.085277
1.119290 -0.223089 -0.125372
1.166389 -0.199922 -0.079030
1.113419 -0.226001 -0.133030
1.192496 -0.185882 -0.052170
1.094633 -0.235510 -0.154449
1.192647 -0.185783 -0.052360
1.108456 -0.228319 -0.141823
1.096448 -0.234323 -0.156721
1.167309 -0.198156 -0.080749
1.168162 -0.198764 -0.081229
1.123525 -0.220319 -0.130674
1.168035 -0.197684 -0.081611
1.124991 -0.219369 -0.132382
1.169267 -0.198049 -0.082504
1.119586 -0.221986 -0.140477
1.187716 -0.188257 -0.060965
1.150865 -0.206153 -0.104811
1.170020 -0.197564 -0.083335
1.121199 -0.220947 -0.142258
1.128003 -0.217429 -0.135705
1.170785 -0.197073 -0.084150
1.152499 -0.205104 -0.106566
1.153053 -0.204749 -0.107140
1.171564 -0.196576 -0.084949
1.153612 -0.204393 -0.107708
1.177231 -0.192630 -0.077638
1.194904 -0.184330 -0.054851
1.200401 -0.181153 -0.047117
1.138363 -0.211647 -0.132683
1.195248 -0.184112 -0.055179
1.200631 -0.181007 -0.047336
1.139866 -0.210696 -0.134091
1.152349 -0.206205 -0.118995
1.178959 -0.191535 -0.079271
1.169038 -0.197541 -0.095606
1.157643 -0.201839 -0.111519
1.153649 -0.205387 -0.120147
1.158236 -0.201466 -0.112040
1.201219 -0.180637 -0.047863
1.196312 -0.183442 -0.056121
1.154196 -0.203234 -0.121200
1.136986 -0.207130 -0.145714
1.165847 -0.198941 -0.105436
1.139329 -0.210262 -0.146314
1.171442 -0.196034 -0.097638
1.135064 -0.212172 -0.155245
1.088091 -0.230798 -0.229773
1.096906 -0.223517 -0.213051
1.166947 -0.198254 -0.106322
1.141039 -0.209194 -0.147694
1.192121 -0.185472 -0.065053
1.156884 -0.201556 -0.123367
1.099619 -0.221828 -0.215177
1.148613 -0.207357 -0.140740
1.142772 -0.208116 -0.149038
1.149425 -0.206853 -0.141352
1.138777 -0.209863 -0.158126
1.103864 -0.222797 -0.217462
1.137191 -0.205932 -0.158206
1.164451 -0.199234 -0.116509
1.139719 -0.209279 -0.158822
1.151063 -0.205839 -0.142550
1.135924 -0.210904 -0.168029
1.106644 -0.221077 -0.219476
1.119692 -0.212556 -0.193682
1.207206 -0.177816 -0.040262
1.160339 -0.199416 -0.125920
1.170903 -0.195803 -0.109245
1.142579 -0.207513 -0.160852
1.104803 -0.221335 -0.230057
1.122120 -0.211059 -0.195372
1.167000 -0.197661 -0.118300
1.143543 -0.206920 -0.161509
1.118688 -0.212137 -0.204856
1.154395 -0.203786 -0.144844
1.126565 -0.214537 -0.196947
1.107776 -0.219507 -0.232042
1.115392 -0.213132 -0.214413
1.168295 -0.196865 -0.119157
1.145487 -0.205726 -0.162794
1.136024 -0.207354 -0.180493
1.148445 -0.200036 -0.154096
1.156088 -0.202747 -0.145940
1.146466 -0.205125 -0.163421
1.141530 -0.204840 -0.172403
1.153822 -0.197764 -0.145891
1.169604 -0.196063 -0.119986
1.147451 -0.204523 -0.164038
1.120947 -0.213156 -0.217234
1.128306 -0.207265 -0.199375
1.191040 -0.185592 -0.076040
1.178016 -0.190667 -0.102599
1.143641 -0.203550 -0.173699
1.155537 -0.196716 -0.146944
1.170927 -0.195256 -0.120789
1.132799 -0.210721 -0.200857
1.144704 -0.202902 -0.174330
1.130824 -0.205728 -0.200888
1.159526 -0.200648 -0.148027
1.146341 -0.204514 -0.174772
1.145772 -0.202251 -0.174951
1.140484 -0.201857 -0.183737
1.172262 -0.194443 -0.121564
1.151437 -0.202091 -0.166406
1.146845 -0.201599 -0.175561
1.133367 -0.204181 -0.202348
1.161269 -0.199588 -0.149018
1.164320 -0.196287 -0.139916
1.135943 -0.205710 -0.203247
1.126524 -0.206338 -0.221098
1.173609 -0.193625 -0.122313
1.153459 -0.200864 -0.167529
1.149006 -0.200287 -0.176747
1.171877 -0.189787 -0.122252
1.181793 -0.189676 -0.104479
1.165944 -0.195302 -0.140798
1.134663 -0.205655 -0.213732
1.160779 -0.193531 -0.149889
1.178653 -0.191074 -0.113899
1.155498 -0.199629 -0.168610
1.151186 -0.198968 -0.177889
1.157809 -0.194338 -0.159476
1.182885 -0.189015 -0.105045
1.167583 -0.194312 -0.141646
1.141121 -0.202577 -0.205960
1.147401 -0.197666 -0.187447
1.179887 -0.190329 -0.114523
1.161172 -0.196863 -0.160452
1.153385 -0.197641 -0.178987
1.159732 -0.193177 -0.160436
1.183986 -0.188351 -0.105588
1.169235 -0.193315 -0.142461
1.140159 -0.202339 -0.216477
1.149746 -0.196253 -0.188590
1.181131 -0.189580 -0.115121
1.159628 -0.197138 -0.170647
1.152087 -0.197607 -0.189312
1.143762 -0.197899 -0.207667
1.185096 -0.187683 -0.106109
1.174310 -0.190915 -0.133946
1.156715 -0.195638 -0.180549
1.166158 -0.190289 -0.152509
1.182384 -0.188827 -0.115694
1.165058 -0.194526 -0.162275
1.154459 -0.196183 -0.190382
1.146413 -0.196308 -0.208863
1.186215 -0.187013 -0.106607
1.159498 -0.196569 -0.181423
1.145741 -0.198988 -0.218996
1.154490 -0.193406 -0.190730
1.183647 -0.188070 -0.116242
1.167022 -0.193349 -0.163127
1.156849 -0.194752 -0.191405
1.165592 -0.189660 -0.163080
1.175103 -0.191747 -0.144778
1.161752 -0.195221 -0.182373
1.164376 -0.191857 -0.173050
1.156888 -0.191972 -0.191728
1.184918 -0.187311 -0.116764
1.181234 -0.187412 -0.126153
1.171623 -0.189129 -0.154569
1.167573 -0.188477 -0.163882
1.188475 -0.185662 -0.107534
1.178956 -0.188135 -0.135907
1.163485 -0.191590 -0.183367
1.171658 -0.187001 -0.154798
1.197584 -0.181648 -0.079228
1.182656 -0.186564 -0.126704
1.164627 -0.190911 -0.183796
1.142408 -0.194854 -0.250113
1.200716 -0.180253 -0.069827
1.180526 -0.187200 -0.136497
1.165772 -0.190230 -0.184214
1.173516 -0.185896 -0.155486
1.198300 -0.181222 -0.079489
1.172996 -0.189789 -0.165441
1.166921 -0.189548 -0.184620
1.157202 -0.189874 -0.213105
1.201290 -0.179912 -0.070030
1.190208 -0.183334 -0.108319
1.168073 -0.188865 -0.185015
1.175385 -0.184787 -0.156136
1.188782 -0.185014 -0.118173
1.175012 -0.188594 -0.166132
1.158581 -0.191346 -0.223824
1.162672 -0.187581 -0.204431
1.191920 -0.183617 -0.108752
1.183694 -0.185322 -0.137582
1.170387 -0.187496 -0.185768
1.177264 -0.183675 -0.156749
1.190085 -0.184243 -0.118590
1.177040 -0.187395 -0.166781
1.161482 -0.189631 -0.224737
1.165282 -0.186038 -0.205252
1.202449 -0.179227 -0.070401
1.182880 -0.185184 -0.147747
1.182489 -0.183473 -0.147779
1.176642 -0.183100 -0.166987
1.191395 -0.183470 -0.118981
1.179078 -0.186192 -0.167389
1.164397 -0.187912 -0.225592
1.170344 -0.183993 -0.196336
1.194249 -0.182243 -0.109447
1.184632 -0.184152 -0.148251
1.184243 -0.182440 -0.148274
1.178687 -0.181896 -0.167564
1.192712 -0.182695 -0.119346
1.181126 -0.184987 -0.167956
1.176225 -0.184056 -0.187447
1.179713 -0.181293 -0.167837
1.203619 -0.178538 -0.070724
1.188510 -0.182484 -0.138967
1.186004 -0.181405 -0.148733
1.180742 -0.180689 -0.168100
1.201937 -0.179076 -0.080575
1.183184 -0.183779 -0.168482
1.178579 -0.182675 -0.188036
1.175335 -0.181062 -0.197637
1.196600 -0.180863 -0.110048
1.190130 -0.181534 -0.139363
1.177756 -0.182387 -0.198101
1.182806 -0.179479 -0.168594
1.195363 -0.181141 -0.119994
1.185251 -0.182568 -0.168965
1.180943 -0.181291 -0.188577
1.177847 -0.179591 -0.198212
1.197783 -0.180171 -0.110312
1.191758 -0.180582 -0.139727
1.180274 -0.180915 -0.198651
1.184879 -0.178267 -0.169046
1.189977 -0.182513 -0.159651
1.187326 -0.181356 -0.169407
1.183317 -0.179905 -0.189070
1.187768 -0.177508 -0.159431
1.198971 -0.179478 -0.110553
1.191716 -0.180003 -0.149909
1.175973 -0.180364 -0.238552
1.179857 -0.177492 -0.208819
1.204160 -0.177778 -0.081049
1.187807 -0.180472 -0.179673
1.179170 -0.179266 -0.228972
1.182899 -0.176645 -0.199208
1.200163 -0.178784 -0.110769
1.193504 -0.178962 -0.150234
1.193124 -0.177248 -0.150212
1.189046 -0.175840 -0.169825
1.199378 -0.178801 -0.120766
1.190046 -0.179171 -0.180057
1.188089 -0.177129 -0.189912
1.185437 -0.175170 -0.199630
1.205280 -0.177127 -0.081235
1.200804 -0.177121 -0.110912
1.189286 -0.176434 -0.190093
1.191140 -0.174625 -0.170152
1.199493 -0.178297 -0.130889
1.192292 -0.177868 -0.180395
1.190486 -0.175739 -0.190261
1.192189 -0.174017 -0.170299
1.202003 -0.176426 -0.111080
1.191687 -0.175044 -0.190418
1.193240 -0.173409 -0.170436
1.200993 -0.177429 -0.131084
1.194543 -0.176565 -0.180688
1.192889 -0.174350 -0.190562
1.194292 -0.172801 -0.170562
1.207788 -0.176111 -0.071482
1.203205 -0.175731 -0.111225
1.194093 -0.173655 -0.190694
1.190639 -0.171242 -0.210388
1.202498 -0.176560 -0.131249
1.196800 -0.175262 -0.180936
1.195298 -0.172960 -0.190814
1.193096 -0.170741 -0.200588
1.204108 -0.176066 -0.121357
1.200708 -0.174793 -0.151172
1.200332 -0.173079 -0.151114
1.197454 -0.170977 -0.170877
1.204005 -0.175692 -0.131384
1.199062 -0.173960 -0.181138
1.194185 -0.170582 -0.230850
1.194709 -0.168897 -0.210752
1.205466 -0.175284 -0.121465
1.202519 -0.173751 -0.151316
1.198920 -0.170876 -0.191101
1.200443 -0.170174 -0.161081
1.206146 -0.174894 -0.121509
1.201328 -0.172658 -0.181295
1.197208 -0.168847 -0.231044
1.197429 -0.167336 -0.210927
1.204608 -0.174051 -0.161481
1.204333 -0.172710 -0.151423
1.201340 -0.169488 -0.191232
1.202408 -0.169046 -0.161187
1.207507 -0.174114 -0.121575
1.206337 -0.172746 -0.131501
1.200234 -0.167113 -0.231177
1.200152 -0.165776 -0.211047
1.206576 -0.172924 -0.161558
1.206622 -0.171991 -0.141510
1.205776 -0.169957 -0.151408
1.203804 -0.167336 -0.171220
1.207233 -0.172118 -0.171573
1.206265 -0.170422 -0.171487
1.203264 -0.165381 -0.231249
1.203375 -0.164846 -0.201144
1.208545 -0.171799 -0.161595
1.206685 -0.169001 -0.191474
1.205835 -0.166167 -0.201327
1.205925 -0.166125 -0.171250
1.209355 -0.170908 -0.171592
1.208388 -0.169211 -0.171505
1.208504 -0.168401 -0.151432
1.208712 -0.169092 -0.121406
1.210516 -0.170676 -0.161593
1.209787 -0.169595 -0.151526
1.208413 -0.164699 -0.201311
1.208048 -0.164916 -0.171236
1.211502 -0.170116 -0.161577
1.210511 -0.168003 -0.171481
1.209827 -0.164646 -0.191307
1.209110 -0.164312 -0.171214
1.212539 -0.169096 -0.171540
1.211608 -0.168560 -0.151487
1.211041 -0.163957 -0.191269
1.210759 -0.167928 -0.121362
1.213474 -0.168996 -0.161515
1.212694 -0.166173 -0.181395
1.212255 -0.163268 -0.191219
1.211192 -0.162220 -0.181097
1.214663 -0.167892 -0.171453
1.213831 -0.165529 -0.181343
1.213468 -0.162581 -0.191157
1.212261 -0.163435 -0.161126
1.214608 -0.169643 -0.131478
1.214969 -0.164884 -0.181279
1.214682 -0.161894 -0.191082
1.213797 -0.158014 -0.210825
1.213946 -0.171738 -0.091532
1.213818 -0.170258 -0.101463
1.215895 -0.161209 -0.190996
1.215162 -0.157243 -0.210728
1.217417 -0.166765 -0.161273
1.217244 -0.163599 -0.181116
1.217108 -0.160524 -0.190897
1.216526 -0.156473 -0.210617
1.218908 -0.165493 -0.171150
1.217068 -0.165471 -0.151153
1.218320 -0.159841 -0.190786
1.217889 -0.155704 -0.210492
1.217639 -0.167932 -0.131231
1.219517 -0.162317 -0.180909
1.219532 -0.159158 -0.190663
1.217600 -0.159511 -0.170651
1.220370 -0.165101 -0.160989
1.221242 -0.160755 -0.190728
1.218512 -0.162738 -0.150819
1.218171 -0.160101 -0.160615
1.216218 -0.170457 -0.091313
1.215805 -0.169730 -0.091276
1.224488 -0.153366 -0.230054
1.221977 -0.153405 -0.210036
1.222337 -0.163996 -0.160749
1.219961 -0.164435 -0.140826
1.223873 -0.155968 -0.200130
1.220777 -0.157727 -0.170265
1.220665 -0.166232 -0.130863
1.224056 -0.159767 -0.180357
1.224372 -0.156441 -0.190051
1.221834 -0.157134 -0.170115
1.220460 -0.166781 -0.120846
1.222515 -0.162411 -0.150490
1.222999 -0.159469 -0.160209
1.219727 -0.161965 -0.130450
1.222174 -0.165387 -0.130634
1.226321 -0.158500 -0.180013
1.226787 -0.155090 -0.189672
1.227413 -0.150361 -0.209239
1.226262 -0.161799 -0.160154
1.227452 -0.157868 -0.179824
1.227992 -0.154417 -0.189464
1.224060 -0.156803 -0.159751
1.217749 -0.170034 -0.081032
1.224111 -0.162114 -0.140175
1.229197 -0.153745 -0.189245
1.231140 -0.147366 -0.218596
1.228218 -0.160708 -0.159797
1.224938 -0.161653 -0.140020
1.230400 -0.153075 -0.189013
1.226015 -0.155714 -0.159385
1.229195 -0.160165 -0.159604
1.229569 -0.157284 -0.169357
1.226655 -0.158186 -0.149500
1.229326 -0.152040 -0.178802
1.223111 -0.165738 -0.110282
1.226590 -0.160734 -0.139685
1.232801 -0.151740 -0.188515
1.227966 -0.154629 -0.158979
1.219250 -0.169199 -0.080728
1.231668 -0.156118 -0.168910
1.233999 -0.151075 -0.188247
1.235525 -0.145845 -0.207636
1.224309 -0.165073 -0.110014
1.228238 -0.159819 -0.139317
1.235196 -0.150412 -0.187968
1.229911 -0.153550 -0.158535
1.226543 -0.163394 -0.119644
1.235330 -0.153488 -0.178187
1.236390 -0.149751 -0.187677
1.239681 -0.142624 -0.216733
1.218660 -0.169967 -0.070706
1.224954 -0.163441 -0.109673
1.231141 -0.155699 -0.148453
1.231851 -0.152477 -0.158052
1.227884 -0.162653 -0.119303
1.235850 -0.153803 -0.167890
1.238774 -0.148434 -0.187059
1.242511 -0.141060 -0.216000
1.226694 -0.163755 -0.109408
1.240473 -0.150044 -0.187027
1.239963 -0.147779 -0.186732
1.233783 -0.151411 -0.157531
1.231155 -0.160404 -0.128630
1.239795 -0.151023 -0.177006
1.241149 -0.147125 -0.186393
1.238275 -0.147089 -0.176574
1.221856 -0.167759 -0.080052
1.225392 -0.163804 -0.099353
1.242333 -0.146474 -0.186043
1.228358 -0.158096 -0.118423
1.232635 -0.159589 -0.128192
1.242016 -0.149801 -0.176349
1.251440 -0.138400 -0.224178
1.246228 -0.139939 -0.204749
1.239840 -0.154283 -0.156844
1.245209 -0.147438 -0.185625
1.244695 -0.145178 -0.185307
1.247555 -0.139211 -0.204329
1.234109 -0.158781 -0.127725
1.244227 -0.148588 -0.175648
1.245871 -0.144533 -0.184921
1.238583 -0.148774 -0.156060
1.223330 -0.166951 -0.079585
1.236392 -0.155328 -0.136990
1.240440 -0.149821 -0.155867
1.233140 -0.154545 -0.127111
1.235577 -0.157978 -0.127228
1.246428 -0.147383 -0.174903
1.248217 -0.143250 -0.184115
1.249311 -0.139181 -0.193472
1.243655 -0.152195 -0.155553
1.247525 -0.146784 -0.174515
1.251734 -0.140555 -0.193195
1.243717 -0.145036 -0.164554
1.237037 -0.157181 -0.126703
1.248620 -0.146188 -0.174115
1.260235 -0.133590 -0.221155
1.251791 -0.137828 -0.192566
1.222196 -0.168028 -0.069585
1.239606 -0.153574 -0.135834
1.254208 -0.139208 -0.192264
1.245754 -0.143927 -0.163788
1.235823 -0.158303 -0.116702
1.250800 -0.145001 -0.173283
1.252874 -0.140714 -0.182363
1.254258 -0.136486 -0.191611
1.228255 -0.163807 -0.088192
1.238529 -0.154782 -0.125797
1.256669 -0.137871 -0.191285
1.258056 -0.133484 -0.200493
1.239936 -0.155605 -0.125565
1.252968 -0.143824 -0.172408
1.255184 -0.139461 -0.181419
1.256712 -0.135155 -0.190607
1.252191 -0.147092 -0.162692
1.242786 -0.151848 -0.134551
1.247987 -0.145717 -0.152947
1.260646 -0.132081 -0.199405
1.241373 -0.154827 -0.124953
1.255125 -0.142657 -0.171490
1.257480 -0.138218 -0.180428
1.259152 -0.133836 -0.189555
1.226952 -0.164982 -0.078163
1.235486 -0.157685 -0.105997
1.261549 -0.135231 -0.189180
1.263222 -0.130690 -0.198265
1.239703 -0.156203 -0.115051
1.269388 -0.132427 -0.207554
1.259763 -0.136987 -0.179393
1.249868 -0.142644 -0.151569
1.240343 -0.155858 -0.114753
1.245929 -0.150151 -0.133142
1.276237 -0.124142 -0.224848
1.265781 -0.129311 -0.197075
1.244221 -0.153292 -0.123645
1.259397 -0.140354 -0.169527
1.262030 -0.135767 -0.178312
1.248641 -0.144259 -0.141537
1.254860 -0.146130 -0.150783
1.263699 -0.137402 -0.178165
1.266367 -0.132639 -0.186884
1.255765 -0.138519 -0.159358
1.242249 -0.154834 -0.113823
1.274764 -0.129537 -0.204961
1.264282 -0.134560 -0.177186
1.253539 -0.140672 -0.149777
1.242880 -0.154496 -0.113500
1.252414 -0.146029 -0.140694
1.268752 -0.131362 -0.185664
1.257729 -0.137467 -0.158354
1.247030 -0.151786 -0.122224
1.263612 -0.138094 -0.167396
1.266518 -0.133364 -0.176017
1.268753 -0.128679 -0.184869
1.258499 -0.144182 -0.148901
1.268179 -0.135004 -0.175848
1.253677 -0.143459 -0.139484
1.259678 -0.136427 -0.157311
1.248420 -0.151045 -0.121473
1.265697 -0.136982 -0.166269
1.282968 -0.121345 -0.210581
1.274598 -0.124593 -0.192514
1.260298 -0.143224 -0.147906
1.266733 -0.136431 -0.165690
1.287973 -0.117866 -0.218708
1.275838 -0.123933 -0.191813
1.234605 -0.160396 -0.085092
1.252845 -0.146453 -0.129524
1.285720 -0.119882 -0.209010
1.277074 -0.123276 -0.191100
1.242750 -0.155063 -0.102573
1.268793 -0.135337 -0.164501
1.272033 -0.130430 -0.172901
1.278305 -0.122624 -0.190375
1.251165 -0.149587 -0.119888
1.269816 -0.134794 -0.163891
1.273123 -0.129853 -0.172245
1.264482 -0.133874 -0.154538
1.259850 -0.143968 -0.137032
1.274770 -0.131504 -0.172043
1.293705 -0.114829 -0.215294
1.280750 -0.121330 -0.188888
1.248451 -0.151535 -0.110319
1.271850 -0.133719 -0.162642
1.275287 -0.128710 -0.170902
1.281965 -0.120689 -0.188126
1.265608 -0.140413 -0.144711
1.272860 -0.133186 -0.162002
1.260226 -0.139988 -0.135583
1.263352 -0.135460 -0.144113
1.253865 -0.148162 -0.118196
1.273865 -0.132657 -0.161352
1.310240 -0.103609 -0.238429
1.284378 -0.119418 -0.186567
1.267346 -0.139498 -0.143576
1.279070 -0.129238 -0.169293
1.299335 -0.111864 -0.211656
1.285576 -0.118789 -0.185770
1.250858 -0.150269 -0.108748
1.292941 -0.119897 -0.194246
1.296492 -0.114201 -0.202188
1.286768 -0.118164 -0.184961
1.247048 -0.152798 -0.099824
1.281189 -0.128126 -0.167855
1.280612 -0.125913 -0.167358
1.271034 -0.130427 -0.150263
1.252044 -0.149648 -0.107928
1.295446 -0.118586 -0.192513
1.299123 -0.112825 -0.200351
1.289134 -0.116926 -0.183309
1.229957 -0.163886 -0.065387
1.260953 -0.142184 -0.124286
1.282705 -0.124820 -0.165868
1.290309 -0.116314 -0.182465
1.253218 -0.149035 -0.107084
1.297926 -0.117293 -0.190732
1.319708 -0.098658 -0.231817
1.291477 -0.115705 -0.181610
1.267796 -0.139802 -0.131641
1.285366 -0.125948 -0.164854
1.307577 -0.107561 -0.205790
1.292639 -0.115101 -0.180743
1.254380 -0.148431 -0.106217
1.295718 -0.119149 -0.180627
1.304302 -0.110131 -0.196524
1.293795 -0.114502 -0.179865
1.250163 -0.151176 -0.097544
1.282695 -0.128047 -0.155068
1.286826 -0.122680 -0.162766
1.294944 -0.113906 -0.178976
1.236101 -0.160141 -0.072600
1.278862 -0.130750 -0.146146
1.325856 -0.095470 -0.227103
1.314814 -0.099492 -0.210605
1.251179 -0.150651 -0.096743
1.284600 -0.127062 -0.153567
1.312927 -0.104793 -0.201613
1.297223 -0.112729 -0.177163
1.256666 -0.147250 -0.104416
1.300291 -0.116785 -0.177024
1.289857 -0.121116 -0.160334
1.298353 -0.112147 -0.176240
1.232000 -0.162828 -0.063806
1.271550 -0.135978 -0.127960
1.290856 -0.120603 -0.159504
1.299476 -0.111570 -0.175307
1.257789 -0.146673 -0.103482
1.282377 -0.128940 -0.143275
1.331864 -0.092379 -0.222151
1.300592 -0.110997 -0.174362
1.273855 -0.136676 -0.126780
1.308752 -0.111701 -0.182123
1.292834 -0.119589 -0.157815
1.301701 -0.110429 -0.173406
1.237973 -0.159179 -0.071043
1.268613 -0.138228 -0.118195
1.334813 -0.090871 -0.219588
1.302803 -0.109866 -0.172440
1.254155 -0.149124 -0.094224
1.316303 -0.107090 -0.187893
1.320716 -0.100800 -0.194960
1.303899 -0.109308 -0.171462
1.259993 -0.145546 -0.101549
1.306946 -0.113377 -0.171290
1.337724 -0.089387 -0.216967
1.320515 -0.097626 -0.193605
1.255122 -0.148632 -0.093346
1.318722 -0.105860 -0.185697
1.323247 -0.099514 -0.192642
1.306067 -0.108205 -0.169476
1.261074 -0.144997 -0.100551
1.309108 -0.112279 -0.169292
1.319134 -0.102529 -0.183857
1.307141 -0.107661 -0.168467
1.278206 -0.134461 -0.122828
1.321107 -0.104651 -0.183454
1.325743 -0.098250 -0.190275
1.329627 -0.091922 -0.197616
1.262140 -0.144458 -0.099531
1.294670 -0.121921 -0.144659
1.343431 -0.086499 -0.211557
1.325507 -0.095099 -0.188872
1.279618 -0.133749 -0.121455
1.334625 -0.096257 -0.196113
1.328205 -0.097009 -0.187860
1.332205 -0.090622 -0.195086
1.286024 -0.129887 -0.128181
1.347185 -0.088349 -0.209667
1.346223 -0.085094 -0.208770
1.311360 -0.105535 -0.164327
1.281009 -0.133050 -0.120055
1.320081 -0.105960 -0.171474
1.347605 -0.084402 -0.207355
1.334746 -0.089347 -0.192506
1.264227 -0.143410 -0.097431
1.321170 -0.105415 -0.170349
1.371835 -0.068416 -0.234968
1.336002 -0.088719 -0.191198
1.258858 -0.146751 -0.089648
1.299002 -0.119748 -0.140261
1.350336 -0.083038 -0.204487
1.314443 -0.103993 -0.161116
1.241500 -0.157400 -0.067612
1.299849 -0.119326 -0.139357
1.351685 -0.082367 -0.203033
1.321213 -0.099488 -0.167156
1.283729 -0.131694 -0.117174
1.342163 -0.092489 -0.188263
1.376559 -0.066066 -0.229879
1.362967 -0.070755 -0.215475
1.266250 -0.142403 -0.095251
1.355346 -0.084279 -0.201023
1.330596 -0.096791 -0.172020
1.317455 -0.102498 -0.157816
1.285056 -0.131036 -0.115694
1.350633 -0.087454 -0.192543
1.355669 -0.080394 -0.198593
1.342137 -0.085675 -0.184476
1.291870 -0.126979 -0.121883
1.351890 -0.086834 -0.191106
1.381168 -0.063789 -0.224654
1.349313 -0.080974 -0.189978
1.286362 -0.130393 -0.114189
1.371569 -0.074573 -0.210262
1.358270 -0.079115 -0.195570
1.314361 -0.105189 -0.147611
1.236880 -0.160374 -0.058936
1.304787 -0.116887 -0.133759
1.384177 -0.062314 -0.221098
1.351783 -0.079762 -0.187057
1.281327 -0.133578 -0.105912
1.374351 -0.073211 -0.206946
1.360827 -0.077865 -0.192496
1.340725 -0.087546 -0.172197
1.313767 -0.114100 -0.138616
1.356811 -0.084424 -0.185239
1.387133 -0.060872 -0.217483
1.354211 -0.078578 -0.184089
1.301755 -0.121422 -0.124340
1.326232 -0.103770 -0.150688
1.388591 -0.060164 -0.215654
1.367894 -0.069516 -0.195709
1.370940 -0.071899 -0.194299
1.381773 -0.060362 -0.207054
1.359385 -0.079622 -0.179765
1.370461 -0.068275 -0.192406
1.418749 -0.041316 -0.235570
1.358933 -0.076295 -0.178013
1.394286 -0.057419 -0.208201
1.405210 -0.045375 -0.220528
1.421940 -0.039788 -0.231249
1.380714 -0.062111 -0.193589
1.390434 -0.060365 -0.198226
1.375445 -0.065888 -0.185656
1.371754 -0.072606 -0.178073
1.389848 -0.056494 -0.196119
1.399757 -0.054816 -0.200533
1.377862 -0.064742 -0.182210
1.392430 -0.055274 -0.192372
1.395600 -0.057924 -0.190731
1.373491 -0.068104 -0.172837
1.403710 -0.052959 -0.194646
1.394957 -0.054089 -0.188576
1.377401 -0.069953 -0.169663
1.362054 -0.076105 -0.157962
1.406272 -0.051766 -0.190659
1.390552 -0.057480 -0.179064
1.386561 -0.064506 -0.171831
1.398640 -0.052378 -0.182793
1.380637 -0.068456 -0.164491
1.358056 -0.079314 -0.147697
1.381690 -0.067973 -0.162746
1.401024 -0.051283 -0.178880
1.389852 -0.062997 -0.166379
1.402194 -0.050749 -0.176906
1.376593 -0.071551 -0.153913
1.360786 -0.078068 -0.143092
1.368809 -0.073007 -0.146771