# This PCD file was generated using the MATLAB® pcwrite function
# from Computer Vision System Toolbox®.
# .PCD v.7 - Point Cloud Data file format
VERSION .7
FIELDS x y z
SIZE 4 4 4
TYPE F F F
COUNT 1 1 1
WIDTH 801
HEIGHT 1
VIEWPOINT 0 0 0 1 0 0 0
POINTS 801
DATA ascii
53.453461 -59.094391 8.374561
53.353458 -58.436817 7.875210
53.438519 -58.361710 7.151131
52.516785 -59.170334 8.310589
52.134140 -59.192963 8.181877
52.238403 -58.500420 7.412819
51.842815 -59.198406 7.939663
51.548882 -58.590977 7.681492
51.392616 -59.234520 7.905163
51.246746 -58.598328 7.451782
50.572456 -58.687984 7.727856
50.590927 -59.288982 7.723919
50.961685 -58.541389 6.550156
50.365292 -59.281853 7.398361
51.075092 -59.140301 6.416248
49.739361 -59.355049 7.633083
54.436203 -57.621414 0.210804
49.675770 -59.315060 7.077248
53.867226 -57.678753 0.250458
49.357738 -59.326382 6.880722
50.170364 -59.159027 5.691559
53.345406 -57.726032 0.230946
53.353302 -58.439507 0.251839
52.760124 -57.789066 0.316788
52.790016 -58.492378 0.305412
52.264561 -57.831757 0.276314
49.504173 -59.126060 4.589027
49.035145 -58.537003 4.566238
49.058758 -59.162155 4.562214
48.601509 -58.573853 4.526978
48.604294 -59.200790 4.557194
48.127831 -58.621189 4.560215
48.151604 -59.239666 4.557251
47.697205 -58.658535 4.530701
47.700752 -59.278774 4.562344
47.267860 -58.696129 4.505848
47.271847 -59.313572 4.538139
46.800423 -58.744122 4.554485
46.824516 -59.353138 4.553043
46.374401 -58.782173 4.539215
46.398636 -59.388401 4.538242
45.968910 -58.815395 4.493744
45.974182 -59.423893 4.528011
45.545486 -58.853912 4.487427
45.551212 -59.459610 4.522324
45.105091 -58.897678 4.520748
45.129768 -59.495548 4.521156
44.703255 -58.931595 4.488354
44.696220 -59.535042 4.550976
44.302406 -58.965748 4.460106
44.309570 -59.563599 4.496799
43.867474 -59.010109 4.507164
43.892670 -59.600166 4.508881
43.702042 -60.207401 4.534897
43.434872 -59.054642 4.558956
43.512077 -59.628086 4.453785
43.310516 -60.824722 4.562317
43.165554 -59.052181 4.274433
43.114994 -59.660660 4.438412
42.901131 -60.269936 4.523506
42.911224 -60.853703 4.559166
42.659958 -59.119438 4.496349
42.685738 -59.702236 4.499298
42.510948 -60.299595 4.505890
42.521584 -60.881245 4.542019
42.249359 -59.159573 4.525181
42.258949 -59.743961 4.564804
42.101540 -60.334236 4.537670
42.128948 -60.909813 4.537903
41.856628 -59.194962 4.521988
41.886803 -59.771641 4.516651
41.709965 -60.365246 4.537235
41.741573 -60.937767 4.528645
41.480854 -59.225643 4.486305
41.507282 -59.801735 4.490406
41.304092 -60.400234 4.577419
41.335793 -60.969963 4.569134
41.094250 -59.260220 4.481785
41.120914 -59.834209 4.486248
40.915493 -60.431614 4.585049
40.962654 -60.995888 4.540230
40.701340 -59.297424 4.499527
40.747059 -59.863644 4.458374
40.543247 -60.459423 4.559708
40.560249 -61.028427 4.588863
40.313667 -59.333595 4.512039
40.326015 -59.907272 4.554188
37.291832 -61.222786 11.825117
40.174606 -61.057930 4.604595
39.931030 -59.368732 4.519203
36.740479 -60.891357 12.789089
36.516212 -61.369541 13.049437
36.736153 -61.760918 12.538628
39.556740 -59.401638 4.511620
36.488247 -60.903706 12.679951
36.277027 -61.379215 12.914579
36.247292 -61.826454 13.055326
39.173183 -59.438347 4.535660
36.179890 -60.933304 12.722223
35.913406 -61.422333 13.118408
35.963646 -61.847046 13.044674
38.804585 -59.470428 4.526146
35.940418 -60.941849 12.580486
38.846161 -60.027725 4.495274
35.714226 -61.421387 12.875973
35.643883 -61.876354 13.140079
36.171429 -60.328819 11.017128
36.073372 -60.830570 11.370522
35.651447 -61.381580 12.230064
35.528877 -61.857750 12.654743
35.925449 -60.334377 10.846657
35.520592 -60.938801 12.114525
35.318321 -61.416992 12.357180
35.368034 -61.848988 12.282612
35.727016 -60.321331 10.527195
37.741791 -59.553638 4.405804
35.084545 -61.011982 12.554213
34.997490 -61.449718 12.459436
35.034237 -61.882011 12.422829
34.919479 -60.544392 12.100685
34.863297 -61.014179 12.355164
34.760334 -61.458225 12.308649
37.208332 -60.725967 4.569557
34.718750 -61.911243 12.519087
36.979248 -59.632519 4.522377
37.008816 -60.185749 4.530403
34.302258 -61.534054 12.873909
34.086178 -62.022785 13.657461
37.804642 -59.179604 0.577003
37.873886 -59.776428 0.465862
34.027893 -61.555233 12.862499
33.793228 -62.049320 13.734314
37.441807 -59.201057 0.467182
33.896561 -61.128426 12.751419
37.488205 -59.806118 0.432266
33.773315 -61.570377 12.786652
33.596313 -62.050587 13.488356
37.345257 -61.040554 0.496094
37.045780 -59.236732 0.475266
33.662346 -61.135578 12.599817
33.467365 -61.602440 12.895363
33.575394 -62.002682 12.600113
36.950798 -61.071243 0.506844
33.415577 -60.705284 12.392422
36.661293 -59.267986 0.448753
33.426159 -61.143032 12.450069
33.275196 -61.596962 12.593527
33.409752 -61.992599 12.191505
36.269714 -59.302917 0.454609
36.303371 -59.908710 0.468269
33.198494 -61.550266 11.829960
36.156010 -60.523746 0.432076
33.225060 -61.986744 11.831808
35.893772 -59.331181 0.406349
35.932785 -59.934242 0.400913
32.959167 -61.558060 11.664690
34.052029 -61.167892 7.296185
32.840424 -62.039364 12.246943
35.510811 -59.363117 0.390434
35.547714 -59.966045 0.394855
32.743244 -61.556747 11.394753
32.564461 -62.060764 12.249624
35.119350 -59.399799 0.416721
35.156548 -60.001038 0.421394
32.482735 -61.571228 11.300983
33.505894 -61.183350 6.884514
32.284622 -62.083729 12.274288
34.746639 -59.427639 0.369122
34.786423 -60.027306 0.364250
32.242813 -61.577496 11.112165
32.105827 -62.074238 11.853764
33.230228 -61.708157 6.820808
34.365494 -59.460220 0.363708
34.403427 -60.059742 0.368740
32.027191 -61.573185 10.798502
34.247440 -60.674488 0.390560
34.281807 -61.271488 0.412174
33.954823 -59.509754 0.507744
34.015198 -60.095306 0.405975
33.870155 -60.704262 0.381001
33.903023 -61.300945 0.412571
33.553192 -59.555992 0.626530
33.630291 -60.130058 0.437050
33.483879 -60.738400 0.423763
33.517281 -61.333374 0.455570
33.183823 -59.584621 0.592915
33.259609 -60.158218 0.403225
33.106323 -60.769394 0.430908
33.140308 -61.363213 0.462921
32.800484 -59.622284 0.640842
32.889011 -60.186623 0.372707
32.729553 -60.800587 0.441475
32.771111 -61.390526 0.434391
32.416954 -59.661186 0.702118
32.511791 -60.219086 0.384727
32.360199 -60.828720 0.416138
32.395393 -61.420776 0.448498
32.038284 -59.698044 0.747303
32.148178 -60.244148 0.321548
31.984741 -60.860317 0.433460
32.026821 -61.448544 0.426590
31.669987 -59.728569 0.736992
31.711494 -60.314743 0.733871
31.587955 -60.904110 0.602032
31.652473 -61.479195 0.447418
31.092823 -59.918427 2.186428
31.364273 -59.712006 0.296955
31.358128 -60.335400 0.628422
31.197443 -60.946316 0.754623
31.262171 -61.517895 0.590172
30.727428 -59.957031 2.263371
30.983673 -59.750717 0.361622
31.026213 -60.340580 0.358273
30.880720 -60.945957 0.377216
30.870914 -61.558575 0.766251
30.598499 -59.794868 0.479076
30.652479 -60.374031 0.387093
30.501705 -60.982269 0.457333
30.525116 -61.577366 0.609314
30.270390 -60.415005 0.498383
30.130222 -61.014809 0.491367
30.170155 -61.600388 0.514751
29.672253 -60.044048 2.237366
29.903652 -60.445107 0.494377
29.760809 -61.046749 0.518814
29.803371 -61.630051 0.522480
29.311924 -60.083221 2.327278
29.534281 -60.478142 0.523338
29.399010 -61.073524 0.480076
29.446854 -61.653671 0.434128
29.175781 -60.501469 0.446499
29.036030 -61.101322 0.454437
29.074982 -61.687511 0.507904
28.813015 -60.528679 0.412453
28.670580 -61.131618 0.461788
28.706337 -61.720245 0.565113
28.449253 -60.557037 0.391506
28.311893 -61.155430 0.382832
28.358978 -61.736187 0.346832
28.082836 -60.589161 0.413509
27.939198 -61.195045 0.516014
27.994316 -61.765800 0.350639
27.579655 -61.220097 0.453339
27.631062 -61.794445 0.337711
26.915497 -60.920578 8.877724
27.219250 -61.245457 0.393791
27.266911 -61.824501 0.347900
26.607077 -60.994114 9.370354
26.856594 -61.273987 0.377243
26.902773 -61.855347 0.371258
26.312033 -61.051304 9.706730
26.548826 -60.933407 3.033436
26.493561 -61.303482 0.373837
26.477558 -62.012569 2.603340
26.540895 -61.882957 0.337933
26.017361 -61.135746 10.324379
26.073509 -61.555328 3.525265
26.131338 -61.330395 0.333706
26.132488 -62.046211 2.703491
25.739080 -61.172615 10.467075
25.818785 -61.321400 6.979973
25.733194 -61.619949 4.057423
25.779289 -62.132847 3.755150
25.463678 -61.198792 10.502741
25.510822 -61.400166 7.623127
25.402559 -61.652348 4.133698
25.447042 -62.141224 3.412106
25.160049 -60.757263 5.703472
25.192940 -61.114811 3.874058
25.175718 -60.819809 0.306274
25.069468 -61.652130 3.734005
25.110878 -62.166046 3.361526
24.814930 -60.598942 3.783279
24.762064 -60.254021 0.190182
24.851406 -61.087456 3.207165
24.811424 -60.845661 0.257324
24.724428 -61.632465 3.037952
24.679129 -61.449677 0.334499
24.770445 -62.179375 3.094223
24.493467 -60.675938 4.304508
24.398245 -60.289051 0.244011
24.516018 -61.126053 3.340469
24.448521 -60.879921 0.311207
24.391407 -61.677425 3.292576
24.314411 -61.475246 0.270309
24.445507 -62.237171 3.658527
24.132099 -60.608421 3.306053
24.179867 -61.156658 3.377060
24.053259 -61.703762 3.270832
24.112913 -62.266750 3.696560
23.787878 -60.621960 3.156551
23.845512 -61.189823 3.446465
23.731382 -61.755806 3.640865
23.783859 -62.300098 3.807331
23.475084 -60.699860 3.696285
23.545147 -61.276672 4.195854
23.400959 -61.788822 3.724567
23.446600 -62.323380 3.721455
23.161180 -60.760647 4.059624
23.206509 -61.292412 4.051800
23.065887 -61.815563 3.711510
23.102448 -62.342529 3.548836
22.841499 -60.804714 4.246700
22.851469 -61.292370 3.701855
22.749060 -61.859573 3.970219
22.764650 -62.369049 3.518822
22.486477 -60.802635 3.930023
22.557087 -61.361958 4.250069
22.417995 -61.888481 3.992737
22.437643 -62.403107 3.641174
22.140074 -60.816505 3.785362
22.224808 -61.387760 4.234146
22.093189 -61.921894 4.087753
22.111748 -62.436737 3.756374
21.803026 -60.842392 3.772766
21.853577 -61.382328 3.804111
21.733809 -61.932320 3.807976
21.766119 -62.459656 3.645611
21.456425 -60.860611 3.673958
21.474646 -61.377800 3.377659
21.365198 -61.941025 3.491871
21.689547 -62.605083 6.171234
21.428581 -62.487598 3.637348
21.004391 -60.797161 2.647606
21.079330 -61.368305 2.875595
20.787310 -61.171467 0.218834
21.009905 -61.960529 3.347923
21.064020 -62.504929 3.393799
20.713312 -62.361797 0.256580
20.665966 -60.831619 2.724121
20.655010 -61.347500 2.209110
20.417450 -61.200710 0.208504
20.336594 -61.828091 0.620850
20.351648 -62.395142 0.307175
20.275101 -60.830204 2.388535
20.039497 -60.671577 0.560463
20.310938 -61.380478 2.269283
20.091286 -61.255405 0.547741
19.961023 -61.854065 0.545605
19.994392 -62.429993 0.390640
19.803274 -60.782860 1.513870
19.718103 -61.282108 0.504066
19.594841 -61.884979 0.552879
19.968077 -62.568447 2.862259
19.643715 -62.466702 0.516766
19.605011 -60.905506 2.616188
19.265236 -60.707737 0.299313
19.494446 -61.382965 1.500267
19.269470 -61.931847 0.839935
19.630888 -62.600815 2.929214
19.281767 -62.499695 0.556892
18.904770 -60.743225 0.371059
19.315134 -61.494999 2.674717
18.953196 -61.329601 0.328224
19.179989 -62.060799 2.599155
19.235943 -62.617634 2.623947
18.541899 -60.777229 0.426266
18.985575 -61.532585 2.805580
18.580700 -61.359486 0.324345
18.843853 -62.095207 2.692226
18.440866 -61.961357 0.269154
18.914980 -62.655079 2.805691
18.179541 -60.811436 0.484638
18.659569 -61.570904 2.949047
18.217842 -61.393738 0.382801
18.483047 -62.121696 2.640640
18.122757 -62.009678 0.584976
18.593323 -62.691704 2.970360
17.823095 -60.848263 0.575592
17.923098 -61.453667 0.817505
18.149834 -62.156994 2.749500
17.813274 -62.058819 0.922840
18.148230 -62.701103 2.449615
17.813854 -62.628761 0.621346
17.447111 -60.876423 0.561932
18.052870 -61.661564 3.449955
17.519878 -61.472099 0.646450
17.967728 -62.233437 3.635792
17.938412 -62.761150 3.209465
17.416782 -62.655685 0.491066
17.080158 -60.908867 0.600540
17.822584 -61.729256 4.041550
17.739141 -62.292824 4.218853
17.729477 -62.817970 3.911198
17.046432 -62.688721 0.511551
16.719456 -60.943909 0.671680
17.543093 -61.777496 4.350941
16.704998 -61.511360 0.325871
17.400383 -62.322327 4.236267
17.363815 -62.844025 3.811676
16.919666 -61.183289 3.307476
17.204876 -61.806358 4.369778
17.072134 -62.354553 4.305496
17.032230 -62.876579 3.881607
16.593704 -61.220337 3.428707
16.802509 -61.817223 4.109383
16.400299 -62.312054 2.878422
15.814678 -62.184643 0.327885
16.710180 -62.910690 3.993404
16.524540 -61.341774 4.629642
15.967965 -61.157974 2.281696
16.504892 -61.858627 4.319447
16.457001 -62.427628 4.617702
16.491026 -62.959816 4.535801
16.211008 -61.378048 4.754166
15.722196 -61.224087 2.769257
16.255417 -61.911591 4.716038
16.161018 -62.465832 4.811520
16.127552 -62.987137 4.458096
15.792854 -61.382469 4.465862
15.921268 -61.941811 4.756191
15.825456 -62.496159 4.843201
15.851251 -63.026482 4.732487
15.476246 -61.418526 4.586918
15.546491 -61.962730 4.644890
15.564390 -62.539841 5.157856
15.581609 -63.065952 5.018520
13.953311 -61.122410 0.305279
15.224243 -61.996468 4.739559
15.151364 -62.557083 4.906055
15.160204 -63.087231 4.737732
13.576703 -61.156128 0.355713
14.900226 -62.029766 4.827408
14.719550 -62.572903 4.610634
14.752315 -63.111382 4.528816
13.614556 -62.987839 0.518932
13.160890 -61.180183 0.275547
13.224930 -61.787552 0.278961
13.087364 -62.409176 0.266109
13.159050 -63.015430 0.295467
12.774594 -61.212433 0.304497
12.836274 -61.820301 0.298122
12.701650 -62.443733 0.296478
14.091393 -63.177925 4.678864
12.742236 -63.047958 0.220337
12.364153 -61.239456 0.260822
12.429311 -61.850060 0.263691
12.291650 -62.475319 0.254154
12.353013 -63.083683 0.244743
11.988686 -61.275101 0.335117
12.039098 -61.883499 0.290249
11.892285 -62.508942 0.253853
14.369285 -63.325165 7.752670
13.435662 -63.245449 4.850170
11.601025 -61.308289 0.374912
11.654661 -61.918327 0.339424
11.504586 -62.544502 0.295288
14.245209 -63.370758 8.370697
11.557398 -63.154819 0.257027
11.158361 -61.330471 0.257751
11.228402 -61.946598 0.269207
11.090723 -62.577297 0.264694
13.914918 -63.399174 8.354328
13.447149 -63.363838 6.982304
11.156701 -63.190804 0.264133
10.742370 -61.359154 0.229897
10.813087 -61.977444 0.240974
10.701880 -62.613518 0.313572
13.325499 -63.409611 7.605328
10.351924 -61.393444 0.281223
10.436722 -62.014820 0.329639
10.299233 -62.648567 0.328484
13.305314 -63.460625 8.481758
11.250267 -61.665241 3.817684
11.383802 -62.243538 4.010876
10.019385 -62.046425 0.309246
9.867909 -62.681137 0.272343
13.171010 -63.502266 9.009052
9.932093 -63.299850 0.261631
9.524453 -61.454723 0.273556
9.597071 -62.077976 0.283646
9.448769 -62.715591 0.257919
9.527670 -63.337326 0.284328
9.121658 -61.488136 0.308338
9.176809 -62.110455 0.271553
9.042828 -62.751831 0.284870
10.670545 -63.459911 4.278805
9.122513 -63.375156 0.310936
8.729441 -61.523720 0.374786
8.758879 -62.143837 0.272907
8.639919 -62.788754 0.325020
8.701799 -63.412586 0.304325
8.306875 -61.554775 0.371040
8.351128 -62.179012 0.306145
8.198439 -62.822815 0.276634
9.873736 -63.526386 4.186954
8.272192 -63.450077 0.283413
7.871424 -61.584476 0.343899
7.908007 -62.210461 0.260395
9.224360 -62.974773 3.713501
7.778219 -62.859253 0.288048
9.852291 -63.577156 5.050449
9.800000 -61.964119 5.813107
7.457947 -61.618156 0.376194
7.514055 -62.248203 0.338566
7.349003 -62.895496 0.285286
7.554611 -63.532459 0.594437
10.226859 -62.105869 7.628643
9.457272 -61.996185 5.883991
7.055840 -61.653931 0.439953
8.546793 -62.440853 3.667511
7.096069 -62.283607 0.365578
8.043520 -63.013420 2.827736
6.926546 -62.932762 0.305149
9.419138 -63.658287 5.790924
6.998247 -63.566238 0.301769
9.850092 -62.129642 7.586910
9.048897 -62.019451 5.812527
6.579575 -61.679840 0.343781
7.734550 -62.429409 2.747559
6.615770 -62.313000 0.260052
6.511366 -62.970997 0.347435
9.056189 -63.692909 5.820896
9.513368 -62.159424 7.639782
8.667427 -62.047138 5.808884
6.209177 -61.720840 0.488415
6.232555 -62.353065 0.377571
7.331921 -63.090096 3.059998
6.087154 -63.009045 0.375675
8.717747 -63.728672 5.908936
9.180691 -62.190022 7.704945
6.334848 -61.825409 1.683559
7.705650 -62.571213 4.440010
7.936832 -63.187977 5.204178
8.174589 -63.758606 5.566196
8.791500 -62.213875 7.656429
7.436050 -62.614838 4.710522
7.312548 -63.207851 4.726425
8.002728 -63.799782 6.013515
6.258356 -63.753067 2.403107
8.422390 -62.240856 7.656864
7.006578 -62.643921 4.651188
5.073795 -62.473354 0.724396
5.821716 -63.181648 2.528130
5.168991 -63.145485 1.211494
6.880894 -63.817287 4.524536
5.902296 -63.793594 2.543152
8.088085 -62.272381 7.732452
6.354721 -62.654922 4.159103
5.074903 -62.546593 1.614929
6.880236 -63.296070 5.463051
5.330570 -63.214886 2.404152
6.971056 -63.865215 5.507320
7.698900 -62.298027 7.704758
5.121960 -62.621040 2.564552
6.416616 -63.327049 5.340034
3.723770 -63.193825 0.137115
6.797319 -63.906124 5.943550
3.790865 -63.848042 0.113335
7.270723 -62.320141 7.610565
7.348692 -62.862389 7.633617
6.401062 -62.788658 5.828579
3.248934 -63.232727 0.113602
6.298927 -63.940922 5.751892
6.896397 -62.348751 7.626789
6.951479 -62.891392 7.605305
5.978741 -62.818871 5.790890
5.944359 -63.411522 5.972252
6.151094 -63.981792 6.226727
6.540260 -62.379669 7.681950
6.576445 -62.922585 7.625156
5.611954 -62.853710 5.863026
5.511692 -63.445045 5.922630
5.750191 -64.018829 6.228077
6.183722 -62.410896 7.740711
6.234520 -62.956490 7.710026
5.115942 -63.480644 5.947548
3.253548 -63.408539 2.636009
5.382114 -64.056664 6.294788
5.767292 -62.436878 7.699059
5.877834 -62.989674 7.772221
3.927893 -63.487976 4.597820
1.335108 -63.394039 0.079777
5.103106 -64.095558 6.521484
5.308435 -62.459766 7.593044
5.400209 -63.015621 7.630688
4.942757 -63.574055 7.071255
0.820580 -63.434658 0.030388
5.239775 -64.137039 7.458622
2.458076 -64.119354 2.690788
4.928072 -62.490433 7.629768
5.005400 -63.047501 7.641022
4.871086 -63.619690 7.635609
5.079212 -64.175552 7.866501
4.588350 -62.524944 7.738834
4.619652 -63.080406 7.672756
4.537243 -63.656647 7.754513
1.983652 -63.582092 3.561459
4.192661 -64.211777 7.069206
4.191164 -62.555008 7.757793
4.196211 -63.111706 7.649075
3.956038 -63.687115 7.477402
3.648664 -64.250488 6.863056
1.996290 -64.249374 4.192986
3.766106 -62.583427 7.738842
3.834703 -63.146839 7.731709
3.662657 -63.725979 7.672523
3.323650 -64.289879 7.018982
-0.192696 -64.293839 1.445530
3.295908 -62.609123 7.657478
3.408312 -63.179070 7.717091
3.051212 -63.757614 7.374443
1.836803 -63.730011 5.492416
-0.461901 -63.677765 1.929993
1.961201 -64.332405 5.563057
1.419918 -62.534134 5.442677
1.536190 -63.143913 5.498203
1.444052 -63.769962 5.580601
1.536739 -64.374313 5.600285
1.036251 -62.571350 5.550903
1.136904 -63.181934 5.580746
1.039957 -63.810036 5.656281
1.155628 -64.416397 5.708710
0.675194 -62.610363 5.696098
0.776587 -63.221970 5.725403
0.680519 -63.851227 5.802326
0.774641 -64.458763 5.821041
0.246510 -62.645180 5.746304
0.348766 -63.259472 5.774914
0.304689 -63.892372 5.927288
0.393808 -64.501411 5.937298
-0.136988 -62.683296 5.866531
-0.039713 -63.298943 5.886372
-0.128607 -63.933029 5.974480
-0.009893 -64.544601 6.024807
-0.549438 -62.719952 5.950153
-0.445591 -63.338089 5.977497
-0.510271 -63.974731 6.099499
-0.413925 -64.588142 6.116650
-0.956417 -62.757320 6.046291
-0.804575 -63.379189 6.137569
-0.915335 -64.016479 6.196236
-0.770966 -64.631378 6.277370
-1.357658 -62.795372 6.154823
-1.228338 -63.418392 6.212948
-1.344601 -64.058403 6.265312
-1.222788 -64.676285 6.313385
-1.765009 -62.833431 6.259666
-1.664801 -63.457645 6.277073
-1.750364 -64.100891 6.370991
-1.627529 -64.720886 6.418304
-2.148046 -62.873077 6.400532
-2.016623 -63.499733 6.456951
-2.101101 -64.143967 6.552181
-1.983479 -64.764931 6.590889
-2.604866 -62.909393 6.451157
-2.478474 -63.539089 6.498726
-2.512682 -64.187042 6.658325
-2.412661 -64.810623 6.672729
-2.962790 -62.950848 6.631828
-2.885433 -63.580322 6.616165
-2.943249 -64.230453 6.745609
-2.817427 -64.856209 6.790619
-3.370207 -62.990238 6.754108
-3.260859 -63.622604 6.776806
-3.342695 -64.274269 6.876438
-3.222202 -64.902130 6.912914
-3.854256 -63.026722 6.788555
-3.744011 -63.662880 6.810421
-3.799566 -64.318497 6.942432
-3.678041 -64.949585 6.978092
-4.262373 -63.066895 6.920383
-4.099802 -63.706165 7.002712
-4.231544 -64.363136 7.044266
-4.109045 -64.996887 7.079140
-4.696445 -63.106396 7.026363
-4.584625 -63.747375 7.046776
-4.644316 -64.408073 7.173721
-4.507843 -65.043747 7.222988
-5.130869 -63.146297 7.137264
-5.024826 -63.789860 7.149384
-5.103212 -64.453651 7.255146
-4.972179 -65.092705 7.295940
-5.565592 -63.186600 7.253101
-5.425611 -63.833324 7.301895
-5.502954 -64.499245 7.409077
-5.397554 -65.141022 7.419182
-6.027422 -63.226410 7.344257
-5.886353 -63.876339 7.392010
-5.962818 -64.545677 7.500778
-5.856606 -65.190704 7.510201
-6.462835 -63.267544 7.470238
-6.320726 -63.920116 7.516987
-6.423374 -64.592583 7.597904
-6.289240 -65.240028 7.636047
-6.898386 -63.309063 7.601204
-6.755243 -63.964287 7.646946
-6.911978 -64.640266 7.671352
-6.804094 -65.292358 7.679375
-7.492876 -63.346531 7.570889
-7.403650 -64.007156 7.557411
-7.622984 -64.691353 7.519661
-7.506941 -65.351463 7.533882
-8.180872 -63.382446 7.455147
-8.042051 -64.051102 7.490955
-8.311071 -64.743202 7.406429
-8.200720 -65.411232 7.412437
-8.929548 -63.418049 7.291927
-8.782316 -64.095505 7.333363
-10.263845 -64.815590 6.031662
-10.121893 -65.515160 6.063469
-10.875135 -63.427341 5.955208
-10.731859 -64.136841 5.986019
-10.978643 -64.871437 5.941292
-10.884851 -65.580597 5.922501
-11.644529 -63.467026 5.823299
-11.492731 -64.185303 5.859608
-11.805063 -64.930298 5.756039
-11.652845 -65.647263 5.792164
-12.447729 -63.507355 5.674381
-12.323286 -64.234917 5.681332
-12.579569 -64.989426 5.637817
-12.454592 -65.716248 5.644852
-13.256231 -63.548973 5.536736
-13.130579 -64.285881 5.542313
-13.438948 -65.051392 5.455025
-13.225237 -65.785095 5.543129
-14.099245 -63.591377 5.383247
-13.972334 -64.338196 5.387398
-14.230856 -65.113205 5.352379
-14.051710 -65.857201 5.404560
-16.788416 -63.606388 3.565018
-16.805437 -64.398125 3.429882
-17.121595 -65.223465 3.357933
-20.734060 -66.172668 -0.054989
-17.507765 -63.656033 3.584881
-17.524912 -64.455093 3.449844
-17.864420 -65.288689 3.362377
-20.373358 -66.202408 0.994717
-18.199846 -63.707020 3.640808
-18.217157 -64.512848 3.505924
-18.595259 -65.354553 3.390083
-18.984903 -63.757847 3.627434
-19.002253 -64.572105 3.492565
-19.351515 -65.421974 3.408062
-23.168463 -66.413696 -0.013847
-19.712427 -63.810390 3.676640
-19.722277 -64.631912 3.548374
-20.110685 -65.490417 3.436340
-20.879160 -66.355804 2.662548
-20.496107 -63.863407 3.690781
-20.521276 -64.693359 3.549660
-20.934126 -65.561600 3.423805
-21.290602 -63.917439 3.709366
-21.284960 -64.755516 3.593754
-21.699205 -65.632156 3.473389
-21.697950 -66.479591 3.353336
-22.088152 -63.972557 3.738903
-22.105696 -64.819305 3.604282
-22.529177 -65.705582 3.483349
-22.550917 -66.563103 3.344475
-22.888628 -64.028748 3.779465
-22.906183 -64.883934 3.644901
-23.205481 -65.775284 3.628773
-23.125444 -66.634048 3.570934
-23.755053 -64.085785 3.782009
-23.591181 -64.947983 3.788830
-23.227057 -65.824707 4.291515
-23.115911 -66.676476 4.258495
-23.941450 -64.145691 4.318665
-23.673933 -65.003731 4.403931
-22.715891 -65.855934 5.351479
-23.466166 -64.205963 5.347652
-23.214315 -65.050140 5.420357
-23.382833 -65.925690 5.507660
-23.144056 -66.762314 5.570435
-24.079916 -64.264206 5.553192
-23.874773 -65.114136 5.588223
-23.937826 -65.992233 5.755585
-23.745832 -66.835342 5.781036
-24.742331 -64.323120 5.731525
-24.511629 -65.178413 5.782494
-24.597525 -66.063042 5.934456
-24.379919 -66.910683 5.976009
-25.421621 -64.382782 5.907085
-25.140604 -65.243187 5.990944
-25.225134 -66.133362 6.145241
-25.022390 -66.987122 6.173569
-26.126173 -64.443283 6.074623
-25.810629 -65.309433 6.179001
-26.650003 -64.503746 6.375954
-26.423418 -65.375160 6.415661
-27.193426 -65.445015 6.554188
25.184572 -64.277420 41.867382
25.129482 -64.277420 41.842972
25.138670 -64.280724 41.847378
25.155317 -64.279793 41.858654
25.162924 -64.276093 41.865341
25.154339 -64.280022 41.860592
25.135500 -64.281464 41.853649
25.161093 -64.276527 41.869083
25.143456 -64.281090 41.860123
25.196308 -64.274803 41.888073
25.178545 -64.278824 41.879307
25.123075 -64.278946 41.856068
25.141544 -64.281555 41.864212
25.149372 -64.277679 41.870640
25.131531 -64.282433 41.862141
25.166763 -64.276878 41.880703
25.194427 -64.278107 41.892624
25.175430 -64.279610 41.886280