# This PCD file was generated using the MATLAB® pcwrite function
# from Computer Vision System Toolbox®.
# .PCD v.7 - Point Cloud Data file format
VERSION .7
FIELDS x y z
SIZE 4 4 4
TYPE F F F
COUNT 1 1 1
WIDTH 760
HEIGHT 1
VIEWPOINT 0 0 0 1 0 0 0
POINTS 760
DATA ascii
-23.023163 -10.806700 -0.352036
-22.375921 -10.958029 -0.367071
-22.666834 -10.597781 -0.384558
-21.995588 -10.733180 -0.367416
-22.290625 -10.380030 -0.392344
-21.684904 -10.543960 -0.426252
-21.936388 -10.173556 -0.413494
-21.306925 -10.321724 -0.415098
-21.569517 -9.961776 -0.416079
-20.943920 -10.107707 -0.411091
-21.231176 -9.764298 -0.439199
-20.609037 -9.908370 -0.427959
-20.866802 -9.555183 -0.430527
-20.195539 -9.670831 -0.359007
-20.450184 -9.322224 -0.362484
-19.922724 -9.503508 -0.425808
-20.169060 -9.153828 -0.423159
-19.584778 -9.304668 -0.420151
-19.861870 -8.973740 -0.452381
-19.280617 -9.123045 -0.443813
-19.535814 -8.785459 -0.456305
-18.977329 -8.942424 -0.462900
-19.250013 -8.616521 -0.497032
-18.674969 -8.762832 -0.477434
-18.926048 -8.430479 -0.491442
-18.373577 -8.584291 -0.487444
-18.622591 -8.254554 -0.502203
-18.079493 -8.409862 -0.500109
-18.320148 -8.079702 -0.508453
-17.773891 -8.230462 -0.493980
-18.044004 -7.917463 -0.539043
-17.506626 -8.070033 -0.526937
-17.718489 -7.733319 -0.507544
-17.209320 -7.895755 -0.519388
-17.469004 -7.584279 -0.559015
-16.937534 -7.734203 -0.537014
-17.170656 -7.413669 -0.547970
-16.672596 -7.576399 -0.558184
-16.897936 -7.255175 -0.562305
-16.348665 -7.391284 -0.500488
-16.601896 -7.086816 -0.542761
-16.150913 -7.266112 -0.596798
-16.355095 -6.940951 -0.579327
-15.888275 -7.110853 -0.606770
-16.085054 -6.785262 -0.582060
-15.591641 -6.940277 -0.566965
-15.815982 -6.630547 -0.580965
-15.348351 -6.795055 -0.592413
-15.571208 -6.487002 -0.606962
-15.077177 -6.637411 -0.575583
-15.280901 -6.324117 -0.567410
-14.818482 -6.486051 -0.570578
-15.043514 -6.184778 -0.594139
-15.138734 -5.808400 -0.614164
-14.555215 -6.333115 -0.554062
-14.778419 -6.033960 -0.578260
-14.855301 -5.653353 -0.573429
-15.079342 -5.351876 -0.597382
-14.342829 -6.203847 -0.605381
-14.553642 -5.900944 -0.614233
-14.663536 -5.535620 -0.655874
-14.892370 -5.236830 -0.688257
-14.125129 -6.072496 -0.645964
-14.318175 -5.763767 -0.631277
-14.404556 -5.391433 -0.639980
-14.625967 -5.092525 -0.665104
-13.859055 -5.919728 -0.611250
-14.077874 -5.624991 -0.637142
-14.179805 -5.261312 -0.668856
-14.366387 -4.951381 -0.646332
-13.583665 -5.763372 -0.556595
-13.811274 -5.475655 -0.599323
-13.922758 -5.118974 -0.646196
-14.124542 -4.817321 -0.648296
-13.405144 -5.650772 -0.644791
-13.594325 -5.347643 -0.631065
-13.683102 -4.983982 -0.644493
-13.905396 -4.691980 -0.679607
-13.168642 -5.512678 -0.640675
-13.361857 -5.213573 -0.635450
-13.465666 -4.858051 -0.672422
-13.665015 -4.559436 -0.675385
-12.958878 -5.386817 -0.674650
-13.166830 -5.095359 -0.694452
-13.248648 -4.732664 -0.697580
-13.425530 -4.427752 -0.667997
-12.723882 -5.250250 -0.664465
-12.909611 -4.952000 -0.651611
-13.011207 -4.599937 -0.686783
-13.229252 -4.311768 -0.723742
-12.489833 -5.114568 -0.651155
-12.710117 -4.832669 -0.696968
-12.774725 -4.468102 -0.672865
-12.970270 -4.174278 -0.677137
-12.271723 -4.986251 -0.659927
-12.480405 -4.701467 -0.689569
-12.559608 -4.344747 -0.689419
-12.774710 -4.059286 -0.727600
-12.064101 -4.862837 -0.682777
-12.281543 -4.583064 -0.729759
-12.365145 -4.229403 -0.737024
-12.558777 -3.937639 -0.742020
-11.847170 -4.735799 -0.686050
-12.028589 -4.443530 -0.674284
-12.130974 -4.099843 -0.714413
-12.328278 -3.811525 -0.728325
-11.640530 -4.613527 -0.703617
-11.835636 -4.328222 -0.717655
-11.922415 -3.980092 -0.731413
-12.088776 -3.682976 -0.694639
-11.424880 -4.487820 -0.701448
-11.609122 -4.200110 -0.698750
-11.704639 -3.857432 -0.728683
-11.879974 -3.565130 -0.709208
-11.219321 -4.366741 -0.713785
-11.402577 -4.080215 -0.711367
-11.478057 -3.732123 -0.705978
-11.686215 -3.452559 -0.747021
-11.009666 -4.244326 -0.714905
-11.210584 -3.966264 -0.747396
-11.261940 -3.611018 -0.697704
-11.454318 -3.328095 -0.713366
-10.823408 -4.131927 -0.756948
-11.014129 -3.850903 -0.772446
-11.088501 -3.505144 -0.765068
-11.261371 -3.216529 -0.746267
-10.610305 -4.008826 -0.744305
-10.808870 -3.732558 -0.777658
-10.882612 -3.388326 -0.769274
-11.063950 -3.103871 -0.768164
-10.384793 -3.881137 -0.702610
-10.595221 -3.611487 -0.762798
-10.672795 -3.270597 -0.762184
-10.857677 -2.988853 -0.770172
-10.217115 -3.777179 -0.772837
-10.391280 -3.494454 -0.762917
-10.463723 -3.153577 -0.752520
-10.665599 -2.878547 -0.796124
-9.989010 -3.649330 -0.717010
-10.161831 -3.368551 -0.707388
-10.272990 -3.043046 -0.775770
-10.438082 -2.758062 -0.749014
-9.800335 -3.537587 -0.738457
-9.993890 -3.265378 -0.773525
-10.065220 -2.927312 -0.761166
-10.264614 -2.653991 -0.805740
-9.611940 -3.426248 -0.757685
-9.800220 -3.153190 -0.784197
-9.892346 -2.823187 -0.815596
-10.056279 -2.540095 -0.789120
-9.411581 -3.310588 -0.747744
-9.582034 -3.032753 -0.738720
-9.702474 -2.713880 -0.832186
-9.887135 -2.437708 -0.850689
-9.240093 -3.206360 -0.798563
-9.410106 -2.928903 -0.789679
-9.479913 -2.594810 -0.774427
-9.663116 -2.320341 -0.793377
-9.048636 -3.094758 -0.802177
-9.217857 -2.818282 -0.793488
-9.307487 -2.491634 -0.822563
-9.469407 -2.211861 -0.796572
-8.865447 -2.986588 -0.821743
-9.034017 -2.710853 -0.813223
-9.102951 -2.379054 -0.796080
-9.280259 -2.104983 -0.806595
-8.678679 -2.877378 -0.830080
-8.862085 -2.607659 -0.858225
-8.930737 -2.276446 -0.840162
-9.107465 -2.002666 -0.850895
-8.473551 -2.761798 -0.790421
-8.655615 -2.493371 -0.818937
-8.742960 -2.169549 -0.845722
-8.918834 -1.896544 -0.856730
-8.287938 -2.653738 -0.794287
-8.469005 -2.386001 -0.823112
-8.555605 -2.063131 -0.849134
-8.746046 -1.794662 -0.897133
-8.120837 -2.552571 -0.842197
-8.286514 -2.280276 -0.834377
-8.368692 -1.957199 -0.850416
-8.546640 -1.686638 -0.871180
-7.932223 -2.444035 -0.832705
-8.115189 -2.178312 -0.871351
-8.182240 -1.851763 -0.849571
-8.370416 -1.584499 -0.898367
-7.751175 -2.338478 -0.839638
-7.911858 -2.066828 -0.822874
-7.996267 -1.746834 -0.846617
-8.168710 -1.476921 -0.858702
-7.580703 -2.236807 -0.872522
-7.754919 -1.969707 -0.893127
-7.824839 -1.645982 -0.878847
-7.996692 -1.376356 -0.891130
-7.396829 -2.130871 -0.866119
-7.570110 -1.864502 -0.886976
-7.653368 -1.545310 -0.909224
-7.821121 -1.275245 -0.912373
-7.210213 -2.024397 -0.848244
-7.399179 -1.763612 -0.916264
-7.468384 -1.441609 -0.900238
-7.638783 -1.173042 -0.912977
-7.053067 -1.927764 -0.913017
-7.202086 -1.655687 -0.868446
-7.283950 -1.338450 -0.889183
-7.470332 -1.073855 -0.949139
-6.860949 -1.820197 -0.872263
-7.028500 -1.554677 -0.884388
-7.100085 -1.235842 -0.876068
-7.268751 -0.968816 -0.889307
-6.688178 -1.719071 -0.886148
-6.851942 -1.453145 -0.888988
-6.916806 -1.133794 -0.860909
-7.084605 -0.867538 -0.874393
-6.506619 -1.615567 -0.869654
-6.681808 -1.353552 -0.910639
-6.746489 -1.034839 -0.881676
-6.916848 -0.769379 -0.904814
-6.348998 -1.519443 -0.927357
-6.496795 -1.250533 -0.882889
-6.576224 -0.936114 -0.900631
-6.742828 -0.670429 -0.914469
-6.168113 -1.416746 -0.907032
-6.327122 -1.151616 -0.900784
-6.394240 -0.835450 -0.879610
-6.547913 -0.568839 -0.855585
-5.987876 -1.314638 -0.884705
-6.157524 -1.052942 -0.916870
-6.235910 -0.739386 -0.933111
-6.389541 -0.472751 -0.909098
-5.816407 -1.215290 -0.889193
-5.979706 -0.952718 -0.902388
-6.054678 -0.639569 -0.908295
-6.219208 -0.375222 -0.922709
-5.642558 -1.115610 -0.882217
-5.810519 -0.854682 -0.914812
-5.874134 -0.540362 -0.881498
-6.037788 -0.276783 -0.896139
-5.471674 -1.017004 -0.883015
-5.638826 -0.756399 -0.915808
-5.707588 -0.443624 -0.900904
-5.878888 -0.180956 -0.944544
-5.306041 -0.919938 -0.901325
-5.469965 -0.658945 -0.924639
-5.548797 -0.348055 -0.947535
-5.708930 -0.084235 -0.952782
-5.138001 -0.822519 -0.908218
-5.308697 -0.563049 -0.960722
-5.377013 -0.251008 -0.944181
-5.531382 0.012689 -0.930256
-4.967785 -0.724887 -0.903631
-5.132706 -0.464889 -0.936966
-5.198224 -0.153623 -0.909929
-5.361967 0.108702 -0.934875
-4.806959 -0.629474 -0.936161
-4.966671 -0.368639 -0.950199
-5.029673 -0.057670 -0.912613
-5.192735 0.204416 -0.937725
-4.641501 -0.533272 -0.947548
-4.793895 -0.271723 -0.932495
-4.861320 0.037977 -0.913540
-5.021339 0.299854 -0.929102
-4.467625 -0.435808 -0.918158
-4.628186 -0.176044 -0.942225
-4.702065 0.132876 -0.951710
-4.861747 0.394954 -0.967352
-4.306688 -0.340891 -0.945614
-4.468895 -0.081218 -0.979559
-4.536007 0.227996 -0.958971
-4.692932 0.489855 -0.964983
-4.139626 -0.245186 -0.942030
-4.301084 0.014285 -0.976128
-4.376263 0.322812 -0.993870
-4.532924 0.584828 -0.999939
-3.970915 -0.149574 -0.926899
-4.139424 0.109097 -1.000366
-4.200186 0.417455 -0.948769
-4.358104 0.678805 -0.964800
-3.804439 -0.054586 -0.919836
-3.962432 0.204436 -0.944412
-4.040374 0.511941 -0.980318
-4.189977 0.772740 -0.957228
-3.645242 0.039443 -0.950430
-3.806473 0.298639 -0.994749
-3.880251 0.606425 -1.010254
-4.029811 0.867249 -0.987169
-3.485742 0.133468 -0.979418
-3.646421 0.392989 -1.023834
-3.712722 0.700282 -0.999212
-3.867501 0.961475 -1.005671
-3.319544 0.227741 -0.967312
-3.476053 0.486992 -0.992153
-3.543799 0.793576 -0.976604
-3.701512 1.054960 -1.002857
-3.153663 0.321645 -0.953499
-3.304703 0.580351 -0.948839
-3.385116 0.887862 -1.011444
-3.540785 1.149248 -1.027897
-2.989565 0.415196 -0.947882
-3.140217 0.673645 -0.943279
-3.216705 0.980490 -0.985445
-3.371688 1.241473 -1.002022
-2.829796 0.508650 -0.970303
-2.983161 0.767579 -0.985514
-3.056184 1.074293 -1.007149
-3.218559 1.337728 -1.073120
-2.668483 0.601953 -0.981203
-2.818705 0.860493 -0.976664
-2.891217 1.166931 -0.997553
-3.043837 1.427458 -1.004389
-2.509547 0.695429 -1.010323
-2.658360 0.953921 -0.995880
-2.730462 1.260507 -1.015999
-2.878623 1.519578 -0.993202
-2.343328 0.787754 -0.978256
-2.497798 1.047294 -1.013483
-2.564483 1.352182 -0.993185
-2.716291 1.612540 -1.000139
-2.179810 0.880063 -0.964382
-2.337032 1.140606 -1.029474
-2.408331 1.447478 -1.048037
-2.560144 1.708474 -1.054956
-2.023571 0.974033 -1.018475
-2.176073 1.233849 -1.043846
-2.242569 1.538666 -1.021935
-2.390325 1.797330 -0.999210
-1.859131 1.065652 -0.991394
-2.011946 1.325669 -1.026785
-2.081345 1.631793 -1.033882
-1.733793 1.568566 3.470074
-2.232343 1.892619 -1.040905
-1.698535 1.158327 -1.002485
-1.848104 1.417145 -1.008074
-1.919008 1.724198 -1.034281
-2.070687 1.985815 -1.051254
-1.537784 1.250911 -1.011967
-1.689630 1.511487 -1.047419
-1.754920 1.815066 -1.013174
-1.906047 2.076520 -1.030212
-1.376891 1.343399 -1.019835
-1.527483 1.603674 -1.045359
-1.595951 1.909904 -1.050081
-1.744331 2.169391 -1.037308
-1.215867 1.435783 -1.026091
-1.366743 1.696916 -1.061586
-1.434230 2.002599 -1.055552
-1.582490 2.262155 -1.042784
-1.054725 1.528057 -1.030735
-1.204497 1.788802 -1.056286
-1.272397 2.095179 -1.059404
-1.088230 1.924547 3.551332
-1.422690 2.357591 -1.076431
-0.893477 1.620213 -1.033766
-1.041212 1.879063 -1.029444
-1.110463 2.187637 -1.061634
-1.260409 2.450248 -1.078669
-0.732136 1.712244 -1.035181
-0.882954 1.976468 -1.100586
-0.946949 2.277281 -1.032406
-1.096342 2.539728 -1.049484
-0.570714 1.804143 -1.034985
-0.720818 2.068774 -1.100389
-0.786345 2.372160 -1.061239
-0.934125 2.631990 -1.048477
-0.409222 1.895903 -1.033176
-0.558612 2.160940 -1.098572
-0.623148 2.461267 -1.028776
-0.771845 2.724109 -1.045847
-0.247675 1.987518 -1.029751
-0.396350 2.252959 -1.095133
-0.461975 2.556112 -1.054367
-0.610531 2.819513 -1.071384
-0.086082 2.078979 -1.024715
-0.233553 2.342051 -1.060204
-0.299920 2.648923 -1.058439
-0.447934 2.911454 -1.065506
0.075468 2.173670 -1.057922
-0.071704 2.436532 -1.083393
-0.138041 2.744987 -1.090702
-0.286058 3.008153 -1.097692
0.237589 2.267646 -1.079523
0.090655 2.528070 -1.075096
0.024626 2.836610 -1.081575
-0.122786 3.096109 -1.058796
0.399772 2.358907 -1.069616
0.253022 2.619434 -1.065178
0.187296 2.928055 -1.070829
0.039788 3.192843 -1.087700
0.562159 2.450961 -1.068047
0.415946 2.715001 -1.093397
0.350283 3.023030 -1.088232
0.202958 3.289733 -1.114939
0.722969 2.536807 -1.005182
0.577077 2.798195 -1.010695
0.513146 3.114225 -1.074224
0.366712 3.386771 -1.140497
0.886241 2.631574 -1.030209
0.740042 2.892411 -1.025723
0.677019 3.210513 -1.098232
0.530073 3.476729 -1.114906
1.052264 2.731991 -1.103209
0.905262 2.992796 -1.088682
0.841788 3.308299 -1.130457
0.694845 3.575312 -1.147018
1.216520 2.826092 -1.114918
1.069419 3.087319 -1.100348
1.005188 3.399256 -1.111513
0.858593 3.666462 -1.128035
1.379398 2.916668 -1.095219
1.235525 3.185803 -1.140039
1.169982 3.494341 -1.120592
1.021846 3.755820 -1.097555
1.542197 3.007020 -1.073904
1.398886 3.276468 -1.118652
1.334015 3.586466 -1.108242
1.185358 3.846478 -1.075329
1.708605 3.103497 -1.100430
1.562155 3.366901 -1.095640
1.496820 3.675373 -1.074528
1.351059 3.943517 -1.090858
1.871586 3.193590 -1.075823
1.730551 3.467133 -1.140089
1.666526 3.779709 -1.137705
1.517902 4.042346 -1.114511
2.030884 3.278021 -1.010134
1.888366 3.547045 -1.044760
1.830343 3.869992 -1.110506
1.683931 4.137866 -1.116770
2.204923 3.384205 -1.100607
2.058474 3.648880 -1.095638
1.994022 3.960018 -1.081688
1.851076 4.235157 -1.127136
2.368120 3.473875 -1.071051
2.225750 3.744885 -1.105368
2.160382 4.054881 -1.080675
2.019550 4.334337 -1.145557
2.540109 3.575110 -1.118492
2.393476 3.840955 -1.113363
2.328053 4.151463 -1.087748
2.186717 4.429934 -1.142649
2.707168 3.669132 -1.115019
2.566138 3.943646 -1.158819
2.496151 4.248096 -1.093077
2.352110 4.521693 -1.118492
2.866886 3.753750 -1.051056
2.725420 4.026525 -1.084990
2.669343 4.352069 -1.135704
2.520768 4.619081 -1.121920
3.042088 3.857063 -1.102926
2.899213 4.129467 -1.126883
2.833582 4.441486 -1.098480
2.688653 4.714518 -1.113857
3.215600 3.957530 -1.133347
3.068600 4.225710 -1.127880
3.004206 4.540131 -1.108267
2.864276 4.822055 -1.162340
3.385460 4.053212 -1.132669
3.242646 4.327392 -1.156307
3.178143 4.642766 -1.135672
3.034396 4.919682 -1.160395
3.555688 4.148910 -1.130222
3.408505 4.418256 -1.124573
3.348481 4.739695 -1.132114
3.203475 5.015211 -1.146994
3.724627 4.242847 -1.116295
3.585296 4.522086 -1.159031
3.525342 4.844732 -1.165455
3.375700 5.114954 -1.151159
3.890318 4.333091 -1.081261
3.748174 4.608897 -1.104485
3.690184 4.933546 -1.119646
3.545308 5.210392 -1.134220
4.075613 4.443381 -1.150860
3.927878 4.714960 -1.144880
3.876759 5.049416 -1.197378
3.731324 5.328010 -1.211655
4.245604 4.537323 -1.131554
4.099643 4.811370 -1.135115
4.040231 5.135918 -1.138430
3.896903 5.416842 -1.162212
4.419626 4.635008 -1.129730
4.279200 4.915936 -1.161978
4.212459 5.232923 -1.125816
4.060404 5.503013 -1.101574
4.600129 4.738628 -1.154840
4.451841 5.012436 -1.148514
4.386878 5.332111 -1.120951
4.241907 5.612212 -1.134792
4.764773 4.826484 -1.101381
4.614644 5.098263 -1.085430
4.567674 5.438124 -1.142822
4.430169 5.728912 -1.194508
4.946391 4.930318 -1.122675
4.804202 5.211782 -1.144741
4.747244 5.542084 -1.153166
4.601910 5.824350 -1.166550
5.135550 5.040649 -1.170511
4.977827 5.308232 -1.125744
4.921075 5.639177 -1.133070
4.775800 5.922102 -1.146278
5.312099 5.138723 -1.159185
5.171860 5.424794 -1.190273
5.103966 5.745723 -1.148970
4.960614 6.032292 -1.171379
5.479466 5.228150 -1.108099
5.337316 5.512311 -1.129543
5.287645 5.852491 -1.162811
5.141931 6.137694 -1.175531
5.680994 5.348040 -1.187506
5.521492 5.617987 -1.142626
5.462667 5.949628 -1.136974
5.328448 6.248392 -1.196440
5.859004 5.446300 -1.170324
5.716284 5.733305 -1.191236
5.647579 6.056653 -1.146780
5.501700 6.343650 -1.159061
6.045134 5.551353 -1.179384
5.892122 5.829948 -1.162558
5.843241 6.174015 -1.191870
5.696862 6.462629 -1.203831
6.221289 5.647335 -1.148933
6.088972 5.945951 -1.206753
6.029902 6.281559 -1.197355
5.883300 6.571309 -1.209061
6.408571 5.752594 -1.153913
6.265671 6.042645 -1.174105
6.217267 6.389270 -1.200726
6.080751 6.691085 -1.249239
6.607832 5.867574 -1.193939
6.467259 6.161797 -1.223106
6.405316 6.497136 -1.201965
6.258262 6.789153 -1.213144
6.805455 5.980578 -1.222326
6.656122 6.268732 -1.223415
6.594033 6.605145 -1.201063
6.449473 6.901103 -1.221178
6.974524 6.069304 -1.156107
6.831163 6.362878 -1.175497
6.783400 6.713288 -1.198009
6.647066 7.018949 -1.245333
7.176629 6.185151 -1.189327
7.032841 6.480384 -1.208399
6.985138 6.832598 -1.229397
6.837121 7.128490 -1.239704
7.376823 6.298874 -1.210955
7.247870 6.608940 -1.275455
7.188059 6.952313 -1.258339
7.039533 7.249814 -1.268309
7.568513 6.405197 -1.202824
7.427317 6.705831 -1.230417
7.379836 7.061076 -1.248480
7.231077 7.359706 -1.258169
7.764041 6.514224 -1.201597
7.619508 6.813454 -1.219778
7.572186 7.169924 -1.236422
7.423194 7.469680 -1.245829
7.983520 6.641940 -1.261477
7.828527 6.935001 -1.252148
7.765095 7.278845 -1.222151
7.628464 7.591839 -1.267254
8.150426 6.727362 -1.174290
8.005573 7.028927 -1.191889
7.984852 7.411377 -1.277447
7.834833 7.714346 -1.286158
8.379033 6.861217 -1.247103
8.243515 7.173685 -1.291193
8.179378 7.520696 -1.258423
8.029121 7.824788 -1.266842
8.591897 6.982056 -1.272224
8.435311 7.279145 -1.262264
8.388119 7.642109 -1.272741
8.240703 7.950939 -1.289686
8.777146 7.080957 -1.223497
8.620392 7.378739 -1.213381
8.597893 7.763829 -1.284489
8.432885 8.058444 -1.256824
8.973459 7.188143 -1.199335
8.827137 7.495824 -1.215582
8.794411 7.873500 -1.258383
8.656869 8.194738 -1.301001
9.211353 7.326804 -1.269958
9.064116 7.636981 -1.285767
9.005915 7.995649 -1.265108
8.868127 8.318627 -1.307198
9.428348 7.448851 -1.284721
9.269382 7.751747 -1.273846
9.233208 8.130681 -1.304161
9.065807 8.429677 -1.275888
9.627056 7.556577 -1.253084
9.482950 7.872732 -1.276922
9.446899 8.253479 -1.305466
9.293517 8.567171 -1.311710
9.857712 7.687981 -1.288727
9.697453 7.993960 -1.277365
9.661513 8.376510 -1.304123
9.522694 8.705171 -1.344542
10.089825 7.819886 -1.321379
9.940480 8.137248 -1.335651
9.877026 8.499757 -1.300112
9.722589 8.816640 -1.305609
10.302966 7.937114 -1.307955
10.157258 8.259150 -1.330462
10.093412 8.623207 -1.293421
9.954075 8.955327 -1.332737
10.525133 8.060600 -1.309069
10.378978 8.384432 -1.331139
10.310650 8.746843 -1.284029
10.171051 9.080688 -1.322786
10.760918 8.193629 -1.332960
10.593378 8.503521 -1.311996
10.561604 8.897509 -1.339725
10.405017 9.220129 -1.343962
10.959522 8.298905 -1.277475
10.800033 8.616200 -1.273291
10.781005 9.021736 -1.324528
10.623881 9.345946 -1.328379
11.214773 8.445136 -1.329325
11.049878 8.761689 -1.316326
11.018158 9.159793 -1.340115
10.860220 9.486072 -1.343515
11.440953 8.569645 -1.318991
11.275339 8.887858 -1.305725
11.256592 9.298232 -1.352564
11.097836 9.626577 -1.355515
11.676965 8.700792 -1.322472
11.532557 9.037659 -1.350538
11.478770 9.423086 -1.328703
11.297943 9.734981 -1.289894
11.923175 8.838755 -1.339468
11.773626 9.174543 -1.358696
11.719414 9.562105 -1.335011
11.576782 9.908657 -1.370008
12.129233 8.947486 -1.279020
11.979566 9.284452 -1.297840
11.961249 9.701451 -1.338116
11.800309 10.035510 -1.339758
12.405563 9.105893 -1.339022
12.236325 9.432076 -1.324532
12.199679 9.837523 -1.329865
12.037984 10.173525 -1.331060
12.655512 9.244907 -1.346264
12.499298 9.583664 -1.355837
12.448385 9.981048 -1.334658
12.299490 10.330429 -1.359602
12.897103 9.377494 -1.333979
12.726019 9.707720 -1.318861
12.707721 10.132191 -1.352171
12.562610 10.487847 -1.384478
13.163998 9.527364 -1.358732
12.991714 9.860096 -1.343250
12.954226 10.272746 -1.342134
12.789765 10.615403 -1.341871
13.432458 9.677719 -1.379791
13.258980 10.012958 -1.363943
13.240379 10.443165 -1.392292
13.074528 10.788839 -1.391441
13.662503 9.800719 -1.333643
13.527778 10.166281 -1.380913
13.508994 10.599338 -1.406757
13.342030 10.947547 -1.405373
13.953722 9.965767 -1.379190
13.798074 10.320044 -1.394135
13.739481 10.725822 -1.354811
13.611007 11.106678 -1.415537
14.205956 10.103178 -1.357910
14.049629 10.459592 -1.372318
14.030571 10.897760 -1.393259
13.901196 11.281865 -1.452959
14.500566 10.269276 -1.395468
14.317455 10.610361 -1.370424
14.282967 11.039735 -1.365685
14.133225 11.410351 -1.393637
14.776095 10.421599 -1.397894
14.596898 10.768875 -1.380234
14.577332 11.212646 -1.396055
14.421367 11.582416 -1.415535
15.010559 10.545285 -1.335159
14.893524 10.939031 -1.409054
14.852734 11.370604 -1.391672
14.680444 11.730985 -1.387653
15.347277 10.738225 -1.414024
15.191956 11.109737 -1.433559
15.150461 11.544503 -1.413637
14.976767 11.907890 -1.409008
15.610674 10.880569 -1.382030
15.465369 11.261962 -1.416018
15.471199 11.734657 -1.461233
15.274826 12.085304 -1.426006
15.869473 11.019314 -1.338974
15.723656 11.402917 -1.372225
15.724213 11.873986 -1.407248
15.574584 12.263201 -1.438610
16.189980 11.199181 -1.374262
16.048378 11.590186 -1.414064
16.032177 12.053191 -1.423721
15.854529 12.425107 -1.417328
16.495676 11.368374 -1.382643
16.353075 11.762583 -1.421551
16.336380 12.228860 -1.428310
16.179018 12.620330 -1.450544
16.802975 11.537986 -1.386585
16.636995 11.919752 -1.395348
16.614386 12.384706 -1.392103
16.461672 12.782846 -1.420811
17.140421 11.727070 -1.422361
16.967211 12.108600 -1.423136
16.943844 12.577306 -1.416857
16.811888 12.995820 -1.473354
17.422194 11.878361 -1.381021
17.276566 12.282165 -1.417187
17.252573 12.754072 -1.408022
17.114113 13.171597 -1.456230
17.734028 12.049068 -1.371464
17.564318 12.440106 -1.378187
17.585648 12.947649 -1.422983
17.445938 13.368855 -1.470030
18.088524 12.247341 -1.406921
17.899622 12.630271 -1.391668
17.920572 13.141722 -1.432884
17.756754 13.549527 -1.450720
18.379768 12.403139 -1.359735
18.213236 12.804753 -1.372047
18.304008 13.369650 -1.493399
18.115070 13.764811 -1.482393
18.743937 12.606318 -1.391924
18.593475 13.024211 -1.424219
18.595762 13.531220 -1.437384
18.452272 13.963442 -1.480898
19.134521 12.825992 -1.446068
18.970230 13.240343 -1.463501
18.959732 13.743479 -1.459270
18.808811 14.175499 -1.494713
19.325787 13.956296 -1.475466
19.155445 14.379329 -1.489443
19.693871 14.169638 -1.485945
19.491796 14.574748 -1.465437
20.039469 14.366282 -1.464083
19.877924 14.805740 -1.489370
20.429718 14.593423 -1.483017
20.254084 15.028442 -1.493990
20.791044 14.799407 -1.463163
20.607603 15.233754 -1.466650
0.310180 0.507468 20.000031
0.315505 0.505085 20.003769
0.294109 0.495086 20.022720
0.256762 0.468118 20.061224
0.298863 0.492896 20.026150
0.309917 0.505480 20.014496
0.265491 0.473653 20.058298
0.248193 0.457754 20.077284
0.260003 0.469459 20.065790
0.302946 0.494575 20.032001
0.287676 0.488586 20.044048
0.277192 0.476825 20.057035
0.288913 0.489088 20.045883
0.278322 0.477280 20.058739
0.296885 0.494292 20.042048
0.300035 0.491558 20.043585
0.284551 0.485334 20.055193
0.237815 0.452551 20.095743