# This PCD file was generated using the MATLAB® pcwrite function
# from Computer Vision System Toolbox®.
# .PCD v.7 - Point Cloud Data file format
VERSION .7
FIELDS x y z
SIZE 4 4 4
TYPE F F F
COUNT 1 1 1
WIDTH 924
HEIGHT 1
VIEWPOINT 0 0 0 1 0 0 0
POINTS 924
DATA ascii
8.814608 31.886530 -0.569492
8.109743 31.251825 -0.452496
8.740224 31.281109 -0.532633
8.029866 30.556917 -0.316044
8.653026 30.593393 -0.404270
7.999681 30.242062 -0.540812
8.607858 30.185873 -0.539085
7.923762 29.581837 -0.416281
8.538014 29.617397 -0.506708
7.800167 28.564468 0.087973
8.467213 29.044956 -0.459572
7.736043 27.999474 0.147839
8.316389 27.952988 0.141113
7.716665 27.772530 -0.139738
8.254679 27.446302 0.150269
7.684212 27.448044 -0.323338
8.226410 27.158075 -0.067650
7.656903 27.162790 -0.547743
8.218581 27.001995 -0.430027
7.592691 26.603565 -0.465088
8.148348 26.444332 -0.346752
7.546393 26.179455 -0.524611
8.098803 26.021463 -0.405588
7.493007 25.704344 -0.518709
8.024761 25.443832 -0.278465
7.436187 25.205647 -0.476429
7.996547 25.159763 -0.485218
7.389900 24.786270 -0.519579
7.945902 24.734169 -0.521015
7.350482 24.418648 -0.619381
7.897249 24.322552 -0.567085
7.308381 24.032526 -0.691776
7.867442 24.030441 -0.755724
7.268753 23.665623 -0.783199
7.817631 23.613785 -0.785271
7.221447 23.244072 -0.799683
7.756061 23.125443 -0.715424
7.165816 22.763725 -0.731865
7.679086 22.543835 -0.512598
7.112007 22.298361 -0.673939
7.620874 22.080751 -0.453451
7.050137 21.776815 -0.529892
7.553217 21.561666 -0.308231
7.007286 21.393681 -0.564964
7.503960 21.157364 -0.309744
6.915198 20.660276 -0.099466
7.487843 20.955822 -0.591057
6.850367 20.124460 0.106451
7.432801 20.518469 -0.535725
6.811306 19.773680 0.055958
7.289436 19.551558 0.306887
6.759634 19.334887 0.141869
7.274189 19.358658 0.029755
8.355337 19.512306 -0.646978
6.787510 19.457594 -0.616682
7.290571 19.353544 -0.537766
7.807652 19.269785 -0.783148
8.301777 19.125957 -0.642025
6.771695 19.271530 -0.918758
7.267798 19.113905 -0.755674
7.747680 18.835648 -0.698746
8.260088 18.794418 -0.716516
6.707310 18.746031 -0.688986
7.225741 18.760464 -0.794811
7.695156 18.441355 -0.668165
8.208912 18.421217 -0.720039
6.673597 18.436314 -0.791321
7.172927 18.345013 -0.728447
7.650957 18.090603 -0.700916
8.157770 18.049486 -0.719351
6.631514 18.069321 -0.796854
7.131796 17.999382 -0.767866
7.610822 17.761223 -0.763990
8.106670 17.679268 -0.714478
6.591680 17.719040 -0.823997
7.099420 17.705469 -0.889183
7.567572 17.417107 -0.797890
8.074041 17.390903 -0.842607
6.534259 17.248940 -0.640715
7.047700 17.300526 -0.818350
7.531334 17.108578 -0.888462
8.033209 17.067144 -0.907705
6.505461 16.976839 -0.789049
7.012545 16.992147 -0.907131
7.479007 16.721695 -0.837294
7.977531 16.680386 -0.856888
6.472128 16.674252 -0.882761
6.966145 16.620358 -0.879835
7.442641 16.414083 -0.921057
7.940024 16.372595 -0.940889
6.437239 16.361790 -0.956038
6.931689 16.317499 -0.970688
7.394378 16.049551 -0.896742
7.888961 16.008102 -0.916891
6.394543 15.997354 -0.929592
6.886191 15.953113 -0.944462
7.353978 15.724057 -0.938747
7.846867 15.682500 -0.959154
6.357466 15.671941 -0.969707
6.843266 15.604426 -0.940666
7.305810 15.362479 -0.906710
7.794796 15.316396 -0.918602
6.310084 15.278450 -0.873514
6.798735 15.247976 -0.915394
7.258689 15.007253 -0.879566
7.753781 14.997162 -0.962667
6.270344 14.937418 -0.870733
6.753464 14.888755 -0.877329
7.213544 14.662614 -0.866369
7.689890 14.585806 -0.816404
6.235308 14.628639 -0.926931
6.710711 14.544662 -0.862141
7.158110 14.271575 -0.750980
7.643557 14.247558 -0.808434
6.198215 14.307060 -0.953125
6.665620 14.189059 -0.816336
7.121552 13.969210 -0.810936
7.592984 13.893633 -0.760929
6.153942 13.939266 -0.876818
6.636420 13.920470 -0.946981
7.088599 13.683754 -0.904057
7.559508 13.608538 -0.853937
6.119466 13.636807 -0.932287
6.595289 13.588177 -0.939459
7.044516 13.348433 -0.885708
7.305833 12.466501 0.949419
7.515349 13.281993 -0.853682
6.079840 13.301635 -0.912050
6.552650 13.248966 -0.910282
7.000488 13.014561 -0.863831
7.275949 12.205016 0.851107
6.042146 12.980021 -0.915691
6.510851 12.915393 -0.886642
6.780668 11.906380 0.952871
7.235539 11.903459 0.846491
6.002616 12.647574 -0.888550
6.342377 11.922093 0.679688
6.471378 12.595127 -0.886993
6.759812 11.684177 0.768389
7.269060 11.880788 0.184885
5.862393 11.673757 0.669186
5.968011 12.347646 -0.931538
6.290262 11.543238 0.863235
6.763245 11.566122 0.327749
7.219893 11.545148 0.257547
5.816106 11.304579 0.838123
6.283454 11.398911 0.488153
6.772805 11.471124 -0.186996
7.211238 11.359786 -0.035570
5.791958 11.076673 0.668434
6.297767 11.359900 -0.164522
6.736569 11.178944 -0.220068
7.177027 11.079786 -0.096024
5.799404 11.046523 -0.010920
6.268416 11.097175 -0.270315
6.703691 10.901374 -0.287544
7.136764 10.778452 -0.098051
5.785546 10.881184 -0.365391
6.238870 10.833551 -0.373796
6.646226 10.522740 -0.081646
7.102398 10.498766 -0.153069
5.742341 10.533608 -0.241793
6.188811 10.468897 -0.203566
6.620882 10.277631 -0.227421
7.061123 10.195388 -0.139944
5.703255 10.212804 -0.180164
6.154997 10.185667 -0.245193
6.581229 9.974529 -0.211414
7.019880 9.893126 -0.123789
5.664839 9.897251 -0.124636
6.119060 9.892714 -0.255899
6.535083 9.646712 -0.116964
6.978674 9.592008 -0.104626
5.631345 9.612542 -0.150930
6.083777 9.603637 -0.273220
6.495581 9.346581 -0.094717
6.952629 9.342180 -0.233660
5.603576 9.362784 -0.278790
6.035192 9.252551 -0.098267
6.468881 9.096745 -0.221245
6.910423 9.039073 -0.199499
5.561116 9.025889 -0.138399
6.008541 9.005783 -0.233053
6.429321 8.797729 -0.193499
6.865506 8.728454 -0.133804
5.531082 8.763708 -0.223192
5.972594 8.715984 -0.232393
6.392151 8.508677 -0.191425
6.831717 8.454373 -0.179323
5.499384 8.492125 -0.277006
5.937915 8.432718 -0.248060
6.356518 8.226053 -0.205706
6.798741 8.183051 -0.231884
5.461242 8.183772 -0.203768
5.897569 8.124751 -0.174837
6.316295 7.927485 -0.159800
6.753088 7.873477 -0.147852
5.427059 7.899249 -0.204296
5.861675 7.837766 -0.165754
6.279903 7.643693 -0.159012
6.715587 7.589796 -0.147131
5.390527 7.602177 -0.153976
5.827003 7.556890 -0.173191
6.241284 7.352883 -0.126637
6.674564 7.296600 -0.105209
5.358209 7.329716 -0.187645
5.793499 7.281649 -0.197302
6.207100 7.078219 -0.149406
6.637090 7.014670 -0.099045
5.324464 7.049882 -0.189798
5.758172 6.999253 -0.189859
6.170695 6.796590 -0.140610
6.603048 6.743027 -0.128916
5.290262 6.768242 -0.179640
5.723423 6.719993 -0.189459
6.134293 6.515731 -0.129166
6.565536 6.462279 -0.117537
5.256064 6.487386 -0.166843
5.688091 6.439053 -0.176741
6.101399 6.246840 -0.163698
6.528028 6.182325 -0.103521
5.223130 6.214015 -0.180639
5.652766 6.158918 -0.161394
6.064272 5.965024 -0.137360
6.493847 5.911720 -0.125828
5.188921 5.934543 -0.162659
5.619642 5.888116 -0.182453
6.025135 5.678023 -0.079090
6.453866 5.626946 -0.077402
5.156721 5.666212 -0.190966
5.583766 5.607288 -0.152185
5.994143 5.416334 -0.135422
6.418814 5.355325 -0.084900
5.122105 5.386073 -0.158083
5.550564 5.337286 -0.168255
5.961027 5.148490 -0.160069
6.387717 5.093475 -0.138870
5.089423 5.116445 -0.171652
5.517818 5.069375 -0.191690
5.926532 4.877087 -0.162682
6.350170 4.816833 -0.112091
5.055212 4.839848 -0.143471
5.483983 4.797966 -0.193069
5.892642 4.607834 -0.172657
6.318878 4.554789 -0.161325
5.023893 4.577940 -0.191492
5.451108 4.530394 -0.211668
5.858701 4.338857 -0.180206
6.284379 4.285849 -0.168907
4.988267 4.296048 -0.118893
5.413295 4.246786 -0.129305
5.822230 4.063957 -0.145895
6.250589 4.018742 -0.183918
4.958161 4.040581 -0.201633
5.381812 3.984909 -0.172585
5.790673 3.801814 -0.188040
6.215984 3.750331 -0.186674
4.925226 3.772384 -0.203081
5.350201 3.722677 -0.213564
5.757191 3.535177 -0.198221
6.184286 3.487724 -0.226534
4.891298 3.500412 -0.172426
5.317098 3.456037 -0.222546
5.723059 3.267431 -0.196125
6.148828 3.218391 -0.214628
4.859539 3.238355 -0.208677
5.283045 3.187051 -0.209335
5.688311 2.998855 -0.181723
6.114786 2.952001 -0.220098
4.826476 2.971189 -0.202934
5.249846 2.921003 -0.213541
5.656957 2.737611 -0.224424
6.079982 2.684733 -0.213285
4.793380 2.704437 -0.194803
5.214471 2.649695 -0.165728
5.620449 2.466571 -0.175467
6.042363 2.413799 -0.164391
4.759152 2.433993 -0.144518
5.180805 2.383568 -0.155212
5.585636 2.199527 -0.153872
6.007540 2.147745 -0.152765
4.729216 2.179823 -0.251011
5.149934 2.124395 -0.211962
5.556182 1.941799 -0.229364
5.980786 1.892357 -0.258057
4.695952 1.913749 -0.235817
5.118105 1.862808 -0.246548
5.521782 1.675972 -0.213032
5.943130 1.623166 -0.201994
4.662423 1.647398 -0.208294
5.085765 1.600099 -0.268873
5.488907 1.412738 -0.224220
5.913379 1.363302 -0.262968
4.630060 1.385172 -0.228260
5.053321 1.337217 -0.288893
5.454941 1.148297 -0.213152
5.875727 1.095491 -0.202147
4.597817 1.123394 -0.255903
5.017529 1.068935 -0.216810
5.422419 0.885798 -0.229664
5.845729 0.834975 -0.258532
4.565241 0.860795 -0.271263
4.984980 0.806545 -0.232161
5.389799 0.623176 -0.243870
5.810576 0.570299 -0.232868
4.531566 0.595947 -0.234373
4.952333 0.544043 -0.245205
5.357084 0.360451 -0.255766
5.777857 0.307539 -0.244766
4.499803 0.335280 -0.295061
4.920906 0.282741 -0.295895
5.325660 0.098432 -0.295315
5.748043 0.045922 -0.304251
4.466944 0.072404 -0.303497
4.888348 0.019963 -0.314325
5.289574 -0.165931 -0.232681
5.705662 -0.219954 -0.151840
4.433827 -0.190693 -0.299622
4.856598 -0.242589 -0.360434
5.253112 -0.429214 -0.157722
5.671634 -0.482095 -0.136824
4.400331 -0.453813 -0.273438
4.817279 -0.507461 -0.154348
5.221885 -0.691099 -0.200331
5.639265 -0.743955 -0.149452
4.366524 -0.716415 -0.224943
4.785457 -0.769280 -0.195827
5.187144 -0.953011 -0.160711
5.606235 -1.005890 -0.149796
4.332879 -0.978236 -0.184139
4.751547 -1.031018 -0.165031
5.154039 -1.214893 -0.158752
5.570944 -1.267058 -0.107904
4.299865 -1.240229 -0.191027
4.718413 -1.292798 -0.161922
5.119271 -1.475711 -0.114536
5.537800 -1.528592 -0.103651
4.266525 -1.501819 -0.175619
4.685959 -1.555378 -0.186493
5.087597 -1.738526 -0.147930
5.506674 -1.791512 -0.137012
4.233236 -1.763520 -0.167908
4.651918 -1.816196 -0.148804
5.054265 -2.000237 -0.139067
5.473338 -2.053258 -0.128149
4.199967 -2.025572 -0.167885
4.619252 -2.079141 -0.168753
5.020501 -2.261335 -0.117922
5.439932 -2.314908 -0.116983
4.166447 -2.286641 -0.145584
4.585794 -2.340872 -0.156431
4.987394 -2.523348 -0.114437
5.422145 -2.596282 -0.422518
4.133298 -2.551075 -0.180878
4.552270 -2.602476 -0.141809
4.964765 -2.806759 -0.417728
5.328359 -2.772139 0.838850
4.099683 -2.812740 -0.163944
4.519075 -2.865363 -0.144833
4.937406 -3.086235 -0.598768
5.331829 -3.086391 0.089628
4.066148 -3.076589 -0.174616
4.494687 -3.166882 -0.623903
4.903170 -3.351748 -0.578060
5.329415 -3.405846 -0.566776
4.034111 -3.379907 -0.631239
4.460574 -3.433358 -0.611977
4.867646 -3.613271 -0.515224
5.295117 -3.671195 -0.543732
3.999551 -3.637759 -0.527370
4.424258 -3.687140 -0.468334
4.834526 -3.882156 -0.529650
5.262501 -3.940529 -0.558100
3.965226 -3.902339 -0.500874
4.390591 -3.955580 -0.481644
4.801263 -4.151491 -0.541681
5.228049 -4.205761 -0.530357
3.930869 -4.175694 -0.551540
4.357910 -4.233625 -0.572021
4.767860 -4.421253 -0.551306
5.195195 -4.475626 -0.539949
3.896275 -4.451367 -0.609650
4.324392 -4.508535 -0.620144
4.734320 -4.691421 -0.558517
5.163807 -4.751134 -0.586754
3.861611 -4.716597 -0.575994
4.289700 -4.773987 -0.586462
4.700644 -4.961974 -0.563311
5.129077 -5.016553 -0.551888
3.826779 -4.987055 -0.579622
4.255284 -5.043338 -0.580149
4.666835 -5.232890 -0.565672
5.094303 -5.281649 -0.514692
3.791689 -5.262281 -0.610498
4.220857 -5.314358 -0.581318
4.633812 -5.510346 -0.605114
5.063897 -5.565199 -0.593601
3.756562 -5.533681 -0.609228
4.186300 -5.585710 -0.580051
4.599700 -5.782266 -0.602554
5.031758 -5.843829 -0.630436
3.721569 -5.798822 -0.566057
4.151543 -5.855711 -0.566484
4.565463 -6.054485 -0.597549
4.996646 -6.109543 -0.585968
3.685627 -6.084297 -0.638750
4.117307 -6.143281 -0.648962
4.531883 -6.334202 -0.629423
4.962835 -6.382141 -0.578476
3.650346 -6.351463 -0.600573
4.082084 -6.408857 -0.600910
4.496623 -6.599732 -0.580172
4.930193 -6.662623 -0.607769
3.614026 -6.637337 -0.658207
4.047149 -6.689318 -0.629044
4.462715 -6.880616 -0.606997
4.896099 -6.936048 -0.595289
3.578642 -6.902815 -0.605330
4.011895 -6.962679 -0.615379
4.427957 -7.154149 -0.592079
4.861890 -7.209682 -0.580339
3.542142 -7.186418 -0.638170
3.976526 -7.236240 -0.599245
4.393086 -7.427871 -0.574684
4.828722 -7.492151 -0.601948
3.506082 -7.460286 -0.619522
3.941075 -7.520824 -0.629440
4.358660 -7.710675 -0.593801
4.795353 -7.775463 -0.620922
3.469337 -7.743252 -0.637379
3.905431 -7.795139 -0.608248
4.324036 -7.994298 -0.610273
4.760724 -8.050269 -0.598373
3.433172 -8.015424 -0.603951
3.869612 -8.078938 -0.623453
4.289216 -8.278714 -0.624092
4.727007 -8.334854 -0.612131
3.395927 -8.301961 -0.626303
3.833600 -8.363518 -0.636003
4.253786 -8.553974 -0.596498
4.692126 -8.610214 -0.584499
3.358645 -8.586936 -0.636257
3.797396 -8.648856 -0.645876
4.218629 -8.839570 -0.605057
4.658999 -8.906307 -0.631626
3.321175 -8.872643 -0.643528
3.761004 -8.934926 -0.653065
4.183285 -9.125887 -0.610926
4.622951 -9.171800 -0.560257
3.283519 -9.159059 -0.648104
3.724425 -9.221704 -0.657555
4.147474 -9.401970 -0.575615
4.588571 -9.458645 -0.563454
3.247376 -9.424252 -0.573050
3.688548 -9.476089 -0.543989
4.112046 -9.700582 -0.614546
4.555589 -9.768820 -0.640650
3.208554 -9.722629 -0.610754
3.651147 -9.783087 -0.610455
4.076156 -9.988910 -0.612274
4.520012 -10.045985 -0.599958
3.170402 -10.010685 -0.607271
3.614373 -10.062656 -0.578217
4.040090 -10.277858 -0.607267
4.485574 -10.344092 -0.623503
3.132075 -10.299352 -0.601048
3.577169 -10.351353 -0.572004
4.003850 -10.567400 -0.599508
4.449750 -10.621728 -0.577553
3.091517 -10.613151 -0.668186
3.538960 -10.662240 -0.629618
3.967441 -10.857512 -0.588991
4.415215 -10.927734 -0.614428
3.054102 -10.887855 -0.608797
3.501205 -10.955820 -0.627186
3.930863 -11.148166 -0.575705
4.380259 -11.231859 -0.638798
3.013834 -11.194599 -0.641497
3.462978 -11.256596 -0.640835
3.894049 -11.465812 -0.635132
4.344529 -11.523849 -0.622438
2.973580 -11.499350 -0.661697
3.424214 -11.565028 -0.670378
3.862214 -10.893432 1.782869
3.856993 -11.768299 -0.644264
4.274594 -10.834892 2.104118
4.308992 -11.826550 -0.631487
2.933075 -11.805227 -0.678864
3.385998 -11.857680 -0.649836
3.829523 -10.991875 2.266075
3.819806 -12.061317 -0.622280
4.272587 -12.109265 -0.581324
2.894207 -12.091339 -0.636751
3.392062 -11.266475 1.743525
3.347272 -12.157773 -0.645218
3.782419 -12.358326 -0.606821
4.209425 -11.395905 2.077494
4.236955 -12.424063 -0.612591
2.933965 -11.516515 1.668331
2.852952 -12.402455 -0.657318
3.367050 -11.335698 2.294107
3.308535 -12.455033 -0.628317
3.760130 -11.631131 2.038692
4.175746 -11.645024 2.152172
2.919833 -11.543153 2.322588
2.811769 -12.711133 -0.665432
3.323744 -11.754559 1.931837
3.268434 -12.774791 -0.664349
3.725906 -11.887993 2.097380
4.141904 -11.886176 2.247660
2.866377 -11.994412 1.889809
3.289419 -12.001081 2.019934
3.692238 -12.114288 2.232468
4.107846 -12.111237 2.382246
2.832143 -12.237410 1.989754
3.255545 -12.239267 2.128714
3.658692 -12.339078 2.369413
4.074466 -12.377596 2.417347
2.800536 -12.452370 2.156309
3.225674 -12.410167 2.396065
3.625968 -12.534667 2.572491
4.040690 -12.616394 2.519276
2.815694 -12.182439 3.443909
3.189432 -12.688643 2.407476
3.590104 -12.852642 2.493261
4.007064 -12.870491 2.586729
2.775241 -12.492708 3.362671
3.204172 -12.152655 4.258268
3.157588 -12.894794 2.586155
3.555901 -13.102949 2.572479
3.973407 -13.128428 2.647448
2.712960 -13.023377 2.802330
3.128889 -13.053271 2.866480
3.522605 -13.323450 2.717556
3.939626 -13.344136 2.801331
2.735484 -12.692142 4.135536
2.651163 -13.543614 2.294670
2.516997 -14.898420 -0.634392
3.129745 -12.765481 4.099340
3.089027 -13.384753 2.766768
3.503572 -13.123969 3.750507
3.906508 -13.176653 3.761038
2.732071 -12.629375 4.846668
2.609220 -13.859889 2.245680
2.471013 -15.244217 -0.680433
3.038035 -13.877635 2.336790
2.941783 -15.310802 -0.678566
3.481588 -13.055404 4.471754
3.455803 -13.777065 2.977049
3.872288 -13.835775 2.979254
2.700436 -12.851071 4.943150
2.429476 -15.544009 -0.623785
3.070770 -13.138141 4.466640
2.996829 -14.217229 2.246052
2.902831 -15.589026 -0.576878
3.412055 -14.280702 2.544804
3.841680 -13.594336 4.052652
2.670623 -13.054280 5.077442
2.381086 -15.910327 -0.698515
3.057944 -13.087637 5.122217
2.858903 -15.937722 -0.615856
3.403953 -13.856262 3.976229
3.804423 -14.383740 3.050226
2.629888 -13.364204 4.999418
2.338227 -16.220470 -0.653215
2.993455 -13.773129 4.304384
2.814293 -16.292719 -0.659937
3.372184 -14.062988 4.127172
3.270055 -16.540459 -0.681135
3.768513 -14.819125 2.779011
2.593922 -13.625989 5.022596
2.292856 -16.553875 -0.649170
2.922049 -14.538048 3.372503
2.769637 -16.645004 -0.691227
3.345960 -14.142368 4.518656
3.229024 -16.866186 -0.657215
3.738747 -14.722848 3.530088
2.561166 -13.855708 5.110332
2.246739 -16.893024 -0.650415
2.898974 -14.627831 3.759310
2.726692 -16.970926 -0.665655
3.309089 -14.471536 4.434011
3.188197 -17.183208 -0.612286
3.704384 -15.023059 3.520630
3.693219 -15.754398 2.165413
2.525443 -14.113284 5.147449
2.403098 -15.287460 2.966452
2.910348 -14.260444 4.980827
2.821609 -15.448687 2.783054
2.679271 -17.354630 -0.742176
3.269551 -14.851240 4.265558
3.144093 -17.567970 -0.686831
3.676522 -14.933652 4.223877
3.657385 -16.038553 2.218153
3.629892 -17.625942 -0.663433
2.482017 -14.443356 5.055916
2.154167 -17.570078 -0.633205
2.866721 -14.635973 4.811491
2.637961 -17.653940 -0.656790
3.167810 -16.524237 1.798933
3.101378 -17.916162 -0.687155
3.638736 -15.426124 3.868881
3.589633 -17.969467 -0.654957
2.337618 -15.728721 3.269863
2.103103 -17.951727 -0.693182
2.833364 -14.873207 4.899355
2.734577 -16.158094 2.618191
2.590544 -18.031479 -0.707779
3.058613 -18.260658 -0.675011
3.596637 -16.075043 3.260347
2.403773 -15.016928 5.049343
2.055278 -18.300941 -0.688095
2.698703 -16.409529 2.728292
2.546971 -18.356388 -0.659159
3.113291 -16.678185 2.648735
3.015070 -18.616282 -0.676418
3.559855 -16.427471 3.187634
2.370994 -15.242399 5.158581
2.004478 -18.676531 -0.722301
2.746242 -15.603963 4.642254
2.674811 -16.508598 3.099323
2.496835 -18.762606 -0.745071
3.086438 -16.761263 3.046690
2.970687 -18.983450 -0.691090
3.521601 -16.823288 3.050381
2.198956 -16.764900 3.090950
1.961511 -18.977371 -0.623547
2.708992 -15.884508 4.670557
2.631500 -16.853720 3.049841
2.454375 -19.069056 -0.654657
3.099941 -16.097561 4.666365
3.048134 -17.066696 3.067930
2.925403 -19.362564 -0.718735
3.487160 -17.056269 3.191353
3.425090 -19.385420 -0.635082
2.388301 -14.923718 6.646208
2.294338 -15.794545 5.212601
1.905619 -19.397074 -0.718098
2.646722 -16.472589 4.198595
2.405518 -19.453318 -0.689144
3.015366 -17.267830 3.262537
2.884052 -19.664665 -0.614515
3.449663 -17.398735 3.155964
3.382102 -19.781977 -0.684090
2.275119 -15.892817 5.532654
2.629190 -16.505457 4.642878
2.530294 -17.713533 2.699974
2.357551 -19.823711 -0.693741
3.018080 -16.837938 4.456467
3.445150 -16.631069 4.882057
3.404738 -17.978241 2.752766
3.340111 -20.132648 -0.652414
2.230891 -16.221222 5.481134
2.147795 -16.983416 4.274048
1.806111 -20.117464 -0.689358
2.605442 -16.617418 4.950766
2.307919 -20.211624 -0.719467
2.926322 -18.085045 3.000269
2.790660 -20.451283 -0.683058
3.381948 -17.823565 3.508873
3.297530 -20.495024 -0.633720
2.170878 -16.692116 5.215296
1.753555 -20.500994 -0.702543
2.547286 -17.142683 4.612610
2.454752 -18.248606 2.900892
2.260160 -20.574295 -0.698746
2.959403 -17.157558 4.925560
2.889198 -18.356548 3.094275
2.744620 -20.825697 -0.676998
3.346064 -18.101915 3.583437
3.310925 -19.161724 1.970839
3.253208 -20.902443 -0.677835
2.132816 -16.960693 5.273058
1.700630 -20.886200 -0.711298
2.483339 -17.729887 4.198364
2.207938 -20.987497 -0.749063
2.697925 -21.207016 -0.674999
3.304485 -18.541586 3.419962
3.276326 -19.353821 2.207081
3.210362 -21.256454 -0.634054
2.095854 -17.218372 5.350262
2.490269 -17.479525 5.053318
2.381445 -18.753975 3.153831
2.160470 -21.341827 -0.703197
2.651231 -21.584175 -0.660364
3.309433 -17.678072 5.178217
2.069426 -17.380426 5.570360
1.909599 -18.818666 3.458603
2.457817 -17.694826 5.201014
2.357706 -18.855982 3.502399
2.106941 -21.764515 -0.752382
2.856553 -17.894472 5.233019
2.600342 -22.025190 -0.731806
3.274483 -17.961016 5.228224
3.119687 -22.080780 -0.698997
2.012167 -17.818687 5.389662
2.403606 -18.159967 4.989979
2.874351 -17.313375 6.510822
2.551089 -22.434422 -0.748825
3.264136 -17.608906 6.178860
3.179718 -19.775202 3.119036
1.990311 -17.938761 5.671192
2.354132 -18.566444 4.874847
2.838676 -17.591991 6.551105
3.239712 -17.645138 6.561953
1.953143 -18.195179 5.758598
1.426043 -22.876436 -0.744394
2.405600 -17.829931 6.351587
2.229455 -19.818359 3.599293
1.951766 -22.953054 -0.739622
2.784344 -18.154381 6.207415
3.209843 -17.823948 6.742441
1.960599 -18.056120 6.387814
1.367598 -23.300648 -0.765882
2.364414 -18.146400 6.349535
2.759671 -18.258270 6.496801
2.651681 -19.888107 4.309364
3.173990 -18.144575 6.732147
3.080166 -20.329611 3.809937
1.930108 -18.253717 6.549023
1.720040 -20.103968 4.070625
2.349894 -18.164818 6.750826
2.739119 -18.304123 6.857853
3.139958 -18.418205 6.789349
3.060472 -20.216648 4.427105
1.882537 -18.600767 6.513361
2.309190 -18.474369 6.761642
2.696303 -18.680977 6.783039
2.550045 -20.824741 4.007612
2.300030 -24.489298 -0.736702
3.116905 -18.447184 7.165613
3.008975 -20.823248 4.100145
1.840160 -18.900890 6.545147
2.276060 -18.699289 6.886541
2.070397 -20.946878 3.992590
1.732483 -24.639782 -0.762323
2.556439 -20.456121 4.938175
2.247576 -24.921116 -0.739971
3.088775 -18.594837 7.383696
1.837272 -18.856091 7.019196
1.739403 -19.708015 5.937967
1.592597 -20.985903 4.316133
2.256656 -18.774776 7.201588
2.149903 -19.932688 5.737093
2.515512 -20.778461 4.978971
2.194266 -25.360998 -0.745779
3.082160 -18.295624 8.155943
3.003786 -19.935606 6.114201
1.700760 -19.971508 6.035709
1.550353 -21.275814 4.409592
1.068907 -25.450846 -0.795546
2.306379 -18.107573 8.433895
2.208717 -19.159149 7.127354
1.618092 -25.518686 -0.774103
2.469873 -21.164669 4.946083
2.140972 -25.796463 -0.738447
3.028703 -18.977707 7.706366
2.951931 -20.546698 5.787313
1.640879 -20.417654 5.912230
2.256127 -18.521288 8.309109
2.015884 -21.089748 5.174002
1.563799 -25.923010 -0.725557
2.614070 -18.906487 8.109110
2.472857 -20.870596 5.740831
2.879030 -21.561222 4.992990
2.640984 -26.317759 -0.722979
1.865397 -18.413391 8.747639
1.748410 -19.420471 7.535820
0.947269 -26.317072 -0.762825
2.228120 -18.695520 8.481285
1.971624 -21.418789 5.215458
2.596712 -18.927813 8.467367
2.976726 -19.206200 8.211048
1.709821 -19.684824 7.617279
1.504114 -21.449337 5.531185
0.881740 -26.787951 -0.780386
2.202105 -18.848742 8.677711
2.117589 -19.740019 7.627529
1.952845 -21.477369 5.580439
2.565631 -19.139587 8.597046
2.381162 -21.645468 5.680017
2.943450 -19.466042 8.289762
2.774849 -22.695902 4.542486
2.535061 -27.289484 -0.786970
1.655905 -20.079275 7.550556
1.450425 -21.835684 5.510262
2.117151 -19.619696 8.157650
1.897331 -21.922653 5.491385
2.537035 -19.317616 8.766409
2.920244 -19.534784 8.589268
2.748667 -22.757357 4.915344
2.483407 -27.739487 -0.764585
1.782731 -18.932304 9.251410
1.625389 -20.272610 7.721563
1.390919 -22.269924 5.441793
2.105161 -19.623449 8.534035
1.320916 -27.787060 -0.753193
2.492590 -19.706533 8.698502
2.427639 -20.569550 7.728458
2.892473 -19.692932 8.783968
1.728634 -19.329943 9.166727
1.373841 -22.342016 5.788389
2.136960 -19.176373 9.407156
1.999322 -20.600172 7.815477
1.820521 -22.449785 5.747780
2.472619 -19.769562 8.998592
2.866763 -19.815527 9.016813
2.784340 -21.307127 7.374638
1.685072 -19.636614 9.190836
1.533869 -20.916010 7.780737
2.072815 -19.723272 9.163900
2.422981 -20.221291 8.872183
2.815044 -20.403519 8.743858
1.658087 -19.802258 9.372568
2.053458 -19.807863 9.433790
1.937356 -20.994463 8.152775
1.128619 -29.259975 -0.770414
2.358882 -20.854176 8.562698
2.703126 -22.031315 7.380499
1.603668 -20.198229 9.308659
2.026430 -19.971352 9.616467
2.412409 -19.977552 9.852320
2.772213 -20.499310 9.372023
1.521617 -20.823984 9.012444
1.888155 -21.258762 8.626825
1.705651 -23.102610 6.704374
1.590133 -24.269690 5.487543
2.322278 -20.937042 9.211901
2.705697 -21.318491 8.886791
1.460030 -21.275600 8.911409
1.884114 -21.185013 9.071905
2.296116 -21.081100 9.425058
2.709981 -20.937996 9.635126
2.549814 -23.610113 6.938066
1.493767 -20.931297 9.624054
1.394441 -21.758488 8.788414
0.961784 -25.361666 5.148428
1.840854 -21.505793 9.110609
2.253093 -21.435299 9.427908
2.651714 -21.603003 9.326857
1.442263 -21.297520 9.612995
1.072659 -24.366255 6.566381
1.797340 -21.827425 9.153374
2.221895 -21.641077 9.582006
2.616495 -21.881374 9.412260
2.379102 -25.729891 5.660332
1.305085 -22.371405 8.918056
1.805646 -21.635077 9.700891
2.163641 -22.176815 9.419958
2.585207 -22.094900 9.563187
1.433928 -21.244007 10.364037
1.308471 -22.279465 9.371222
1.722034 -22.350510 9.368298
1.592305 -23.626602 8.148600
1.439854 -25.126188 6.715281
2.103959 -22.724144 9.258917
2.547058 -22.416491 9.613585
1.361202 -21.782623 10.196869
1.640824 -23.036860 9.080891
1.510115 -24.316147 7.879250
2.077547 -22.866161 9.486208
1.850972 -25.587524 6.960094
2.326583 -25.576099 7.042538
1.296542 -22.252544 10.105383
1.085460 -23.984625 8.501560
1.635153 -22.982365 9.493879
1.495968 -24.337904 8.242624
2.052007 -22.998533 9.721155
2.377382 -24.488008 8.429699
1.242046 -22.637205 10.101110
1.647782 -22.752581 10.058403
2.055017 -22.794094 10.256655
2.429250 -23.415167 9.762796
2.346479 -24.673798 8.638033
1.153487 -23.298212 9.856512
1.605303 -23.058081 10.133039
2.008768 -23.173721 10.265915
2.420105 -23.289291 10.225346
1.087734 -23.770542 9.792944
1.557953 -23.408934 10.172134
1.961500 -23.562366 10.273817
2.337598 -24.261093 9.731604
0.945225 -24.863665 9.202656
1.209116 -26.639561 7.738407
1.907280 -24.028555 10.222412
2.313370 -24.359444 10.002552
1.083208 -27.721439 7.213634
1.660631 -26.702452 8.335161
2.266815 -24.784805 9.998863
2.116441 -26.971523 8.177284
1.980312 -28.951078 6.528273
1.624221 -26.942732 8.519129
2.043696 -27.746614 7.926754
1.571439 -27.368158 8.555372
2.080620 -26.948240 8.958256
1.433611 -28.748886 7.841728
1.876247 -29.573936 7.257385
1.372639 -29.254211 7.842941
1.970110 -27.986710 8.893394
1.950120 -28.009407 9.253441
0.216964 -41.686001 -0.700756
1.881166 -28.707340 9.103909
0.125557 -42.447216 -0.707781
0.843818 -42.562061 -0.699627
3.899386 -0.958745 29.874712
3.906824 -0.918780 29.904110
3.899579 -0.953750 29.884970
3.908202 -0.896882 29.925047
3.906112 -0.922783 29.909891
3.901362 -0.931931 29.906116
3.903971 -0.948957 29.895178
3.901904 -0.924940 29.913639
3.908223 -0.892012 29.935728
3.900882 -0.934577 29.910196
3.908679 -0.884705 29.942818
3.903844 -0.902208 29.933620
3.911138 -0.851995 29.965775
3.900409 -0.937151 29.914324
3.902951 -0.954549 29.903969
3.899359 -0.946917 29.911211
3.904735 -0.930331 29.921759
3.900769 -0.931101 29.923615
3.905884 -0.914394 29.934000
3.907068 -0.898265 29.945951