# This PCD file was generated using the MATLAB® pcwrite function
# from Computer Vision System Toolbox®.
# .PCD v.7 - Point Cloud Data file format
VERSION .7
FIELDS x y z
SIZE 4 4 4
TYPE F F F
COUNT 1 1 1
WIDTH 1115
HEIGHT 1
VIEWPOINT 0 0 0 1 0 0 0
POINTS 1115
DATA ascii
3.801161 31.252527 -1.304167
3.096602 30.937449 -1.346966
3.658720 30.483505 -1.068771
2.986435 30.372311 -1.310684
3.551275 29.984901 -1.093374
2.888110 29.913816 -1.374565
3.456551 29.584572 -1.212242
2.790485 29.456434 -1.432686
3.358940 29.157076 -1.297297
2.683498 28.898266 -1.375517
3.271596 28.811512 -1.464905
2.590198 28.471172 -1.450771
3.169392 28.337776 -1.488581
2.497489 28.044886 -1.520823
3.064176 27.832500 -1.469072
2.385632 27.407940 -1.346390
2.956987 27.303274 -1.413038
2.294724 26.985474 -1.404272
2.862759 26.881308 -1.470785
2.202118 26.538074 -1.426674
2.754103 26.324787 -1.363728
2.109171 26.079405 -1.428236
2.629398 25.612263 -1.057724
2.025791 25.724279 -1.547316
2.556670 25.368584 -1.304792
1.935343 25.280979 -1.553844
2.476325 25.053705 -1.464342
1.841656 24.789640 -1.492430
2.383198 24.614073 -1.464138
1.747627 24.282700 -1.401138
2.285903 24.127228 -1.395502
1.659538 23.839991 -1.382486
2.192770 23.673628 -1.360302
1.576835 23.459566 -1.438099
2.106461 23.282307 -1.399281
1.490333 23.020365 -1.409113
2.016770 22.850548 -1.377438
1.406797 22.612782 -1.415121
1.932886 22.473562 -1.423105
1.322407 22.183475 -1.383802
1.851126 22.114813 -1.488861
1.234776 21.693096 -1.257368
1.761105 21.659327 -1.411448
1.156288 21.331404 -1.305599
1.674628 21.234999 -1.369547
1.079970 20.998491 -1.391136
1.591418 20.840847 -1.363941
1.003952 20.665659 -1.473125
1.513925 20.508936 -1.445383
0.922564 20.229044 -1.392597
1.428038 20.068342 -1.355696
1.897085 19.793409 -1.433460
0.846134 19.870836 -1.424555
1.346560 19.673700 -1.328022
1.811533 19.389387 -1.386572
2.314935 19.276524 -1.420786
0.770738 19.524187 -1.469463
1.273799 19.386909 -1.465187
1.729983 19.018976 -1.385942
2.231339 18.911974 -1.428452
0.693616 19.130917 -1.434050
1.192378 18.979025 -1.403683
1.647562 18.634497 -1.355455
2.143226 18.507660 -1.363523
0.618179 18.760370 -1.428280
1.114020 18.604492 -1.388725
1.573175 18.328207 -1.449463
2.057893 18.120975 -1.319611
0.545016 18.432158 -1.487089
1.038387 18.262060 -1.421154
1.493396 17.961493 -1.436699
1.985396 17.836046 -1.444181
0.472203 18.104286 -1.542456
0.962899 17.915400 -1.441229
1.414279 17.596313 -1.419807
1.903632 17.471748 -1.426947
0.398433 17.737093 -1.524933
0.890025 17.604242 -1.518387
1.339246 17.271650 -1.468620
1.793280 16.857529 -0.951420
0.326494 17.410597 -1.573095
0.815431 17.259039 -1.531233
1.261729 16.913872 -1.452656
1.739947 16.728880 -1.345108
0.253419 17.026779 -1.512674
0.739270 16.876596 -1.470125
1.184468 16.552885 -1.423920
1.668673 16.444756 -1.456577
0.182457 16.702101 -1.553541
0.666856 16.552952 -1.510462
1.113424 16.263254 -1.523895
1.593431 16.123034 -1.494473
0.022255 11.550666 7.563850
0.111098 16.335960 -1.511429
0.593933 16.211288 -1.511997
1.033418 15.854333 -1.389971
1.497720 15.606717 -1.146410
0.041148 16.017612 -1.554087
0.520944 15.857100 -1.483170
0.955533 15.462332 -1.277996
1.422231 15.271510 -1.140182
-0.031781 15.383790 -0.968832
0.445316 15.423838 -1.289608
0.878670 15.073367 -1.161470
1.347296 14.937529 -1.130350
-0.099452 15.102723 -1.065039
0.368928 14.937690 -0.974154
0.808645 14.774308 -1.220522
1.272921 14.604812 -1.116934
-0.166977 14.847272 -1.212574
0.303113 14.717933 -1.193270
0.736706 14.441208 -1.204277
1.202368 14.307266 -1.172363
-0.224887 10.764783 6.711174
-0.234384 14.491847 -1.150057
0.231720 14.321038 -1.039768
0.666346 14.126189 -1.220795
1.132075 14.009830 -1.224840
-0.301326 14.180606 -1.174355
0.165502 14.086581 -1.226862
0.598261 13.844802 -1.306980
1.062046 13.712526 -1.274368
-0.368033 13.882365 -1.222815
0.098104 13.808946 -1.320879
0.526893 13.498433 -1.244129
0.986715 13.351345 -1.174440
-0.433911 13.551882 -1.195202
-0.025570 10.118891 6.350861
0.029919 13.478404 -1.293295
0.458584 13.201577 -1.287716
0.918861 13.071338 -1.254314
-0.500623 13.286435 -1.310930
-0.037112 13.196655 -1.372496
0.390556 12.904942 -1.328375
0.847422 12.744769 -1.220842
-0.565952 12.969321 -1.304558
-0.104370 12.864238 -1.329155
0.321586 12.578163 -1.292130
0.777741 12.434775 -1.220970
-0.630025 12.630347 -1.239487
-0.171002 12.525914 -1.263805
0.253757 12.267798 -1.289593
0.709588 12.140447 -1.255110
-0.695000 12.334517 -1.272831
-0.237075 12.241549 -1.324862
0.176897 11.656178 -0.510937
0.642734 11.860868 -1.323656
-0.749451 11.815778 -0.735691
-0.299872 11.601218 -0.470095
0.110473 11.311551 -0.387447
0.572564 11.528017 -1.249283
-0.811128 11.496808 -0.686728
-0.361709 11.189392 -0.167549
0.043408 10.896729 -0.063337
0.505243 11.231793 -1.265211
-0.750761 9.124760 4.862825
-0.886454 11.421027 -1.280657
-0.426749 11.023080 -0.507185
-0.018677 10.685553 -0.279655
0.436933 10.912512 -1.212343
-0.796501 8.808162 5.066916
-0.948912 11.110160 -1.255304
-0.493893 10.892467 -0.958910
-0.078907 10.690729 -1.116938
0.371317 10.634432 -1.269472
-1.012331 10.820560 -1.283365
-0.507277 9.092529 3.325972
-0.560432 10.692003 -1.231194
-0.152541 8.617304 4.069628
-0.143701 10.387388 -1.095478
0.305257 10.343307 -1.286125
-0.848032 7.740756 6.780539
-0.875398 8.076529 5.807190
-1.076262 10.541035 -1.337000
-0.558463 8.762246 3.550930
-0.624204 10.400420 -1.246672
-0.206119 8.336929 4.175394
-0.208053 10.123099 -1.184841
0.239125 10.043254 -1.271475
-0.894663 7.527168 6.762064
-1.135170 10.207294 -1.226927
-0.561806 7.453497 6.740396
-0.686901 10.093566 -1.211885
-0.272202 9.833372 -1.195723
0.172765 9.725880 -1.196722
-1.009989 8.014038 4.597944
-1.198722 9.931932 -1.284416
-0.600113 7.080705 7.218851
-0.662600 8.216429 3.698023
-0.750419 9.812584 -1.250164
-0.335675 9.520171 -1.127502
0.107935 9.437212 -1.204651
-1.091124 8.066201 3.682114
-1.257914 9.617067 -1.215498
-0.647477 6.895896 7.129507
-0.812774 9.516709 -1.238104
-0.398990 9.232166 -1.132620
0.043445 9.149091 -1.209806
-1.320233 9.336356 -1.248487
-0.702426 6.814713 6.697380
-0.875122 9.227532 -1.242296
-0.390133 6.454027 7.284027
-0.461960 8.944736 -1.134975
-0.021784 8.805410 -1.020239
-1.004853 6.092961 8.662167
-1.381595 9.050033 -1.259697
-0.935984 8.924814 -1.195776
-0.435974 6.249952 7.266695
-0.524174 8.646889 -1.096134
-0.109192 6.634318 5.638647
-0.085603 8.487399 -0.903948
-1.042570 5.869637 8.754539
-1.114230 6.388100 6.959282
-1.438811 8.736430 -1.172195
-0.995804 8.618039 -1.127041
-0.467116 5.725251 8.407516
-0.583579 8.299533 -0.871300
-0.160979 6.009824 7.104681
-0.158148 6.504107 5.301191
-0.150489 7.841578 0.421158
-1.086517 5.694050 8.685633
-1.502165 8.470677 -1.245131
-0.796767 5.736617 8.272005
-1.051791 8.281110 -0.939627
-0.509673 5.520996 8.435289
-0.557718 6.407144 5.132437
-0.629504 7.731184 0.197474
-0.207104 5.730898 7.371256
-0.210183 7.521125 0.614391
-1.140221 5.577682 8.396427
-1.549845 8.107763 -0.958836
-0.835265 5.502707 8.406523
-0.887085 5.969577 6.658541
-1.097227 7.862848 -0.429970
-0.572204 5.636228 7.235832
-0.602925 6.117910 5.377489
-0.681331 7.347203 0.634842
-0.269779 7.308618 0.404142
-1.194865 5.456763 8.107798
-1.257160 5.812920 6.744942
-1.581889 7.669483 -0.359301
-0.927113 5.713456 6.830420
-0.986136 6.195373 4.962490
-1.126200 7.338989 0.529778
-0.592304 5.095715 8.574375
-0.741307 7.109509 0.523760
-0.297157 5.286213 7.515739
-0.331732 7.193699 -0.212254
-1.247675 5.316631 7.877913
-1.381915 6.027647 5.059307
-1.618104 7.278645 0.100111
-0.911872 5.057477 8.624701
-1.014673 5.820421 5.559906
-1.180260 7.049341 0.623264
-0.635643 4.918233 8.511028
-0.806396 6.929014 0.171722
-0.341985 5.088293 7.498894
-0.355074 5.569535 5.475372
-0.386724 6.733308 0.581957
-1.280508 5.071437 8.066292
-1.363683 5.479819 6.387241
-1.648788 6.879648 0.631889
-0.958141 4.898839 8.484520
-1.240878 6.810749 0.515539
-0.868222 6.697787 0.015554
-0.384014 4.819069 7.795797
-0.409061 5.497235 4.832510
-0.445478 6.483253 0.524046
-1.309356 4.816156 8.315609
-1.710550 6.642829 0.516714
-0.997468 4.693181 8.540335
-1.311462 6.631508 0.146961
-0.728127 4.613366 8.154829
-0.927754 6.440415 -0.031389
-0.426566 4.596066 7.910143
-0.508647 6.327178 0.038668
-1.368169 4.697151 7.983137
-1.802098 6.529587 -0.151751
-1.079715 4.733513 7.495813
-1.364420 6.340322 0.257479
-0.839964 4.984677 5.515184
-0.987689 6.186885 -0.095558
-0.471475 4.426960 7.782146
-0.569089 6.088952 -0.093813
-1.375802 4.367993 8.597967
-1.870143 6.304017 -0.351686
-1.104634 4.439829 7.934776
-1.207832 4.972877 5.433018
-1.438413 6.163907 -0.156858
-0.819812 4.277586 7.901157
-1.050632 5.954817 -0.265190
-0.517802 4.271841 7.577120
-0.547200 4.685918 5.528759
-0.629766 5.848901 -0.224287
-1.438302 4.258527 8.209742
-1.926405 6.030846 -0.334742
-1.130130 4.165953 8.318344
-1.246319 4.715615 5.626343
-1.501511 5.922872 -0.286272
-0.868164 4.120410 7.707720
-0.931538 4.532905 5.608809
-1.110405 5.697140 -0.315226
-0.562649 4.088862 7.500847
-0.597375 4.500668 5.370564
-0.691953 5.622222 -0.431269
-1.495780 4.121324 7.929722
-1.984046 5.764208 -0.344635
-1.180412 4.013837 8.116659
-1.559090 5.655137 -0.286177
-0.883316 3.762929 8.566582
-0.984903 4.356655 5.403425
-1.169777 5.437162 -0.353134
-0.607766 3.906691 7.416325
-0.640591 4.238666 5.616987
-0.751803 5.363386 -0.479128
-1.530873 3.907054 8.033091
-2.044429 5.507094 -0.401134
-1.218375 3.807274 8.191069
-1.620540 5.404276 -0.372005
-1.027803 4.119124 5.524055
-1.231030 5.187476 -0.447731
-0.644068 3.645498 7.776485
-0.675858 3.922340 6.200939
-0.807390 5.067776 -0.317884
-1.594947 3.780101 7.667107
-1.755843 4.243805 5.103676
-2.105991 5.252939 -0.474989
-1.251522 3.586521 8.355972
-1.386543 4.077580 5.592508
-1.682051 5.152317 -0.455639
-1.284944 4.901335 -0.333265
-0.867522 4.816431 -0.400270
-1.614490 3.525270 8.010002
-1.750535 3.887496 5.905273
-2.165665 4.992793 -0.517101
-1.311816 3.461993 7.971592
-1.742121 4.894288 -0.507526
-1.031252 3.308844 7.893297
-1.346730 4.654104 -0.442965
-0.757382 3.442310 6.609341
-0.926760 4.557770 -0.440956
-1.825055 3.749452 5.460257
-2.223272 4.727433 -0.527348
-1.358371 3.285330 7.873898
-1.486567 3.675437 5.438269
-1.792784 4.607274 -0.379627
-1.067147 3.093512 8.043215
-1.406327 4.396271 -0.491266
-0.832029 3.411882 5.452768
-0.984613 4.291342 -0.429897
-1.858631 3.508012 5.637249
-2.270545 4.439345 -0.387291
-1.398660 3.089279 7.896187
-1.856145 4.360134 -0.495813
-1.153331 3.057472 6.968929
-1.463383 4.129371 -0.477936
-0.816428 2.883892 7.690508
-0.876790 3.189131 5.522722
-1.042441 4.026794 -0.426311
-1.706195 2.885376 8.452269
-2.332270 4.185624 -0.461670
-1.458743 2.944607 7.564436
-1.914128 4.097190 -0.511024
-1.202988 2.877417 6.824638
-1.269347 3.083634 5.299953
-1.518412 3.857621 -0.422575
-0.850626 2.654856 7.963133
-1.100299 3.763893 -0.430231
-1.749261 2.704211 8.409449
-1.943049 3.072895 5.721527
-2.394034 3.930899 -0.533819
-1.470349 2.680401 8.084669
-1.597183 2.972180 5.907797
-1.969613 3.828951 -0.484295
-1.260666 2.716420 6.513369
-1.575229 3.593349 -0.414265
-0.931303 2.616837 6.730274
-1.155101 3.490161 -0.342501
-1.814266 2.560617 8.071470
-2.444858 3.656127 -0.455349
-1.631052 2.740662 6.091896
-2.022964 3.557695 -0.425409
-1.307162 2.519872 6.461243
-1.632712 3.331797 -0.423409
-0.983916 2.446215 6.469833
-1.212986 3.230705 -0.361454
-1.868393 2.392422 7.892973
-2.504146 3.397165 -0.493162
-1.674472 2.532142 6.109676
-2.081379 3.298088 -0.453264
-1.359045 2.334540 6.301628
-1.688040 3.065967 -0.390486
-1.012004 2.195316 6.926275
-1.271413 2.973255 -0.397961
-2.556418 3.127853 -0.439486
-1.736650 2.356258 5.831675
-2.134598 3.029636 -0.399424
-1.434686 2.192653 5.686481
-1.744533 2.803899 -0.384966
-1.114959 2.153307 5.326471
-1.327893 2.710525 -0.382448
-2.609831 2.861683 -0.403202
-1.801016 2.177744 5.535242
-2.189991 2.766245 -0.382864
-1.490402 2.001945 5.489923
-1.800252 2.541189 -0.367151
-1.152094 1.921127 5.557493
-1.197713 2.024778 4.392986
-1.384089 2.448239 -0.364571
-2.163047 2.019537 5.778255
-2.668533 2.602827 -0.433979
-1.850217 1.972635 5.478739
-2.248455 2.507819 -0.413618
-1.534699 1.789733 5.513895
-1.857861 2.282265 -0.386774
-1.440404 2.187216 -0.354292
-2.723001 2.339361 -0.412806
-1.886336 1.751146 5.612961
-2.304055 2.245747 -0.402304
-1.595081 1.599665 5.251041
-1.910818 2.017179 -0.324440
-1.251845 1.516972 5.358398
-1.495608 1.925076 -0.321747
-2.773792 2.073341 -0.349531
-1.946599 1.557695 5.401028
-2.353013 1.977405 -0.299110
-1.965657 1.755921 -0.299561
-1.551371 1.664873 -0.306784
-2.824997 1.809191 -0.293804
-2.409380 1.718061 -0.302973
-2.022601 1.497488 -0.312206
-1.608267 1.406661 -0.319418
-2.888145 1.554369 -0.374922
-2.470038 1.462113 -0.364258
-2.080011 1.239410 -0.332518
-1.665008 1.148313 -0.329752
-2.942383 1.293163 -0.354311
-2.520774 1.198986 -0.293797
-2.136660 0.980639 -0.340559
-1.721590 0.889848 -0.337782
-2.998187 1.033204 -0.351267
-2.583596 0.943384 -0.380377
-2.192488 0.721452 -0.336323
-1.775403 0.629835 -0.293600
-3.055666 0.773999 -0.365816
-2.640129 0.683878 -0.384968
-2.246084 0.461654 -0.299852
-1.831562 0.371622 -0.297022
-3.112054 0.514306 -0.368099
-2.692385 0.423198 -0.337435
-2.302138 0.203077 -0.300976
-1.890340 0.113951 -0.348063
-3.168267 0.254565 -0.368071
-2.748480 0.164003 -0.337406
-2.361579 -0.055218 -0.349669
-1.946243 -0.144784 -0.346884
-3.224302 -0.005205 -0.365732
-2.808687 -0.094966 -0.384888
-2.416637 -0.314255 -0.336210
-1.998991 -0.403282 -0.293489
-3.280153 -0.264982 -0.361080
-2.864512 -0.354624 -0.380238
-2.472972 -0.573334 -0.340393
-2.057504 -0.662288 -0.337618
-3.334786 -0.524658 -0.344170
-2.920150 -0.614270 -0.373278
-2.528387 -0.832370 -0.332298
-2.112854 -0.921017 -0.329531
-3.391289 -0.784484 -0.344841
-2.971032 -0.872859 -0.314226
-2.583609 -1.091365 -0.321896
-2.168010 -1.179706 -0.319141
-3.445498 -1.043907 -0.323317
-3.030847 -1.133449 -0.352428
-2.638633 -1.350300 -0.309191
-2.222969 -1.438335 -0.306452
-3.504895 -1.304819 -0.349169
-3.085898 -1.392943 -0.338541
-2.692634 -1.608706 -0.284227
-2.277727 -1.696882 -0.291464
-3.559821 -1.564598 -0.332949
-3.144612 -1.654189 -0.362118
-2.747232 -1.867375 -0.266928
-2.332279 -1.955330 -0.274176
-3.620143 -1.826849 -0.364040
-3.198337 -1.913277 -0.333656
-2.809343 -2.131486 -0.336819
-2.392396 -2.218838 -0.334213
-3.674736 -2.086812 -0.343170
-3.257830 -2.175851 -0.362478
-2.859299 -2.387146 -0.265171
-2.443709 -2.474777 -0.272493
-3.729112 -2.346625 -0.319990
-3.307078 -2.431963 -0.289698
-2.921369 -2.652831 -0.330303
-2.503749 -2.739688 -0.327787
-3.791487 -2.611670 -0.363808
-3.369426 -2.697472 -0.343571
-2.975333 -2.912007 -0.303699
-2.557650 -2.998559 -0.301214
-3.856268 -2.879429 -0.424974
-3.431833 -2.964152 -0.394999
-3.040217 -3.182483 -0.393723
-2.620835 -3.269080 -0.391380
-3.910248 -3.140031 -0.394716
-3.486774 -3.225182 -0.374699
-3.093933 -3.442259 -0.362392
-2.674488 -3.528552 -0.360086
-3.967674 -3.403482 -0.391760
-3.544790 -3.489319 -0.381723
-3.150304 -3.705179 -0.358427
-2.731215 -3.792412 -0.366085
-4.027455 -3.669413 -0.406143
-3.598272 -3.749322 -0.346857
-3.208501 -3.970773 -0.371841
-2.787841 -4.056690 -0.369688
-4.080857 -3.929941 -0.368855
-3.660519 -4.018858 -0.388567
-3.269623 -4.240826 -0.412420
-2.847811 -4.326671 -0.410385
-4.144244 -4.200421 -0.407934
-3.722795 -4.289457 -0.427765
-3.321629 -4.499495 -0.361820
-2.900770 -4.586418 -0.369682
-4.197283 -4.461024 -0.365915
-3.775810 -4.549942 -0.385765
-3.383676 -4.772337 -0.407318
-2.949889 -4.839864 -0.287291
-4.260573 -4.732889 -0.400040
-3.837989 -4.821927 -0.420012
-3.432122 -5.026200 -0.322544
-3.002269 -5.098614 -0.242041
-4.311901 -4.991950 -0.343487
-3.888234 -5.079278 -0.353664
-3.484437 -5.285568 -0.274820
-3.057179 -5.361997 -0.223946
-4.373708 -5.263411 -0.362865
-3.941781 -5.340862 -0.314434
-3.540822 -5.551430 -0.263964
-3.117612 -5.635992 -0.262262
-4.436846 -5.537357 -0.389462
-3.995092 -5.602223 -0.272869
-3.591567 -5.808551 -0.201801
-3.169397 -5.894613 -0.209938
-4.473740 -5.778314 -0.228374
-4.046918 -5.861526 -0.219212
-3.653178 -6.083948 -0.234945
-3.228758 -6.168138 -0.233442
-4.536543 -6.052505 -0.250132
-4.112348 -6.141284 -0.270359
-3.709141 -6.350561 -0.216776
-3.280124 -6.426570 -0.176390
-4.600745 -6.329535 -0.278992
-4.168912 -6.408555 -0.250774
-3.766103 -6.619435 -0.205881
-3.339322 -6.701202 -0.194868
-4.650650 -6.587236 -0.208349
-4.220142 -6.667758 -0.189943
-3.820607 -6.884388 -0.173098
-3.394373 -6.968024 -0.171911
-4.708914 -6.856991 -0.193436
-4.277639 -6.937213 -0.175201
-3.885569 -7.169319 -0.225004
-3.458688 -7.255253 -0.233686
-4.775826 -7.140278 -0.233885
-4.344298 -7.222613 -0.225559
-3.941028 -7.437297 -0.196852
-3.601821 -7.716694 -1.007902
-4.839838 -7.420286 -0.252312
-4.405672 -7.500210 -0.234564
-4.083856 -7.877182 -0.859940
-3.662179 -8.001225 -1.014114
-4.896357 -7.689388 -0.220039
-4.475160 -7.792965 -0.298588
-4.159832 -8.190826 -0.978991
-3.678658 -8.186598 -0.632776
-4.963276 -7.975727 -0.252317
-4.588818 -8.166829 -0.666525
-4.191208 -8.415333 -0.749580
-3.739371 -8.471875 -0.644091
-5.079117 -8.344333 -0.587456
-4.695275 -8.532297 -0.972567
-4.238183 -8.670819 -0.642935
-3.798925 -8.755356 -0.643074
-5.174391 -8.682775 -0.784781
-4.711177 -8.731790 -0.654163
-4.297532 -8.952329 -0.629498
-3.852690 -9.025793 -0.591600
-5.220358 -8.939022 -0.674232
-4.772935 -9.016520 -0.648684
-4.358068 -9.237125 -0.622889
-3.912017 -9.310196 -0.585260
-5.275347 -9.210777 -0.618357
-4.828856 -9.290651 -0.602505
-4.419831 -9.525427 -0.623022
-3.975957 -9.606860 -0.614162
-5.345995 -9.510932 -0.654488
-4.897656 -9.590758 -0.638947
-4.490818 -9.835217 -0.686558
-4.039932 -9.904778 -0.640099
-5.402252 -9.786014 -0.602777
-4.957697 -9.874437 -0.615740
-4.555245 -10.131676 -0.699726
-4.100317 -10.194712 -0.634726
-5.468010 -10.079143 -0.604877
-5.019092 -10.161571 -0.599218
-4.637299 -10.469765 -0.832169
-4.159410 -10.482207 -0.617105
-5.538631 -10.382443 -0.632166
-5.092382 -10.474310 -0.654928
-4.697775 -10.759706 -0.810905
-4.222101 -10.779924 -0.624847
-5.605988 -10.680692 -0.637686
-5.159740 -10.775993 -0.669977
-4.758133 -11.050140 -0.786825
-3.541957 -9.110867 4.925550
-4.276011 -11.055436 -0.564140
-5.676645 -10.986435 -0.658819
-5.227097 -11.078803 -0.681973
-4.814161 -11.330950 -0.731983
-3.562836 -9.274637 5.147829
-4.344865 -11.371493 -0.612730
-5.738918 -11.276712 -0.630451
-5.288264 -11.369213 -0.653749
-4.874218 -11.622053 -0.702335
-3.588093 -9.449217 5.333895
-4.412548 -11.685807 -0.648710
-5.814623 -11.594815 -0.673178
-5.355537 -11.673870 -0.659704
-4.939863 -11.927668 -0.706841
-3.553162 -9.457923 5.946978
-4.477710 -11.994551 -0.662891
-5.863057 -11.858528 -0.565201
-5.403893 -11.937157 -0.551901
-4.993914 -12.205480 -0.634506
-4.540255 -12.297215 -0.655451
-5.940432 -12.182265 -0.610870
-5.478882 -12.260983 -0.597967
-5.065221 -12.527212 -0.669760
-3.755446 -10.225453 5.237247
-4.610681 -12.622989 -0.700094
-6.009216 -12.489462 -0.607363
-5.552375 -12.582889 -0.631409
-5.129228 -12.831735 -0.655857
-3.777908 -10.392086 5.439440
-4.679870 -12.946728 -0.732096
-6.084969 -12.812574 -0.637125
-5.617847 -12.887520 -0.615826
-4.369863 -11.013407 4.400311
-5.188690 -13.125516 -0.611526
-3.632010 -10.076324 6.773737
-4.754532 -13.287507 -0.797144
-6.151940 -13.118135 -0.618078
-4.813439 -11.140883 4.244501
-5.691396 -13.212165 -0.642559
-4.409377 -11.233026 4.500492
-5.252489 -13.431332 -0.591532
-3.715638 -10.413450 6.546497
-4.814330 -13.587024 -0.758497
-5.247818 -11.300041 4.328173
-6.222385 -13.432225 -0.613985
-4.849859 -11.354264 4.364685
-5.750182 -13.502974 -0.584393
-4.444005 -11.439821 4.629728
-5.317712 -13.741865 -0.577461
-3.759906 -10.638553 6.585993
-4.853267 -13.826567 -0.581123
-6.274831 -13.707570 -0.516628
-4.869285 -11.526424 4.576780
-5.817057 -13.813891 -0.568443
-4.478212 -11.645300 4.760672
-5.395107 -14.085839 -0.632210
-3.844467 -10.982793 6.366346
-4.922307 -14.154416 -0.600142
-5.270280 -11.615143 4.816378
-6.364946 -14.067466 -0.604906
-4.921510 -11.777528 4.610447
-5.898917 -14.162392 -0.630039
-4.553695 -11.961548 4.651241
-5.454106 -14.382045 -0.575550
-4.992784 -14.487883 -0.624615
-5.294030 -11.798761 4.994699
-6.440720 -14.396970 -0.617655
-4.933114 -11.929129 4.861097
-5.972500 -14.492277 -0.643044
-4.545354 -12.052254 5.027617
-5.526929 -14.716475 -0.596298
-5.056198 -14.801615 -0.600786
-5.344766 -12.043371 5.041052
-6.505487 -14.702607 -0.573538
-4.957543 -12.111272 5.041252
-6.030790 -14.785398 -0.572414
-4.677293 -12.524962 4.603668
-5.602933 -15.061036 -0.631180
-4.255531 -12.506828 4.782192
-5.123820 -15.129100 -0.600397
-5.038291 -11.461285 6.796808
-5.404592 -12.309572 5.045628
-6.581197 -15.034372 -0.579374
-5.005409 -12.351683 5.098684
-6.114555 -15.143206 -0.631767
-4.653581 -12.572098 5.062326
-5.666337 -15.372328 -0.591446
-4.278831 -12.678960 4.983414
-5.188519 -15.448941 -0.578785
-5.037689 -11.578107 7.069216
-5.445753 -12.533072 5.141104
-5.053083 -12.592086 5.158491
-6.172563 -15.437375 -0.554785
-4.580534 -12.478595 5.783962
-5.740788 -15.715360 -0.610159
-4.310280 -12.875550 5.132832
-5.256055 -15.778594 -0.571445
-5.120697 -11.890809 6.947481
-5.494117 -12.773680 5.203579
-6.732592 -15.701796 -0.580217
-5.177155 -13.029003 4.834524
-6.247726 -15.776118 -0.562672
-4.342583 -11.915728 7.387178
-4.640666 -12.754547 5.765442
-5.808826 -16.041817 -0.590012
-4.348642 -13.093394 5.239933
-5.326496 -16.118481 -0.578106
-5.120914 -12.008021 7.213402
-5.527162 -12.978136 5.338209
-4.777782 -12.114318 7.128181
-6.321139 -16.111712 -0.558100
-4.366243 -12.082238 7.547213
-4.605006 -12.759853 6.264742
-5.884906 -16.392239 -0.609999
-4.228955 -12.818776 6.274742
-5.414790 -16.515400 -0.685841
-5.145062 -12.181250 7.366714
-6.889597 -16.387930 -0.592516
-4.811526 -12.310975 7.238373
-4.634981 -12.949658 6.406178
-5.957752 -16.734928 -0.608692
-5.474867 -16.825905 -0.623671
-5.157253 -12.324836 7.573143
-4.973057 -12.844584 6.727533
-6.464296 -16.777082 -0.520643
-4.738768 -13.352226 6.160412
-6.022326 -17.055117 -0.560413
-4.003137 -12.291186 8.193249
-4.278584 -13.162605 6.619349
-5.543824 -17.165386 -0.610207
-5.594888 -13.512710 5.881212
-7.046583 -17.079613 -0.589544
-5.026748 -13.097193 6.749641
-6.559062 -17.173231 -0.608376
-6.101704 -17.419321 -0.586121
-4.390369 -13.611197 6.298748
-5.614251 -17.510839 -0.601637
-5.290387 -12.878522 7.500946
-7.122131 -17.420221 -0.569452
-5.033439 -13.224577 6.997087
-6.634215 -17.518997 -0.597145
-6.172765 -17.760803 -0.564898
-4.395376 -13.720799 6.583611
-5.681559 -17.847641 -0.572121
-7.207371 -17.786304 -0.588129
-6.707503 -17.861046 -0.573561
-6.257247 -18.143169 -0.607962
-4.433667 -13.936800 6.681231
-5.762722 -18.230419 -0.615576
-5.657720 -14.028738 6.435215
-7.288719 -18.144215 -0.585663
-5.170866 -13.813939 6.908649
-6.789855 -18.229050 -0.588562
-4.858265 -14.114812 6.738487
-6.321445 -18.467047 -0.545004
-5.831490 -18.574697 -0.586771
-5.701303 -14.256967 6.521265
-7.370048 -18.503536 -0.579126
-5.209366 -14.027850 7.008749
-6.868553 -18.588633 -0.582464
-4.899905 -14.340401 6.823784
-6.404275 -18.847696 -0.571163
-4.227433 -13.444047 8.390160
-5.906462 -18.940557 -0.587862
-5.058365 -12.723911 9.495852
-5.710815 -14.398077 6.751787
-7.459300 -18.884640 -0.601963
-5.277228 -14.323301 6.976814
-6.949073 -18.954721 -0.580652
-4.939569 -14.560448 6.919674
-6.481995 -19.214682 -0.567751
-5.981421 -19.307915 -0.584763
-5.101345 -12.936833 9.553419
-5.415507 -13.749538 8.247387
-7.540601 -19.246941 -0.587030
-5.388072 -14.740191 6.756802
-7.029575 -19.322283 -0.574635
-5.098679 -15.143780 6.443743
-6.554487 -19.567301 -0.535168
-4.299297 -13.851154 8.574362
-6.054760 -19.671421 -0.569122
-5.124027 -13.097309 9.695917
-5.490347 -14.052510 8.190659
-7.619835 -19.605276 -0.559683
-5.445091 -15.008944 6.782774
-7.108170 -19.685991 -0.556095
-4.555142 -13.582814 9.309336
-5.232909 -15.656319 6.100658
-6.644341 -19.974339 -0.581329
-4.393606 -14.250028 8.367216
-6.129651 -20.041569 -0.557615
-5.172619 -13.325526 9.732786
-6.091664 -15.740739 5.999998
-7.703029 -19.975342 -0.544714
-4.833447 -13.384415 9.726778
-5.700336 -15.840221 5.947147
-7.199921 -20.088392 -0.591040
-4.585626 -13.766135 9.423300
-5.128952 -15.439490 6.883066
-6.727278 -20.362078 -0.589657
-4.618236 -15.089064 7.507196
-6.206118 -20.418522 -0.550076
-5.294387 -13.748238 9.477955
-4.905243 -13.683658 9.659512
-7.278456 -20.455038 -0.563816
-4.606936 -13.921140 9.579777
-6.778370 -20.652807 -0.446314
-4.530004 -14.879711 8.239548
-4.788067 -15.751027 6.947025
-6.284183 -20.802452 -0.546328
-5.375911 -14.067203 9.391708
-6.245917 -16.388388 5.939507
-7.899951 -20.801367 -0.623737
-4.996331 -14.040057 9.514717
-7.366460 -20.850292 -0.573055
-4.768503 -14.513524 9.095842
-6.802340 -20.859341 -0.178345
-4.855820 -16.071972 6.909296
-6.329334 -21.076241 -0.375460
-5.400034 -14.233877 9.535660
-5.107034 -14.455679 9.293947
-5.906817 -16.769634 5.930679
-7.442941 -21.213985 -0.529055
-4.646448 -14.220702 9.904234
-6.718043 -20.725298 0.575119
-4.009754 -13.273163 11.335413
-4.597505 -15.280744 8.467196
-6.352481 -21.275213 -0.097055
-5.069913 -13.441310 11.052591
-5.525149 -14.673682 9.287931
-8.066193 -21.552559 -0.562071
-4.779406 -13.597723 10.902758
-6.092308 -17.422010 5.447920
-7.530891 -21.612391 -0.529099
-4.792638 -14.769551 9.502748
-5.818539 -18.010824 4.940098
-4.118299 -13.719721 11.052475
-5.521566 -18.539982 4.292864
-5.505317 -14.721947 9.604473
-8.151246 -21.935574 -0.532640
-4.840193 -13.864858 10.881742
-7.614939 -22.001106 -0.508392
-4.551749 -14.092614 10.814518
-4.165535 -13.957826 11.071264
-5.260873 -17.741278 5.862940
-5.572441 -15.007000 9.587656
-6.509150 -17.578545 6.040806
-8.259206 -22.382967 -0.585785
-5.303799 -15.322192 9.230579
-7.722380 -22.460451 -0.578226
-4.478837 -13.942641 11.368326
-4.128307 -13.903552 11.489012
-4.557074 -15.392677 9.476482
-6.692467 -22.808990 -0.546534
-5.652209 -15.328385 9.527208
-6.181777 -16.792147 7.545452
-4.926517 -14.298341 10.991501
-5.325573 -15.483690 9.392563
-6.548296 -19.115646 4.493351
-4.468666 -13.990822 11.642702
-4.960443 -15.572745 9.536028
-4.157903 -14.080416 11.589439
-5.622309 -15.346443 9.877132
-7.142881 -19.577633 4.253529
-4.959564 -14.485794 11.089094
-5.301454 -15.507748 9.735722
-5.621604 -16.464724 8.468397
-4.572174 -14.405546 11.432409
-5.125782 -16.196716 9.090353
-4.347866 -14.820535 10.956861
-4.686238 -16.008307 9.409250
-6.866861 -23.662840 -0.564245
-5.672119 -15.585560 9.930935
-8.539224 -23.616278 -0.547968
-6.947104 -20.551991 3.544050
-7.976135 -23.646982 -0.480192
-4.520353 -14.317822 11.879385
-7.493013 -23.990665 -0.539946
-4.407096 -15.105569 10.933886
-4.874713 -16.755589 8.822685
-6.948046 -24.071484 -0.538010
-5.713248 -15.800938 10.018267
-7.359434 -20.441774 4.072586
-5.108712 -15.112817 10.965893
-5.490083 -16.266853 9.492510
-6.925713 -20.611099 3.946106
-5.122210 -16.366350 9.621481
-5.782660 -18.527496 6.896622
-7.590502 -24.443176 -0.562101
-4.390285 -15.122308 11.253643
-7.036060 -24.506086 -0.537651
-5.182125 -14.393192 12.149460
-5.775562 -16.076841 10.031429
-7.333068 -20.495659 4.472551
-5.057085 -15.044818 11.393072
-5.464447 -16.284904 9.838354
-6.901255 -20.658796 4.354719
-4.692670 -15.042225 11.625298
-4.426554 -15.326910 11.334978
-7.137966 -24.992186 -0.593090
-5.222290 -14.596493 12.218857
-5.816307 -16.292347 10.123907
-6.429694 -18.043501 7.960640
-4.939813 -14.773035 12.060722
-6.065064 -18.218710 7.818375
-4.718020 -15.206714 11.752466
-4.291199 -14.917264 12.162811
-5.908688 -16.656590 10.037867
-6.172446 -17.414230 9.118731
-7.294497 -20.637308 5.208630
-5.045741 -15.183632 11.884233
-4.739244 -15.357590 11.896191
-4.415763 -15.437887 11.858534
-7.315737 -25.878042 -0.571810
-5.378050 -15.222581 12.102720
-6.231454 -17.688837 9.164324
-5.058453 -15.308382 12.058279
-4.775325 -15.558132 11.981405
-4.450905 -15.638727 11.943769
-7.401888 -26.314081 -0.541605
-5.374341 -15.301142 12.329287
-7.225948 -20.684036 6.030390
-9.153888 -26.288839 -0.528183
-5.093210 -15.501412 12.151367
-5.974724 -18.247297 8.948376
-4.918355 -16.118649 11.653645
-5.590126 -18.376505 9.051548
-8.074338 -26.726068 -0.571024
-4.382724 -15.464582 12.461704
-7.505711 -26.816261 -0.580200
-5.505842 -15.774084 12.099422
-7.212001 -20.763269 6.365215
-5.224282 -15.996512 11.899961
-8.680020 -26.820690 -0.501953
-5.700638 -18.842978 8.892790
-8.164086 -27.165293 -0.528816
-4.568734 -16.215788 11.921930
-5.512536 -15.883544 12.293001
-6.682565 -19.324753 8.408218
-7.162013 -20.734875 6.816336
-5.263093 -16.204742 11.985283
-6.389850 -19.753281 7.991549
-8.783690 -27.292294 -0.493307
-8.263361 -27.638723 -0.517590
-4.923047 -17.590261 10.714947
-7.686596 -27.729965 -0.527891
-5.576150 -16.160742 12.298779
-5.249862 -16.248711 12.254299
-6.333841 -19.680901 8.459833
-8.908031 -27.831530 -0.551115
-8.362571 -28.114126 -0.500248
-4.502507 -16.120024 12.654263
-5.034853 -18.082243 10.516787
-7.779593 -28.199314 -0.503895
-5.610909 -16.353386 12.401552
-6.151874 -17.962473 10.648899
-5.246362 -16.322441 12.486662
-5.533216 -18.549011 10.301645
-4.753628 -17.122059 11.885233
-5.110847 -18.444750 10.469685
-5.681009 -16.652058 12.392422
-6.150638 -18.056675 10.889557
-7.038702 -20.712797 8.047647
-5.388587 -16.861576 12.219467
-6.040693 -18.948139 9.993391
-5.025997 -16.890213 12.396072
-5.928775 -20.001099 9.115906
-4.817087 -17.433916 11.873905
-5.203324 -18.870483 10.363440
-6.977698 -20.640812 8.510479
-9.830805 -29.220686 -0.507195
-6.494676 -20.504688 8.713760
-9.224936 -29.285831 -0.489353
-5.001538 -16.885441 12.709370
-8.689155 -29.653639 -0.517012
-4.726801 -17.172943 12.460093
-6.051934 -22.123526 7.346060
-7.005270 -20.833662 8.690166
-9.954253 -29.749472 -0.514959
-5.335630 -16.861010 12.839333
-9.349339 -29.835688 -0.519197
-5.148142 -17.474342 12.412819
-4.662692 -17.006693 12.935081
-5.458789 -19.993902 9.903297
-5.866493 -17.481485 12.465511
-7.081905 -21.175556 8.718966
-10.077671 -30.280756 -0.515583
-5.391569 -17.126118 12.872536
-5.045532 -17.196373 12.998722
-4.702711 -17.230265 13.010101
-8.296344 -30.773256 -0.494152
-5.925132 -17.750612 12.506254
-10.203296 -30.821363 -0.515894
-5.411306 -17.274157 13.026253
-9.532364 -30.729038 -0.342783
-5.178482 -17.741610 12.760965
-4.811148 -17.713598 12.833347
-5.915645 -17.811611 12.754837
-5.530818 -17.749506 12.860500
-9.667171 -31.320354 -0.386034
-5.199999 -17.897480 12.912724
-6.889047 -23.855404 7.163570
-4.828692 -17.854479 12.997801
-5.705898 -21.188625 9.788740
-6.385686 -23.772413 7.301889
-5.860071 -17.729313 13.138062
-10.440708 -31.867743 -0.453930
-5.965069 -19.265589 11.708147
-9.823400 -31.985399 -0.488625
-5.588332 -19.353214 11.832512
-4.881361 -18.129528 13.035179
-7.234390 -22.080160 9.327095
-10.572899 -32.436348 -0.452501
-6.034838 -19.587358 11.727129
-9.943305 -32.533882 -0.467768
-5.080355 -18.966639 12.554716
-6.455950 -19.761503 11.843454
-10.707304 -33.014645 -0.449837
-6.169133 -20.125368 11.551497
-6.819561 -22.290012 9.548584
-10.067396 -33.098904 -0.452705
-5.741331 -20.070272 11.809795
-6.020274 -21.067461 10.897541
-5.133338 -19.247673 12.604355
-10.834735 -33.573948 -0.419477
-6.452872 -21.166540 10.931021
-6.176836 -21.720556 10.647476
-5.638367 -21.276756 11.091080
-6.168141 -23.323935 9.255758
-7.458086 -23.105925 9.488596
-10.985052 -34.207905 -0.446325
-6.566621 -21.644794 10.841564
-6.893999 -22.744423 9.859863
-6.203604 -21.909895 10.822351
-9.720962 -34.593544 -0.373697
-5.804748 -22.007303 10.780970
-9.074930 -34.695152 -0.392782
-7.546929 -23.495840 9.510822
-11.098365 -34.728119 -0.361362
-6.623952 -21.935490 10.926544
-7.067652 -23.432604 9.613770
-6.258534 -22.201479 10.909298
-9.830616 -35.137566 -0.306673
-5.845932 -22.254896 10.906382
-9.183178 -35.254807 -0.339291
-7.121197 -22.252464 10.949581
-6.733405 -22.403912 10.862389
-7.161032 -23.853277 9.614159
-10.566775 -35.396431 -0.327093
-6.309119 -22.478388 11.012650
-9.976910 -35.817314 -0.346504
-5.982419 -22.876047 10.716928
-11.361322 -35.891052 -0.271160
-6.825417 -22.815607 10.855579
-10.694469 -35.987339 -0.285261
-10.088228 -36.372940 -0.269779
-6.077004 -23.336468 10.675465
-9.422030 -36.469910 -0.284842
-11.501814 -36.505474 -0.238811
-10.815377 -36.557846 -0.216490
-10.207520 -36.960342 -0.210321
-6.125385 -23.617266 10.790024
-9.502684 -36.929169 -0.120459
-11.616413 -37.039425 -0.130095
-10.931623 -37.114933 -0.127523
-10.264518 -37.321148 0.041553
-9.524928 -37.159168 0.234310
-10.441188 -38.125320 -0.054777
-9.575405 -37.501392 0.499535
-10.528457 -38.602127 0.119160
-9.644660 -37.919464 0.708376
-10.606893 -39.047859 0.322996
-9.797182 -38.672352 0.666750
-10.762106 -39.937885 0.747505
-9.990199 -39.738644 0.947882
-10.704332 -39.874748 1.334444
-9.959274 -39.759670 1.469030
-10.662178 -39.868401 1.872648
-9.911469 -39.710770 2.033497
-10.627330 -39.887978 2.386080
-0.242255 -0.434561 29.813910
-9.888157 -39.759918 2.522118
-0.273182 -0.541728 29.746826
-0.258346 -0.501981 29.773693
-0.256454 -0.479385 29.794409
-0.264592 -0.529629 29.762350
-0.260835 -0.497200 29.786055
-0.250749 -0.473164 29.801428
-0.256676 -0.481948 29.798563
-0.256858 -0.499399 29.787989
-0.256780 -0.483204 29.800657
-0.240929 -0.433700 29.830826
-0.239720 -0.417267 29.842676
-0.241008 -0.434672 29.832479
-0.241936 -0.426578 29.839272
-0.243094 -0.444099 29.829216
-0.254913 -0.478380 29.811840
-0.247198 -0.462108 29.821266
-0.241220 -0.437504 29.837488