# This PCD file was generated using the MATLAB® pcwrite function
# from Computer Vision System Toolbox®.
# .PCD v.7 - Point Cloud Data file format
VERSION .7
FIELDS x y z
SIZE 4 4 4
TYPE F F F
COUNT 1 1 1
WIDTH 849
HEIGHT 1
VIEWPOINT 0 0 0 1 0 0 0
POINTS 849
DATA ascii
54.730324 -62.127476 8.171131
52.767860 -62.347660 8.770626
51.865379 -62.472546 9.326817
52.001812 -61.785957 8.514294
51.834854 -62.426758 8.753944
51.966030 -61.733311 7.930061
51.371246 -62.466728 8.753918
51.473835 -61.782894 7.961628
51.002975 -62.488045 8.630806
50.823250 -61.869667 8.225227
51.302902 -62.372726 7.573380
50.361000 -61.914433 8.237541
50.857742 -62.409035 7.549717
50.360664 -61.851589 7.584919
49.942131 -62.544476 8.218903
49.669971 -61.950863 7.941231
49.672600 -62.545910 7.962399
52.296421 -61.990200 4.066292
49.167709 -62.006935 8.033932
49.203335 -62.589943 8.006233
48.922241 -62.001678 7.741661
49.450409 -61.873390 6.926197
50.070953 -62.345070 5.997204
49.678204 -61.749840 5.869377
49.583546 -62.391270 6.048759
50.088444 -61.577557 4.486000
49.466774 -62.356075 5.516079
49.566532 -61.635479 4.581711
49.591156 -62.265587 4.575878
49.150070 -61.667606 4.513481
49.195301 -62.290840 4.474010
48.694099 -61.710400 4.518024
48.718990 -62.334942 4.513153
48.279568 -61.743084 4.458839
48.264999 -62.374641 4.523266
47.826828 -61.786381 4.473083
47.851997 -62.405354 4.469170
47.376080 -61.829903 4.492306
47.401352 -62.445538 4.488922
46.965107 -61.863365 4.446701
46.971657 -62.481358 4.478672
46.536446 -61.902222 4.440399
46.543453 -62.517418 4.473007
46.109314 -61.941315 4.438652
46.098484 -62.558273 4.507168
45.683762 -61.980637 4.441452
45.691689 -62.590233 4.475311
45.242199 -62.025269 4.484299
45.268227 -62.626976 4.483223
44.837563 -62.059937 4.460529
44.863800 -62.659409 4.459866
44.434013 -62.094841 4.440914
44.460461 -62.692078 4.440647
44.362587 -63.285130 4.269012
44.246208 -63.909458 4.572380
44.131721 -62.099670 4.209419
44.125198 -62.706993 4.281342
43.826763 -63.347458 4.545002
43.854599 -63.936253 4.542515
43.613976 -62.170380 4.450169
43.624382 -62.767078 4.486942
43.443958 -63.374489 4.500599
43.459793 -63.964127 4.525654
43.214256 -62.205956 4.443005
43.225193 -62.800400 4.480312
43.065754 -63.400795 4.450844
43.094120 -63.986359 4.448917
42.800049 -62.246754 4.476326
42.827259 -62.833942 4.477726
42.652775 -63.436104 4.487122
42.665596 -64.022209 4.522175
42.418610 -62.277748 4.440819
42.446091 -62.863255 4.442547
42.257103 -63.467716 4.490955
42.274307 -64.050735 4.517265
42.022766 -62.313957 4.445755
42.054253 -62.896122 4.438675
41.877811 -63.495674 4.461906
41.880447 -64.080299 4.525494
41.617214 -62.354092 4.482307
41.641399 -62.935810 4.494057
41.469864 -63.531548 4.510571
41.487988 -64.110062 4.537689
41.220783 -62.391926 4.504539
41.267010 -62.964680 4.461174
41.078377 -63.563755 4.526306
41.096962 -64.140015 4.553825
40.843620 -62.423782 4.484409
40.872002 -63.000343 4.487640
37.627842 -64.425873 12.658228
40.707413 -64.170151 4.573868
37.462654 -63.525219 12.573044
40.481094 -62.450951 4.430717
37.449661 -63.989246 12.671570
40.509800 -63.026379 4.434216
37.351551 -64.443367 12.596466
40.333153 -64.197243 4.560398
36.616077 -63.750748 14.089819
37.212212 -63.534199 12.437355
37.241005 -63.985699 12.424086
40.120781 -63.061348 4.458984
37.088478 -64.457298 12.499735
39.959785 -64.224541 4.550545
36.385220 -63.756802 13.942724
36.904419 -63.564190 12.462948
36.943146 -64.010635 12.421780
36.837654 -64.467720 12.367682
36.655800 -64.967865 12.959604
39.587349 -64.252052 4.544308
36.130177 -63.771648 13.863228
36.691135 -64.020668 12.290659
36.547146 -64.489647 12.350893
39.201164 -63.710693 4.493519
36.469788 -64.963699 12.652102
39.212685 -64.280556 4.551102
35.927612 -63.766148 13.625797
36.437679 -64.030983 12.161623
36.260277 -64.510818 12.327402
36.269871 -64.962364 12.373991
35.755100 -63.747768 13.285730
35.978382 -64.113068 12.668730
36.067455 -64.503464 12.012482
35.996170 -64.979553 12.315502
35.580353 -63.728672 12.936956
35.683113 -64.139572 12.688059
35.717152 -64.544479 12.193350
35.498146 -65.056412 12.983259
35.563999 -63.641903 12.047268
35.472610 -64.135544 12.434284
35.248039 -64.624878 12.788218
35.144356 -65.096985 13.218136
34.893990 -63.828987 13.337646
35.182777 -64.160347 12.439507
34.856594 -64.682953 13.159405
34.734203 -65.154472 13.667561
34.639717 -63.842876 13.252209
34.825821 -64.211494 12.686642
34.593285 -64.699997 13.103632
34.513382 -65.160210 13.478806
34.434460 -63.834560 12.986992
34.592442 -64.215607 12.506149
34.334885 -64.715446 13.030981
34.305614 -65.161720 13.233959
34.133850 -63.869026 13.068718
34.152569 -64.303093 13.096518
33.488842 -64.940010 15.205723
34.010376 -64.754433 13.211111
34.106873 -65.159851 12.942293
37.381149 -64.179520 0.461842
33.962948 -63.842648 12.653030
33.593002 -64.444832 14.202995
33.300018 -64.935989 14.939920
33.235886 -65.363853 15.290932
33.645573 -63.885670 12.807085
33.353527 -64.456070 14.100164
33.076561 -64.943924 14.801146
33.044193 -65.363724 15.036671
33.326950 -63.930992 12.983734
33.184052 -64.435875 13.699293
32.787785 -64.976807 14.935749
33.148102 -64.836761 13.393459
32.805351 -65.378105 14.968136
33.014217 -63.975121 13.153990
32.972725 -64.432541 13.454370
32.877098 -64.859116 13.401461
32.535152 -65.403015 15.037872
32.760052 -63.989311 13.075102
32.666187 -64.473114 13.628813
32.615166 -64.878136 13.373011
32.464783 -65.359268 14.193895
32.586277 -63.957962 12.609415
32.455151 -64.468376 13.368204
31.828325 -65.122948 15.893589
32.325111 -64.909431 13.483501
31.836187 -65.511787 15.976223
32.362072 -63.952351 12.358807
33.525505 -63.271278 6.532745
34.798252 -63.156586 0.358715
31.596439 -65.137428 15.835329
32.110683 -64.908119 13.225372
34.624126 -63.787323 0.468853
31.626604 -65.518425 15.810530
34.379265 -62.579308 0.329628
34.415184 -63.187958 0.352089
31.781797 -64.958450 13.556276
32.008190 -64.853508 12.351856
31.440493 -65.515396 15.509253
31.842291 -65.360397 13.382416
31.829285 -63.988701 12.263283
33.999790 -62.609657 0.306694
31.672773 -64.526093 13.280579
31.490753 -64.993286 13.714144
31.553314 -65.390984 13.520601
31.274376 -64.198463 13.888601
31.310452 -64.604370 13.841036
31.236300 -65.011253 13.678404
31.277279 -65.417336 13.602606
31.053032 -64.194412 13.658003
31.073040 -64.612732 13.708372
30.940472 -65.051140 13.900692
30.859583 -65.506470 14.573479
30.793158 -64.216316 13.654955
30.793964 -64.646660 13.833344
30.777721 -65.019554 13.278643
30.522596 -65.565559 15.135262
30.565119 -64.214081 13.437857
30.625708 -64.608177 13.222378
30.226194 -65.209648 15.301189
30.566376 -65.011116 12.923595
30.283985 -65.581642 15.088566
30.470894 -64.100273 12.218006
32.102947 -62.768337 0.272331
30.472925 -64.552361 12.424768
30.000620 -65.218330 15.167902
30.301483 -65.032707 12.925598
30.059605 -65.590462 14.935183
30.222193 -64.103874 12.042667
30.156590 -64.610191 12.792559
29.770565 -65.228943 15.056246
29.827873 -65.602310 14.823212
29.899223 -64.174088 12.471491
29.618406 -64.850525 15.071251
29.886124 -64.636459 12.837397
29.565380 -65.221313 14.718790
29.607302 -65.607117 14.604168
29.600389 -64.227730 12.755415
29.405914 -64.843498 14.784498
29.636536 -64.645897 12.706575
29.529470 -65.083214 12.757429
30.875189 -64.074768 0.249973
29.623482 -65.465118 12.174734
30.900324 -64.682785 0.419731
29.370842 -64.212486 12.409195
29.361694 -64.677155 12.805639
30.503098 -64.103508 0.229443
29.349817 -65.489845 12.225185
30.519197 -64.718307 0.508648
29.128214 -64.206383 12.143888
29.129576 -64.667603 12.471020
30.266596 -63.526760 0.287022
30.119425 -64.142731 0.341255
29.091782 -65.504318 12.119087
30.145433 -64.750046 0.541374
29.849621 -62.959099 0.276844
29.894754 -63.556149 0.271381
29.752579 -64.167992 0.277676
28.829697 -65.521011 12.045013
29.800400 -64.760185 0.239262
29.470852 -62.998528 0.353664
29.515467 -63.594940 0.358303
29.379913 -64.198990 0.286873
28.565828 -65.538605 11.983145
29.427763 -64.790619 0.248512
29.101585 -63.025517 0.314785
29.148657 -63.619312 0.289639
29.007713 -64.230202 0.299362
28.310118 -65.547653 11.784122
29.053654 -64.823158 0.290913
28.722294 -63.070484 0.447914
28.778622 -63.647614 0.263908
28.629448 -64.270752 0.434593
28.057827 -65.549690 11.467648
28.679443 -64.857117 0.356548
28.349430 -63.107239 0.504978
28.404957 -63.682457 0.311054
28.264811 -64.293282 0.334141
28.309916 -64.886917 0.355713
27.979368 -63.140041 0.525574
28.036392 -63.708584 0.261963
27.895657 -64.322159 0.316551
27.941357 -64.915749 0.338158
27.607111 -63.182240 0.638901
27.662409 -63.748245 0.365425
27.524101 -64.357208 0.381943
27.571194 -64.947838 0.373707
27.238766 -63.216408 0.675949
27.294098 -63.774010 0.312840
27.155436 -64.386551 0.370823
27.202860 -64.977158 0.362598
26.873199 -63.235672 0.567001
26.925014 -63.800087 0.263458
26.787264 -64.412529 0.313057
26.835077 -65.003799 0.304794
26.497221 -63.445240 2.351700
26.505709 -63.258331 0.491077
26.554506 -63.836811 0.336849
26.418066 -64.442421 0.308369
26.466032 -65.036568 0.350029
26.146374 -63.505634 2.667179
26.137064 -63.283329 0.438259
26.185219 -63.869408 0.363667
26.048862 -64.472572 0.306904
26.097597 -65.066650 0.348568
25.792490 -63.499802 2.319054
25.769743 -63.325401 0.557812
25.815641 -63.896290 0.323952
25.679680 -64.502975 0.308662
25.743935 -65.157501 1.418499
25.454748 -63.595451 2.998844
25.486639 -64.093071 2.299923
25.445810 -63.925159 0.307400
25.310549 -64.533623 0.313644
25.384647 -65.186760 1.413368
25.114676 -63.644726 3.213943
25.187473 -64.273911 4.119118
25.127802 -64.103287 2.077103
25.074242 -63.950146 0.244274
25.080462 -64.861191 4.609348
24.940847 -64.563141 0.301907
25.025576 -65.216827 1.421349
24.761600 -63.652493 3.004299
24.861826 -64.325279 4.406910
24.783577 -64.154503 2.345448
24.756269 -64.901466 4.799046
24.870710 -65.525513 6.540813
24.663816 -65.243324 1.362621
24.412434 -63.676109 2.956879
24.447706 -64.212112 2.696365
24.430355 -64.934944 4.891865
24.467985 -65.454659 4.738064
24.304855 -65.274452 1.386868
24.058987 -63.694347 2.852898
24.099123 -64.241898 2.711735
24.096634 -64.957832 4.828125
24.144253 -65.488792 4.863720
23.746511 -63.775120 3.407715
23.764757 -64.289574 2.948986
23.759684 -64.979073 4.737469
23.817987 -65.519318 4.922401
23.413397 -63.817013 3.557903
23.496058 -64.404732 4.034103
23.401327 -64.983727 4.391117
23.486643 -65.545891 4.904236
23.055586 -63.828369 3.383465
23.162491 -64.437363 4.097549
23.416603 -65.279419 8.522675
23.065477 -65.011078 4.386215
23.428724 -65.739273 8.163334
23.150663 -65.570198 4.839218
22.723669 -63.869633 3.529602
23.028477 -64.642509 6.358181
22.808285 -64.451424 3.925587
23.068121 -65.270699 8.001022
22.907114 -65.160431 6.282063
22.716324 -65.029770 4.245148
23.087269 -65.743416 7.740871
22.767792 -64.252495 7.394211
22.778996 -64.723167 7.060669
22.634071 -65.215782 6.738239
22.722181 -65.740585 7.162762
22.483858 -64.299942 7.641800
21.899031 -63.812275 2.295761
22.489031 -64.765495 7.279045
22.404068 -65.290558 7.513847
22.415625 -65.769325 7.213860
22.092920 -64.262177 6.952030
22.222336 -64.820587 7.668152
22.095694 -65.317070 7.527695
22.068466 -65.781593 6.920452
21.655783 -64.201790 5.999580
21.462395 -64.065125 4.477898
21.934786 -64.858826 7.841572
21.641054 -64.682098 5.506603
21.747726 -65.325005 7.237366
21.850004 -65.844101 7.680729
21.117191 -64.087761 4.430141
20.538794 -63.708687 0.175987
21.145582 -64.616211 4.271587
21.517050 -65.387489 7.840412
20.996538 -65.158966 4.062946
21.537750 -65.869339 7.660206
20.660864 -64.043625 3.626354
20.158163 -63.736835 0.155972
21.305603 -64.902931 7.761112
20.761463 -64.621468 3.970291
21.254551 -65.432129 8.158379
21.035797 -65.343002 6.666973
20.601189 -65.165932 3.703899
21.178848 -65.880409 7.326118
20.303715 -64.065826 3.566086
21.012049 -64.936317 7.873039
20.382259 -64.632561 3.741787
20.793142 -65.399055 7.166332
20.943258 -65.929955 7.834888
19.882727 -64.055038 3.125546
19.402706 -63.798393 0.175339
19.925596 -64.611320 3.063992
19.460018 -64.401268 0.178860
20.505337 -65.435608 7.342121
20.126127 -65.301262 5.036964
20.680763 -65.969345 8.128166
20.162708 -65.829185 4.953205
19.570646 -65.669006 1.324677
19.554789 -64.096100 3.278576
19.025429 -63.830025 0.194973
20.272345 -64.936653 7.179970
19.532078 -64.623367 2.833675
19.089928 -64.436249 0.237705
19.810694 -65.336281 5.159348
19.831577 -65.859421 4.987095
19.221523 -65.705650 1.442493
19.202501 -64.124611 3.287231
18.945629 -64.002922 1.865364
18.640928 -63.858578 0.178730
18.709820 -64.467232 0.240860
19.466496 -65.361893 5.117397
18.584873 -65.087456 0.284817
19.484579 -65.886108 4.935417
18.642550 -65.687943 0.285194
18.430199 -63.965584 1.086308
19.213516 -64.830193 4.943409
18.320032 -64.495064 0.198414
19.121107 -65.387848 5.078609
18.195553 -65.116905 0.243858
18.257504 -65.719704 0.263687
18.248363 -64.077133 2.062809
18.832890 -64.843468 4.740242
17.925110 -64.521912 0.139965
17.808901 -65.147827 0.226055
17.875443 -65.752625 0.265289
17.866039 -64.100189 1.995239
17.460503 -63.937298 0.043575
17.528603 -64.549179 0.085178
17.398834 -65.173241 0.104267
17.488762 -65.785072 0.250782
17.708038 -64.209930 2.973534
17.055189 -63.960838 -0.036419
17.132652 -64.577530 0.043831
17.020172 -65.207581 0.142509
17.748180 -65.935532 3.218086
17.088501 -65.815559 0.181225
16.700600 -64.003990 0.120750
16.752851 -64.611557 0.084045
17.262526 -65.386711 2.910572
16.628233 -65.239090 0.125706
17.429825 -65.973656 3.399952
16.293316 -64.028267 0.047977
16.366283 -64.643890 0.098495
16.896156 -65.416672 2.901600
16.237640 -65.271461 0.122234
17.013226 -65.995552 3.156395
16.309986 -65.882301 0.170170
16.075813 -64.116249 0.763504
15.974572 -64.675255 0.097065
16.383373 -65.416512 2.304428
15.841521 -65.303185 0.102955
16.715267 -66.036919 3.421909
15.772010 -64.172424 1.093071
15.691953 -64.735481 0.534695
16.027584 -65.451088 2.371227
15.459170 -65.338234 0.145435
16.263844 -66.055618 3.069691
15.513692 -65.948303 0.115334
15.417433 -64.211555 1.212624
15.792412 -64.888420 2.412754
15.335417 -64.775276 0.665058
15.708016 -65.492622 2.576363
15.904810 -66.088654 3.099327
14.985593 -64.228165 1.046577
14.980390 -64.815178 0.798447
15.272502 -65.512825 2.350510
14.660145 -65.402985 0.115479
15.466741 -66.111923 2.842937
14.725763 -66.017555 0.123661
15.055649 -64.385002 2.679832
14.506820 -64.233475 0.731316
15.370090 -65.022964 3.587597
15.771806 -65.694115 5.444946
15.180866 -65.593254 3.359394
15.834150 -66.233444 5.467545
15.411184 -66.182594 3.966839
15.066948 -64.516365 4.011982
14.353419 -64.327499 1.560696
13.943698 -64.219048 0.153126
14.944067 -65.039726 3.384987
15.602773 -65.752930 6.063782
15.542052 -66.270607 5.664486
14.747561 -64.555977 4.166161
14.691038 -65.093796 3.779804
15.091144 -65.756363 5.516094
14.530463 -65.669586 3.660908
15.218078 -66.304031 5.748840
14.308940 -64.566116 3.932392
13.402106 -64.344994 1.007725
14.438172 -65.146317 4.156998
14.836806 -65.800598 5.832943
14.304603 -65.722099 4.125694
14.956973 -66.343918 6.036545
15.037628 -64.851639 7.370770
14.911230 -65.334824 6.799980
14.409911 -65.819649 5.599739
14.541761 -66.368477 5.830910
14.680456 -64.873260 7.316402
14.549618 -65.359154 6.746868
14.207257 -65.870193 6.063606
14.322269 -66.411797 6.237404
14.318318 -64.894608 7.256138
14.125619 -65.373360 6.517593
13.940935 -65.911140 6.320145
13.929263 -66.439392 6.114773
14.092232 -64.945152 7.595158
13.850640 -65.414001 6.736332
13.651763 -65.948715 6.503120
13.773520 -66.486847 6.685307
14.019300 -65.025131 8.348705
13.833611 -65.495399 7.671909
13.649230 -66.019386 7.478104
13.576179 -66.529732 7.114643
13.596544 -65.033981 8.117783
12.934495 -64.905945 6.320087
13.646325 -65.546822 8.098808
13.284819 -66.046562 7.428879
13.644486 -66.590599 8.248283
13.387713 -65.084389 8.470280
13.057352 -65.537537 7.442196
13.035724 -66.086594 7.691620
13.505213 -66.634445 8.779583
13.057713 -65.111748 8.498222
12.057487 -64.932045 5.921371
12.718856 -65.567101 7.473248
12.931787 -66.140755 8.319176
13.048673 -66.657082 8.471916
11.988878 -65.011467 6.675018
12.714926 -65.642548 8.352402
12.774707 -66.187965 8.788162
12.988958 -66.704514 9.182095
11.973845 -65.096703 7.528755
12.386715 -65.672348 8.396282
12.677863 -66.239479 9.386761
12.910362 -66.749222 9.816681
11.845476 -65.160118 8.076244
12.012164 -65.696625 8.332653
12.482032 -66.280647 9.726498
12.768476 -66.789207 10.274876
11.635129 -65.208725 8.412350
11.862994 -65.748856 8.805767
12.302956 -66.322479 10.094692
12.448424 -66.819626 10.301151
11.349314 -65.244965 8.566719
11.905107 -65.821846 9.699909
12.056705 -66.358147 10.298889
12.324748 -66.859253 10.779173
10.377587 -65.181534 7.193855
9.616400 -65.071106 5.500336
11.729037 -65.867462 10.071083
10.524899 -65.733231 7.381374
11.825303 -66.394684 10.532261
12.114090 -66.894295 11.047150
10.181829 -65.233467 7.576614
9.259909 -65.104317 5.572250
6.811180 -64.761292 0.248436
11.529235 -65.909561 10.379265
10.368305 -65.785202 7.845322
11.680690 -66.437149 10.948729
11.865283 -66.927498 11.225546
7.458282 -64.942276 2.576202
6.408415 -64.800232 0.344940
11.236200 -65.941353 10.480419
11.550778 -66.479698 11.383375
11.592993 -66.959763 11.351610
8.793795 -65.203781 6.239090
6.988588 -64.967880 2.487492
10.144918 -65.894287 8.917511
7.147877 -65.597900 2.665035
11.097016 -66.500153 11.133780
11.356501 -66.993286 11.552143
8.239208 -65.211655 5.906963
10.726924 -66.012497 10.843248
7.464537 -65.702560 4.186138
10.513959 -66.513809 10.638741
9.916668 -66.476784 9.428627
9.053915 -66.423302 7.680687
10.901796 -67.019974 11.305792
6.915087 -65.127670 4.065151
6.208759 -65.658745 2.509426
6.287994 -66.315132 2.948772
10.244173 -67.042000 10.671904
6.684608 -65.180786 4.437428
6.265385 -65.736580 3.475605
5.852142 -66.351997 2.945354
4.427914 -66.272560 0.181778
8.638155 -67.041817 8.223591
5.897808 -66.971832 2.886402
4.486528 -66.935783 0.137749
6.487015 -65.236740 4.863869
6.267874 -65.807014 4.304974
5.420685 -65.735748 2.684452
4.087402 -65.623589 0.134121
9.330925 -66.596207 10.386230
5.973549 -66.418861 4.008095
3.915348 -66.310150 0.098053
9.338556 -67.101471 10.281757
4.020859 -66.978745 0.142258
9.479219 -65.642311 11.232536
6.710472 -65.337891 6.065502
6.170338 -65.867027 4.919796
9.581350 -66.657280 11.520306
3.484924 -66.352692 0.178566
3.553661 -67.022209 0.151680
9.287683 -65.684860 11.527328
6.306267 -65.368187 6.077621
9.219542 -66.169220 11.289343
6.010260 -65.920639 5.401829
9.234564 -66.687263 11.525745
2.962868 -66.391289 0.096844
8.812943 -67.171494 10.641888
3.080198 -67.066101 0.157284
9.080555 -65.725159 11.788216
6.022566 -65.411407 6.312023
8.859924 -66.196747 11.280621
5.939672 -65.979820 6.032265
8.935499 -66.719803 11.622103
8.847759 -67.211296 11.353458
2.580795 -67.110123 0.124275
8.767918 -65.754509 11.859459
5.469484 -65.427643 6.071327
8.632135 -66.234184 11.510441
5.518297 -66.012451 6.026741
8.686459 -66.754616 11.808130
8.472961 -67.244072 11.323406
8.595823 -65.797562 12.175589
5.819452 -65.531845 7.400436
8.542328 -66.280754 11.975355
8.600531 -66.795769 12.272543
8.141577 -67.277863 11.375355
1.605350 -67.200394 0.126717
8.208824 -65.820076 12.122972
8.703375 -66.342659 12.852489
8.337351 -66.829514 12.426786
7.039862 -67.304420 10.131775
1.125235 -67.246468 0.153111
7.617971 -65.825134 11.741447
8.109520 -66.354950 12.449102
8.158512 -66.866188 12.720104
7.922510 -67.349831 12.225494
6.820610 -67.341232 10.402683
7.963154 -65.912773 12.898327
4.349745 -65.601555 7.040131
8.590826 -66.433350 13.816423
8.277973 -66.912117 13.490450
7.795757 -67.384865 12.607338
8.582331 -66.019440 14.452852
-0.033245 -65.303314 0.752522
8.393864 -66.469032 14.055132
8.153448 -66.949043 13.850506
7.637012 -67.419319 12.929831
8.105680 -66.033051 14.244949
8.226643 -66.506042 14.337217
7.822973 -66.979713 13.882507
7.466305 -67.453430 13.227570
2.579224 -67.443100 5.598682
7.886421 -66.067833 14.444689
7.932091 -66.536011 14.419025
2.100006 -66.872505 5.687912
7.097095 -67.487228 13.216236
2.215115 -67.485695 5.738857
7.835407 -66.114967 14.895609
1.644699 -65.653206 5.597530
7.764746 -66.572517 14.695410
1.730066 -66.914200 5.823975
1.823990 -67.528557 5.840973
1.267027 -65.692413 5.728844
1.396919 -66.315582 5.796978
1.349455 -66.955894 5.947170
1.460917 -67.571640 5.988514
0.855732 -65.729523 5.814617
0.964115 -66.353752 5.848934
0.912216 -66.996750 5.992046
1.030401 -67.615280 6.040882
0.490101 -65.770081 5.970131
0.593544 -66.395081 5.995670
0.502748 -67.038582 6.082623
0.621975 -67.659218 6.130718
0.061234 -65.806740 6.039921
0.188774 -66.435219 6.097294
0.098816 -67.080887 6.185696
0.236544 -67.703346 6.257446
-0.327070 -65.846375 6.170895
-0.198481 -66.476395 6.227455
-0.269787 -67.124023 6.341465
-0.195745 -67.748207 6.323528
-0.744854 -65.884521 6.265778
-0.638988 -66.515907 6.289333
-0.679464 -67.166885 6.444817
-0.575129 -67.792915 6.466648
-1.150888 -65.923744 6.381123
-1.026165 -66.557739 6.427959
-1.107450 -67.209915 6.528675
-0.984158 -67.838272 6.573792
-1.587431 -65.961632 6.461224
-1.431204 -66.599266 6.546810
-1.517624 -67.253525 6.641010
-1.399416 -67.884071 6.677433
-1.950552 -66.003860 6.640541
-1.842360 -66.640945 6.662125
-1.958792 -67.297279 6.718491
-1.833405 -67.930534 6.762001
-2.412453 -66.041237 6.698521
-2.278477 -66.682266 6.750595
-2.338152 -67.341812 6.879002
0.757998 -67.926170 10.641346
-1.001432 -67.955978 8.437729
-2.230536 -67.976799 6.898327
-2.824974 -66.081573 6.823860
-2.689949 -66.724693 6.875031
-2.773691 -67.386391 6.973675
-2.646301 -68.023712 7.015602
-3.237442 -66.122253 6.953678
-3.101376 -66.767464 7.003933
-3.190540 -67.431435 7.096340
-1.494255 -68.040161 9.032810
-3.100382 -68.071754 7.091225
-3.701336 -66.160995 7.026833
-3.564152 -66.809402 7.076065
-3.652580 -67.476814 7.170116
-3.490887 -68.118919 7.248585
-4.140112 -66.201340 7.135727
-4.001858 -66.852394 7.183971
-4.063364 -67.522644 7.309940
-3.926378 -68.167381 7.356937
-4.579210 -66.242096 7.249580
-4.439898 -66.895798 7.296841
-4.546364 -67.568993 7.371475
-4.388475 -68.216881 7.440086
-5.045139 -66.282249 7.338505
-4.904728 -66.939148 7.384724
-4.957397 -67.615601 7.520935
-4.851360 -68.266869 7.528660
-5.484993 -66.323875 7.462551
-5.316763 -66.983856 7.537487
-5.421824 -67.662827 7.615627
-5.261366 -68.315956 7.682026
-5.925013 -66.365913 7.591602
-5.782511 -67.028107 7.635807
-5.886915 -67.710541 7.715778
-5.772490 -68.368126 7.729485
-6.440275 -66.405861 7.645363
-6.269346 -67.072571 7.717667
-6.544161 -67.760292 7.617191
-6.408026 -68.424423 7.651783
-7.163805 -66.439919 7.488247
-7.018724 -67.114609 7.529774
-7.260710 -67.811600 7.469566
-7.095491 -68.483116 7.531853
-7.878557 -66.475594 7.355446
-7.739016 -67.158272 7.388271
-7.954351 -67.863785 7.360504
-7.836103 -68.544418 7.371010
-9.798288 -66.478714 6.014885
-9.662706 -67.193123 6.037006
-9.917437 -67.932419 5.980545
-9.795630 -68.645691 5.988251
-10.554232 -66.517838 5.890999
-10.403212 -67.240837 5.925831
-10.687426 -67.989342 5.845085
-10.564245 -68.711411 5.851624
-11.329264 -66.557823 5.763519
-11.176809 -67.289574 5.796761
-11.455263 -68.047417 5.727280
-11.309317 -68.777405 5.753670
-12.109213 -66.599060 5.646763
-11.955332 -67.339554 5.678417
-12.292742 -68.107758 5.557766
-12.080370 -68.845329 5.645142
-13.010149 -66.639015 5.430843
-12.854696 -67.390480 5.460697
-13.114107 -68.169113 5.420681
-12.928629 -68.917107 5.478573
-13.800508 -66.682892 5.336781
-13.607092 -67.443153 5.399143
-19.767691 -68.338730 -0.111977
-18.904318 -69.181526 0.556328
-20.492220 -66.617691 -0.136627
-16.979898 -67.497208 2.948612
-20.638510 -68.410439 -0.168350
-20.357954 -69.284248 -0.047386
-20.393381 -66.688187 0.691196
-21.401991 -68.481148 -0.112637
-21.193449 -69.364960 -0.060837
-17.002913 -67.611015 4.288818
-22.182962 -68.553177 -0.060036
-21.927721 -69.442627 0.029762
-17.356421 -67.667984 4.646244
-22.558260 -68.616859 0.356297
-22.271433 -69.504959 0.470703
-23.205442 -66.850800 0.439732
-18.132551 -67.727203 4.643032
-20.629641 -68.625053 2.731960
-20.367903 -69.472084 2.827957
-21.208815 -67.802483 2.720676
-21.356810 -68.695183 2.820793
-21.161963 -69.551895 2.856853
-16.417650 -67.055420 7.486244
-21.961714 -67.866501 2.797058
-21.935797 -69.631775 2.915684
-22.685717 -67.931221 2.908775
-22.489912 -68.829254 3.291172
-22.207071 -69.689819 3.393642
-23.074583 -67.117729 3.424606
-22.793493 -67.990578 3.522388
-22.483583 -68.880775 3.989937
-22.223318 -69.736061 4.072327
-23.058268 -67.181595 4.130859
-22.776182 -68.047943 4.227364
-22.468824 -68.931358 4.685650
-21.420149 -69.743179 5.381775
-22.163687 -68.097046 5.380112
-22.286821 -68.976166 5.499630
-22.049170 -69.817146 5.561516
-22.811750 -68.161102 5.555244
-22.901861 -69.045105 5.701424
-22.686567 -69.892181 5.743446
-23.681959 -67.365616 5.695019
-23.460352 -68.225876 5.738876
-23.549173 -69.115723 5.887447
-23.260111 -69.964706 5.981270
-24.324274 -67.425606 5.894867
-24.028566 -68.290085 5.989902
-24.213083 -69.187592 6.070274
-23.954416 -70.043915 6.138283
-24.942381 -67.486282 6.120548
-24.693708 -68.356453 6.178284
-24.584562 -70.120575 6.351089
-25.666842 -67.547684 6.279720
-25.400221 -68.424286 6.346798
-25.501326 -69.332085 6.491066
-25.222918 -70.198326 6.566452
-26.309889 -67.609772 6.505386
-26.082869 -68.492477 6.541920
-26.724539 -68.560600 6.774239
-27.432688 -68.630783 6.970814
26.120405 -67.505424 42.543556
26.029684 -67.507126 42.501102
26.074368 -67.508705 42.523857
26.091091 -67.507790 42.535023
26.062967 -67.505913 42.523865
26.090126 -67.508018 42.536964
26.071241 -67.509453 42.530151
26.096937 -67.504547 42.545422
26.043217 -67.511536 42.519356
26.096060 -67.504768 42.547310
26.114460 -67.506859 42.555515
26.058834 -67.506943 42.532661
26.077358 -67.509575 42.540668
26.085228 -67.505707 42.547054
26.067329 -67.510445 42.538666
26.066044 -67.506950 42.541088
26.084696 -67.509399 42.548790
26.074669 -67.510277 42.546883