# This PCD file was generated using the MATLAB® pcwrite function
# from Computer Vision System Toolbox®.
# .PCD v.7 - Point Cloud Data file format
VERSION .7
FIELDS x y z
SIZE 4 4 4
TYPE F F F
COUNT 1 1 1
WIDTH 934
HEIGHT 1
VIEWPOINT 0 0 0 1 0 0 0
POINTS 934
DATA ascii
8.782162 32.119774 -0.935364
8.058324 31.245876 -0.559597
8.695650 31.389740 -0.782503
7.986520 30.579168 -0.450148
8.615814 30.722105 -0.674791
7.929982 30.094549 -0.506548
8.540295 30.094261 -0.592777
7.857104 29.406912 -0.351753
8.482497 29.639030 -0.671852
7.778264 28.640459 -0.101677
8.409454 29.031408 -0.588295
7.731565 28.268497 -0.243252
8.296087 28.019894 -0.071886
7.702395 28.115948 -0.612656
8.250868 27.683783 -0.243919
7.647439 27.639570 -0.637991
8.215746 27.448645 -0.522070
7.590168 27.131264 -0.620453
8.166979 27.076435 -0.650871
7.545782 26.785580 -0.774651
8.116300 26.684172 -0.753159
7.501387 26.439341 -0.925108
8.051477 26.147226 -0.686071
7.448981 25.987886 -0.951099
8.001251 25.757135 -0.777990
7.398841 25.563963 -1.001942
7.933529 25.186575 -0.652428
7.345081 25.089895 -0.986441
7.882601 24.786501 -0.718426
7.287935 24.567331 -0.903276
7.837357 24.444223 -0.849194
7.238743 24.148636 -0.937634
7.783113 24.007690 -0.859690
7.186181 23.681580 -0.904413
7.737468 23.659622 -0.974455
7.137583 23.266142 -0.928387
7.683140 23.219547 -0.967230
7.094893 22.931122 -1.050533
7.631447 22.805691 -0.986380
7.041620 22.445650 -0.969553
7.571024 22.297489 -0.872822
6.993421 22.028690 -0.970833
7.518383 21.870022 -0.857231
6.947956 21.648676 -1.015688
7.458484 21.362667 -0.723213
6.867946 20.759453 -0.340048
7.404548 20.917168 -0.664082
6.841066 20.645304 -0.740377
7.310224 20.028994 0.039560
6.810126 20.474941 -1.066820
7.263084 19.650906 0.031050
6.769557 20.160938 -1.185385
7.222749 19.346632 -0.080898
6.725791 19.796877 -1.225773
7.176493 18.976021 -0.089697
8.205540 19.061035 -0.722607
6.659102 19.069221 -0.700434
7.179791 19.159967 -0.949827
7.664433 18.896143 -0.944727
8.163954 18.762831 -0.846312
6.627427 18.888971 -1.007875
7.126851 18.715181 -0.845377
7.610170 18.479753 -0.879984
8.112651 18.395390 -0.857109
6.587811 18.583124 -1.119476
7.086008 18.405661 -0.947523
7.563485 18.128658 -0.912374
8.060850 18.024052 -0.855286
6.535614 18.068007 -0.887129
7.040197 18.038601 -0.952774
7.514635 17.757874 -0.906729
8.012210 17.674732 -0.883488
6.493661 17.717932 -0.913769
6.995517 17.683172 -0.971083
7.468932 17.414003 -0.939913
7.963756 17.326361 -0.907898
6.454247 17.409407 -1.005524
6.950179 17.318743 -0.968273
7.420571 17.045965 -0.926197
7.921828 17.023813 -1.006308
6.410324 17.020725 -0.955704
6.901297 16.910934 -0.883480
7.376930 16.718958 -0.977850
7.870892 16.657152 -0.988831
6.371134 16.713047 -1.040632
6.862742 16.623714 -1.002790
7.335585 16.411814 -1.061020
7.822969 16.311478 -1.002180
6.329614 16.361620 -1.043829
6.824139 16.335768 -1.119402
7.287863 16.047262 -1.035902
7.777944 15.985935 -1.046892
6.290592 16.054401 -1.122288
6.780801 15.990067 -1.127840
7.244626 15.722048 -1.077242
7.730393 15.642199 -1.052984
6.250646 15.728340 -1.162409
6.737674 15.645515 -1.132580
7.201518 15.397398 -1.115225
7.683055 15.299639 -1.055399
6.209210 15.370523 -1.137110
6.691802 15.265343 -1.062674
7.152505 15.018795 -1.043150
7.628236 14.903964 -0.947426
6.167615 15.005313 -1.090097
6.648833 14.919300 -1.050846
7.103883 14.642673 -0.966799
7.583987 14.582590 -0.977797
6.127611 14.668924 -1.092728
6.606458 14.579128 -1.044260
7.059512 14.304210 -0.957983
7.538019 14.248771 -0.977953
6.088413 14.346846 -1.118780
6.567355 14.279593 -1.114960
7.017728 13.988637 -0.990620
7.483723 13.855991 -0.848454
6.049362 14.025483 -1.141544
6.523707 13.919905 -1.056393
6.976995 13.682120 -1.038162
7.444917 13.572027 -0.940601
6.008321 13.654096 -1.052328
6.479452 13.549733 -0.966692
6.936800 13.380058 -1.091753
7.401387 13.254475 -0.957422
5.969704 13.335202 -1.068129
6.439590 13.235991 -0.991165
6.887891 12.996602 -0.959997
7.358014 12.937728 -0.971016
5.929990 12.984537 -1.007645
6.400456 12.931025 -1.030756
6.846773 12.684493 -0.979525
7.209900 11.885364 0.712461
7.313669 12.613854 -0.963079
5.891781 12.667941 -1.016714
6.358288 12.582681 -0.966469
6.733502 11.694931 0.593973
6.803290 12.349575 -0.940783
7.161056 11.530372 0.840380
5.853062 12.332653 -0.976585
6.318652 12.267674 -0.972076
6.687212 11.328920 0.752615
7.129052 11.293219 0.695562
5.815369 12.022085 -0.988346
6.232067 11.270120 0.679203
6.281820 11.991766 -1.066895
6.654942 11.094463 0.600681
7.128963 11.279017 -0.002777
5.757441 11.040122 0.661861
5.777146 11.689772 -0.941410
6.193199 10.948877 0.741463
6.634819 10.976065 0.153372
7.104357 11.092522 -0.294268
5.721174 10.716136 0.736443
6.161891 10.739359 0.528008
6.614191 10.854417 -0.303377
7.068467 10.826689 -0.388968
5.687274 10.473407 0.609180
6.145013 10.755972 -0.281437
6.580294 10.606103 -0.442207
7.025492 10.511114 -0.350342
5.655350 10.320684 0.240551
6.110800 10.511189 -0.428312
6.540592 10.301259 -0.428829
6.975894 10.149220 -0.177095
5.620120 10.035429 0.219936
6.068677 10.138375 -0.225513
6.499714 9.984086 -0.374754
6.942710 9.901353 -0.310472
5.584462 9.720492 0.286856
6.030946 9.833270 -0.197596
6.457795 9.655591 -0.279659
6.901861 9.599902 -0.290691
5.552313 9.623298 -0.266693
5.994370 9.545734 -0.213892
6.420411 9.371075 -0.304232
6.858003 9.277384 -0.201612
5.516400 9.294187 -0.157234
5.958787 9.274570 -0.274853
6.380029 9.055813 -0.231119
6.817185 8.975759 -0.166168
5.481447 9.032965 -0.243938
5.923706 9.012392 -0.361870
6.341453 8.757733 -0.202408
6.784015 8.726698 -0.289661
5.446576 8.798202 -0.414127
5.885334 8.686351 -0.246313
6.307677 8.508042 -0.323587
6.745596 8.441104 -0.296436
5.411300 8.461261 -0.257498
5.849514 8.406894 -0.270786
6.269070 8.208292 -0.279856
6.705230 8.141891 -0.252607
5.376433 8.167758 -0.231459
5.814569 8.144770 -0.350176
6.232025 7.923909 -0.281176
6.665504 7.846904 -0.215424
5.341409 7.930883 -0.394718
5.778003 7.846121 -0.302303
6.194348 7.632092 -0.250921
6.627957 7.566639 -0.223488
5.306885 7.621885 -0.305689
5.741789 7.551649 -0.261133
6.157599 7.349302 -0.246794
6.588235 7.271317 -0.171026
5.272139 7.351588 -0.348719
5.706588 7.279263 -0.294367
6.120986 7.067222 -0.240000
6.552090 7.000152 -0.202721
5.237673 7.068556 -0.340919
5.671085 6.996903 -0.286396
6.084512 6.785876 -0.230549
6.514918 6.721766 -0.202860
5.203657 6.774068 -0.281977
5.635799 6.717711 -0.285471
6.048179 6.505290 -0.218452
6.477519 6.441628 -0.190683
5.169749 6.485900 -0.239616
5.600307 6.427428 -0.233330
6.011992 6.225486 -0.203730
6.439928 6.160013 -0.166147
5.135550 6.212661 -0.252934
5.565485 6.156649 -0.256344
5.975952 5.946490 -0.186386
6.404459 5.892432 -0.197487
5.101718 5.933173 -0.234482
5.530550 5.877332 -0.237850
5.940063 5.668324 -0.166439
6.366200 5.606011 -0.138449
5.067505 5.665041 -0.262304
5.495894 5.607200 -0.255873
5.904821 5.397091 -0.173275
6.330307 5.335173 -0.145214
5.033571 5.392891 -0.268129
5.461283 5.335255 -0.261652
5.869823 5.128168 -0.187445
6.295963 5.074318 -0.198557
5.000114 5.115320 -0.242044
5.426734 5.057941 -0.235508
5.835464 4.866890 -0.238483
6.260476 4.805656 -0.210302
4.966817 4.838660 -0.213390
5.392351 4.774216 -0.167473
5.799511 4.583928 -0.169127
6.222903 4.523217 -0.140882
4.932474 4.577041 -0.260920
5.358004 4.521786 -0.264151
5.765255 4.322819 -0.215378
6.188686 4.262414 -0.187078
4.898118 4.315016 -0.306145
5.323771 4.251493 -0.260065
5.730551 4.054914 -0.219847
6.153469 3.994889 -0.191496
4.865139 4.039864 -0.270096
5.289605 3.983241 -0.263409
5.695927 3.787318 -0.221905
6.118331 3.727673 -0.193502
4.830853 3.777769 -0.310596
5.255335 3.721266 -0.303892
5.661386 3.520051 -0.221556
6.083276 3.460786 -0.193106
4.798717 3.499694 -0.239931
5.221749 3.442100 -0.223255
5.626704 3.249106 -0.189081
6.048307 3.194251 -0.190313
4.765582 3.231193 -0.226143
5.187537 3.181802 -0.268896
5.592627 2.987851 -0.223587
6.013628 2.929327 -0.195051
4.731467 2.969495 -0.259537
5.153781 2.913634 -0.252710
5.558551 2.726301 -0.255795
5.979593 2.668086 -0.227219
4.698272 2.702858 -0.250908
5.120048 2.647187 -0.244051
5.524144 2.455792 -0.206171
5.944118 2.398030 -0.177559
4.663247 2.445268 -0.319410
5.085899 2.386467 -0.282728
5.490168 2.194404 -0.233696
5.910182 2.136950 -0.205053
4.631162 2.174843 -0.266302
5.052869 2.115588 -0.219599
5.456103 1.928215 -0.209133
5.876255 1.875638 -0.230247
4.598214 1.909196 -0.250584
5.018929 1.854030 -0.243656
5.422170 1.663502 -0.192154
5.842339 1.614113 -0.253143
4.565368 1.644035 -0.232498
4.984867 1.593070 -0.275379
5.388314 1.405954 -0.262573
5.808437 1.352394 -0.273737
4.530059 1.385980 -0.301779
4.951532 1.328176 -0.254946
5.354504 1.140825 -0.230968
5.773433 1.084772 -0.202215
4.497621 1.120429 -0.269066
4.917039 1.068843 -0.311989
5.320673 0.879815 -0.256908
5.739780 0.824054 -0.228138
4.464700 0.856720 -0.253958
4.884510 0.802163 -0.246965
5.287024 0.616090 -0.230616
5.705617 0.560711 -0.201826
4.429956 0.596250 -0.296415
4.850196 0.541762 -0.289433
5.253298 0.354526 -0.241957
5.672204 0.300589 -0.243130
4.397151 0.332833 -0.276670
4.816417 0.279629 -0.299643
5.219599 0.092868 -0.250996
5.638512 0.038982 -0.252167
4.362394 0.071658 -0.314539
4.782666 0.017413 -0.307547
5.185930 -0.168863 -0.257730
5.604643 -0.223311 -0.228912
4.328658 -0.190744 -0.320137
4.748945 -0.244866 -0.313143
5.152292 -0.430648 -0.262167
5.571276 -0.484313 -0.273338
4.294955 -0.453188 -0.323427
4.715258 -0.507189 -0.316431
5.117953 -0.692072 -0.344292
5.537344 -0.746386 -0.205469
4.261288 -0.715656 -0.324409
4.681607 -0.769535 -0.317411
5.085433 -0.954184 -0.234125
5.503674 -1.007371 -0.155296
4.227660 -0.978128 -0.323080
4.647994 -1.031885 -0.316084
5.052511 -1.215129 -0.181660
5.470276 -1.268193 -0.152830
4.192883 -1.240978 -0.349421
4.616488 -1.293022 -0.232487
5.019617 -1.475393 -0.136904
5.436868 -1.528075 -0.108082
4.163791 -1.501256 -0.233587
4.582779 -1.554862 -0.236555
4.986311 -1.736106 -0.129852
5.403610 -1.789737 -0.141016
4.129963 -1.763230 -0.235344
4.550496 -1.815207 -0.188362
4.953052 -1.996753 -0.120504
5.370382 -2.048815 -0.091703
4.096591 -2.024910 -0.224808
4.516310 -2.077646 -0.207806
4.919209 -2.259194 -0.148819
5.337132 -2.311016 -0.120029
4.063712 -2.286016 -0.201990
4.483924 -2.337535 -0.165030
4.886008 -2.519996 -0.134871
5.303971 -2.571507 -0.106096
4.030005 -2.547962 -0.196835
4.449777 -2.600280 -0.179853
4.852140 -2.783242 -0.158537
5.270696 -2.834514 -0.129786
3.994943 -2.811894 -0.219271
4.416268 -2.862072 -0.172405
4.818816 -3.044847 -0.149950
5.237603 -3.095079 -0.111250
3.961748 -3.073415 -0.199507
4.383132 -3.123125 -0.152679
4.785125 -3.308088 -0.158987
5.201252 -3.398798 -0.608604
3.928614 -3.334759 -0.177448
4.349019 -3.386526 -0.160536
4.741836 -3.612238 -0.613747
5.167713 -3.663496 -0.585091
3.895544 -3.595908 -0.153091
4.306689 -3.671569 -0.394909
4.708323 -3.877038 -0.587873
5.134925 -3.919942 -0.479654
3.851398 -3.878735 -0.345060
4.265331 -3.956824 -0.586767
4.675819 -4.137312 -0.519915
5.100835 -4.192245 -0.531078
3.801670 -4.175925 -0.633595
4.230385 -4.225841 -0.597113
4.641507 -4.405929 -0.529146
5.067502 -4.456256 -0.500587
3.767165 -4.443343 -0.621635
4.196984 -4.490545 -0.565363
4.607181 -4.674964 -0.535973
5.033769 -4.725052 -0.507452
3.733770 -4.708316 -0.587488
4.162056 -4.760054 -0.570929
4.572845 -4.944396 -0.540382
4.999510 -4.999643 -0.551540
3.696054 -4.983700 -0.630167
4.126707 -5.031306 -0.583977
4.538502 -5.214204 -0.542377
4.966275 -5.263815 -0.513948
3.662731 -5.248738 -0.591263
4.091753 -5.301651 -0.584684
4.504154 -5.484367 -0.541946
4.932520 -5.533740 -0.513563
3.627205 -5.519474 -0.589506
4.057230 -5.570812 -0.573088
4.468605 -5.761217 -0.578556
4.898118 -5.810421 -0.550228
3.589934 -5.795318 -0.614874
4.022284 -5.841737 -0.568943
4.435456 -6.025670 -0.533785
4.865008 -6.074566 -0.505508
3.554972 -6.065250 -0.598349
3.987794 -6.111263 -0.552511
4.400790 -6.298526 -0.535883
4.831256 -6.345426 -0.497822
3.516417 -6.345886 -0.638350
3.948218 -6.400522 -0.641773
4.365447 -6.575510 -0.555143
4.795965 -6.631448 -0.566278
3.483290 -6.610969 -0.587458
3.915095 -6.665571 -0.590889
4.328337 -6.862896 -0.620884
4.762145 -6.903502 -0.553566
3.442765 -6.898837 -0.651726
3.876721 -6.951670 -0.645422
4.295307 -7.127694 -0.566422
4.728337 -7.175781 -0.538389
3.412248 -7.155942 -0.556873
3.845168 -7.210624 -0.560356
4.259469 -7.408806 -0.587795
4.693645 -7.456727 -0.559830
3.371585 -7.445568 -0.615910
3.808707 -7.489817 -0.570656
4.225062 -7.682040 -0.567533
4.659831 -7.729725 -0.539642
3.336025 -7.719195 -0.594284
3.771167 -7.774101 -0.597847
4.189138 -7.964502 -0.583723
4.625053 -8.012021 -0.555908
3.297154 -8.004335 -0.618742
3.736187 -8.047913 -0.573757
4.153156 -8.247772 -0.597263
4.589191 -8.304603 -0.608372
3.256175 -8.297514 -0.669590
3.696924 -8.340857 -0.624763
4.117118 -8.531827 -0.608141
4.555325 -8.579014 -0.580481
3.220558 -8.572598 -0.640209
3.659720 -8.625403 -0.634224
4.084353 -8.796481 -0.539000
4.522598 -8.843366 -0.511419
3.182183 -8.857862 -0.646921
3.624704 -8.900520 -0.602383
4.048297 -9.081360 -0.544699
4.486537 -9.138563 -0.555786
3.147301 -9.130800 -0.602798
3.587445 -9.186201 -0.606558
4.010449 -9.377699 -0.586195
4.451540 -9.424324 -0.558790
3.108168 -9.419755 -0.613834
3.550141 -9.472578 -0.608030
3.976050 -9.653227 -0.548004
4.417732 -9.699620 -0.520691
3.069703 -9.706774 -0.612522
3.513387 -9.756835 -0.597198
3.939867 -9.940165 -0.545593
4.382694 -9.986395 -0.518372
3.031940 -9.991580 -0.598925
3.476017 -10.044450 -0.593256
3.901779 -10.239483 -0.578642
4.346306 -10.285619 -0.551519
2.989670 -10.294490 -0.639816
3.438001 -10.335646 -0.596100
3.865487 -10.527998 -0.570656
4.312514 -10.561828 -0.505541
2.951064 -10.583701 -0.630177
3.400557 -10.624560 -0.586639
3.831117 -10.804691 -0.521938
4.275985 -10.862909 -0.532991
2.912432 -10.873482 -0.617775
3.361193 -10.923419 -0.602854
3.793320 -11.103570 -0.536947
4.241143 -11.149204 -0.510128
2.874557 -11.160618 -0.593151
3.323028 -11.216902 -0.597229
3.758993 -11.380617 -0.482943
4.205563 -11.442433 -0.503424
2.835104 -11.454647 -0.584639
3.288078 -11.494626 -0.541653
3.713862 -11.727797 -0.623981
4.165777 -11.773335 -0.597389
2.790020 -11.772788 -0.638983
3.255174 -11.762080 -0.455345
3.677344 -12.019950 -0.601767
4.130404 -12.065328 -0.575285
2.762566 -12.017181 -0.484171
3.250570 -11.883929 0.026535
3.778887 -11.410715 1.825869
3.639204 -12.323081 -0.604784
4.218207 -11.268188 2.338526
4.095418 -12.354247 -0.541021
2.775510 -12.087588 0.129599
3.289122 -11.779312 1.086695
3.165245 -12.422102 -0.611506
3.775517 -11.481927 2.367441
3.604828 -12.601992 -0.539572
4.059629 -12.650644 -0.522640
2.871735 -11.792428 1.662395
2.671168 -12.662192 -0.586981
3.294631 -11.841444 1.668348
3.126851 -12.719286 -0.591330
3.565515 -12.913690 -0.555347
4.141774 -11.907705 2.117245
2.894811 -11.805993 2.344591
2.624796 -12.989180 -0.637953
3.312506 -11.835267 2.397095
3.087735 -13.020708 -0.577515
3.688156 -12.153823 2.078283
4.112542 -12.148643 2.215473
2.810678 -12.289195 1.843399
3.239558 -12.307836 1.923120
3.658918 -12.395153 2.179144
4.081704 -12.404118 2.278934
2.785490 -12.513503 1.992393
3.213769 -12.531300 2.071821
3.638617 -12.576946 2.419899
4.052726 -12.643646 2.381519
2.933194 -11.957224 3.966261
2.756212 -12.755691 2.097374
2.496811 -13.925994 -0.641823
3.226876 -12.544649 2.708067
3.602675 -12.863191 2.414665
4.032579 -12.806149 2.660069
2.909528 -12.166354 4.102692
2.456053 -14.230899 -0.615458
3.254544 -12.475679 3.506687
3.581178 -13.052766 2.631123
4.010616 -12.985166 2.893782
2.899384 -12.312901 4.377161
3.220952 -12.737422 3.538010
3.555147 -13.272699 2.776176
4.044286 -12.677925 4.181713
3.970507 -13.323483 2.774477
2.815368 -12.800098 3.900763
2.365520 -14.883858 -0.644123
3.164625 -13.124602 3.300194
2.839535 -14.913310 -0.585543
3.621079 -12.869774 4.252102
3.512498 -13.605174 2.678890
3.939790 -13.579920 2.839912
2.793682 -13.000379 4.062216
2.324620 -15.191127 -0.608227
3.265778 -12.641761 4.925421
3.058634 -13.788672 2.489914
2.793949 -15.254172 -0.622120
3.449307 -14.078031 2.297277
3.247247 -15.451207 -0.574947
3.958619 -13.404023 3.808229
2.806112 -13.039421 4.557390
2.275479 -15.537622 -0.650051
3.230452 -12.910401 4.923075
3.097660 -13.650121 3.387081
2.752866 -15.570793 -0.601120
3.556223 -13.392725 4.306774
3.416103 -14.348104 2.352287
3.204638 -15.789941 -0.597372
3.959216 -13.388330 4.412682
3.867964 -14.184617 2.789814
2.808407 -13.123454 4.943933
2.684566 -13.711034 3.746012
2.229864 -15.868411 -0.652325
3.115680 -13.624745 4.020237
2.707813 -15.910176 -0.621590
3.530295 -13.610280 4.427345
3.167113 -16.094500 -0.544741
3.817230 -14.616671 2.515230
2.792761 -13.290986 5.151958
2.186024 -16.191448 -0.633297
3.177871 -13.347435 5.131693
2.661835 -16.255524 -0.647306
3.493301 -13.903842 4.398710
3.125642 -16.426512 -0.542400
3.859929 -14.234757 3.845943
3.602259 -16.479902 -0.535589
2.777473 -13.455867 5.361002
2.641733 -14.109518 4.085106
2.138364 -16.533474 -0.646349
3.133700 -13.667198 5.039452
2.620542 -16.575129 -0.616079
3.415948 -14.475716 3.842508
3.083415 -16.764267 -0.545380
3.853706 -14.280083 4.309599
3.561202 -16.827061 -0.556339
2.702579 -13.908892 5.015394
2.091537 -16.872293 -0.646875
3.100653 -13.924633 5.074499
2.577595 -16.904648 -0.599197
3.376784 -14.786159 3.805201
3.036334 -17.136099 -0.606375
3.821854 -14.549071 4.340532
3.522715 -17.152229 -0.529272
2.675902 -14.129568 5.123652
2.052303 -17.174793 -0.573528
2.928591 -14.978580 3.627949
2.537879 -17.216236 -0.543709
3.441442 -14.378526 5.094715
3.277555 -15.512983 3.008921
2.996607 -17.457766 -0.566734
3.799335 -14.737230 4.523239
3.480889 -17.506847 -0.551392
2.695925 -14.120510 5.653229
1.995665 -17.563089 -0.654438
3.042866 -14.392743 5.239918
2.857424 -15.460200 3.290802
3.374726 -14.879402 4.700422
2.952679 -17.809050 -0.576086
3.736863 -15.273136 4.079306
3.440599 -17.848513 -0.543427
2.705208 -14.161437 6.076357
2.557400 -14.892834 4.763607
2.355756 -15.890632 2.972704
2.971241 -14.874149 4.882376
2.440015 -17.947176 -0.614597
3.376362 -14.906187 5.163582
2.907927 -18.166683 -0.590256
3.399090 -18.201176 -0.549131
2.581930 -14.860117 5.330496
1.901359 -18.249226 -0.629610
2.931082 -15.175150 4.860346
2.391676 -18.310524 -0.635197
3.297304 -15.495217 4.640881
3.153504 -16.498772 2.905285
2.865905 -18.505884 -0.565910
3.589921 -16.536366 2.929142
3.356890 -18.560240 -0.559586
2.544748 -15.133279 5.352608
1.848113 -18.623877 -0.663248
2.947443 -15.146786 5.409998
2.343192 -18.675539 -0.651718
3.128012 -16.717653 3.070084
2.822381 -18.856123 -0.555098
3.545304 -16.917624 2.818869
2.476358 -15.564250 5.112247
1.800725 -18.970039 -0.641233
2.676961 -16.798862 3.113356
2.300638 -19.006569 -0.604170
3.228105 -16.055651 4.697943
3.094698 -16.991444 3.142664
2.781705 -19.186956 -0.506260
3.635890 -16.125849 4.661774
3.528305 -17.059534 3.114920
3.272123 -19.282833 -0.568478
2.581823 -15.116024 6.342472
2.436801 -15.851357 5.124624
1.747189 -19.348045 -0.666542
2.838752 -15.916437 5.095913
2.639062 -17.093134 3.153259
2.248440 -19.394915 -0.646847
3.184559 -16.399401 4.628988
3.074046 -17.176523 3.362509
2.727669 -19.612202 -0.606924
3.610115 -16.344679 4.796972
3.512415 -17.192314 3.419888
3.234392 -19.604416 -0.498859
2.592536 -15.143155 6.758032
2.434002 -15.951612 5.445110
1.698606 -19.701805 -0.645157
2.959371 -15.267918 6.628454
2.836426 -15.995529 5.450502
2.615299 -17.304184 3.331888
3.155789 -16.639723 4.733240
2.686825 -19.945387 -0.550240
3.468908 -17.565126 3.336233
3.189350 -19.989866 -0.527363
2.544185 -15.470965 6.683630
2.413196 -16.142681 5.613802
2.106868 -17.713545 3.111910
2.818652 -16.165186 5.652853
2.595374 -17.492159 3.545889
2.149711 -20.140799 -0.659607
3.106645 -17.024208 4.612808
3.523761 -17.085390 4.593889
3.415829 -18.021309 3.131012
3.142277 -20.393373 -0.576624
2.242888 -17.104116 4.577736
1.587718 -20.482149 -0.699545
2.735375 -16.725302 5.244520
2.539716 -17.892925 3.425932
2.106019 -20.481070 -0.605135
3.077116 -17.270679 4.714577
2.919792 -18.384811 3.000967
2.588261 -20.732637 -0.610151
3.384870 -18.286053 3.232758
3.097504 -20.777382 -0.587660
2.349271 -16.639097 5.772371
2.030548 -18.291155 3.240431
1.547220 -20.796413 -0.599123
2.631156 -17.413624 4.660936
2.058680 -20.843693 -0.580338
3.042263 -17.555170 4.760572
2.922776 -18.403254 3.480698
3.337445 -18.693964 3.121016
3.056414 -21.129925 -0.544395
2.269851 -17.134813 5.482826
2.146200 -17.779064 4.514038
2.003525 -18.522432 3.396206
2.679979 -17.185009 5.479418
2.421865 -18.737602 3.151558
2.007597 -21.229492 -0.584612
2.862313 -18.872211 3.281172
2.493708 -21.494280 -0.601980
3.453037 -17.689461 5.104897
3.010126 -21.528000 -0.563353
2.470962 -16.164150 7.373232
2.212119 -17.519609 5.373077
2.864753 -16.131962 7.485931
2.613561 -17.648714 5.254234
2.407788 -18.891218 3.426056
3.013755 -17.831684 5.288877
2.840178 -19.069094 3.490326
2.446262 -21.877281 -0.591318
2.966294 -21.905273 -0.544777
2.161581 -17.868013 5.325537
1.921120 -19.133436 3.492920
2.576517 -17.936188 5.297316
1.894760 -22.068207 -0.669737
2.952095 -18.308289 5.064030
3.401816 -18.129568 5.388285
2.917076 -22.329702 -0.587191
2.146542 -18.029762 5.550602
1.319038 -22.405523 -0.669561
2.540400 -18.218466 5.351715
1.845102 -22.447979 -0.643673
3.064631 -17.539045 6.597858
2.928714 -18.512068 5.235085
3.475698 -17.488230 6.733595
2.044662 -18.652147 5.130222
1.261054 -22.815342 -0.679239
2.523319 -18.384928 5.570883
1.787755 -22.875397 -0.677921
3.023240 -17.870110 6.568520
3.436143 -17.830183 6.687212
2.038454 -18.767429 5.425514
1.206213 -23.209404 -0.659931
2.592942 -18.019815 6.513987
1.735007 -23.275663 -0.666796
2.981689 -18.202951 6.543232
2.805096 -19.472301 4.829418
2.243957 -23.505754 -0.616350
3.412872 -18.031446 6.837305
2.138900 -18.309738 6.486610
1.145746 -23.634466 -0.675882
2.541445 -18.395197 6.435246
1.680211 -23.689322 -0.666904
2.952483 -18.447515 6.641369
3.373129 -18.375826 6.798199
2.073151 -18.740847 6.341219
2.561884 -18.327963 6.947947
2.926732 -18.667431 6.773636
3.344443 -18.624805 6.889849
3.161098 -20.213272 4.827021
2.053000 -18.927061 6.524328
1.032169 -24.448042 -0.637146
2.493736 -18.807030 6.741121
2.918115 -18.763645 7.064966
2.091233 -24.741852 -0.579960
3.347799 -18.596590 7.337357
3.067934 -21.021400 4.244532
2.631799 -24.800167 -0.575251
2.069251 -18.915165 6.959005
2.498430 -18.835611 7.119663
2.276373 -20.214109 5.368080
2.895404 -18.961679 7.223698
2.040385 -25.154877 -0.555355
3.311003 -18.916655 7.338247
2.586446 -25.194801 -0.527374
1.892904 -19.951582 6.072252
0.912513 -25.298241 -0.617775
2.439824 -19.257206 6.999941
2.693960 -20.456839 5.782049
1.979069 -25.644569 -0.618675
3.340875 -18.659418 8.055172
2.529432 -25.691061 -0.598726
1.860112 -20.208466 6.180794
0.836469 -25.813593 -0.708206
2.592289 -18.361616 8.504959
2.255031 -20.468328 5.922226
2.928217 -18.789354 8.230236
2.581131 -21.312603 5.171946
3.285508 -19.141218 7.858984
3.084548 -20.882854 5.753300
2.094825 -18.994907 8.066833
2.548799 -18.687065 8.492134
1.324491 -26.357944 -0.746025
2.905043 -18.990112 8.373882
2.991048 -21.695871 5.213123
2.430113 -26.557871 -0.561928
1.978129 -19.709381 7.605770
1.594122 -21.828598 5.092295
2.533791 -18.834274 8.696144
1.275871 -26.739105 -0.656258
2.898011 -19.073257 8.655678
3.251899 -19.437653 8.282217
2.374672 -27.042299 -0.592363
1.942150 -19.980448 7.683271
1.558011 -22.108456 5.203730
2.432612 -19.524239 8.267698
2.869061 -19.316351 8.749424
3.245002 -19.500553 8.589149
2.969096 -21.892765 5.846210
2.319774 -27.522654 -0.609083
1.905034 -20.258156 7.756365
0.577311 -27.640736 -0.694942
2.458002 -19.417049 8.770231
2.031915 -22.110043 5.694790
2.836576 -19.585623 8.816000
2.713918 -20.483555 7.801962
3.208827 -19.817701 8.604694
2.266214 -27.992044 -0.604759
2.111497 -19.176893 9.361364
1.883316 -20.450291 7.929131
1.464787 -22.785950 5.302128
2.324527 -20.314997 8.133200
1.963298 -22.604460 5.564259
2.611368 -21.268524 7.317377
3.214180 -19.775097 9.023724
2.030730 -19.694916 9.149008
0.956596 -25.710751 2.500933
2.476691 -19.401428 9.521362
2.253826 -20.817822 7.959772
2.069858 -21.987013 6.670729
2.742348 -20.340288 8.723690
3.196904 -19.929110 9.220161
2.026028 -19.787571 9.411644
2.431399 -19.740114 9.510649
2.257820 -20.846254 8.312349
2.028145 -22.309866 6.726791
2.818681 -19.810547 9.660513
2.651530 -21.040285 8.342978
3.130454 -20.510231 8.959061
1.990425 -20.053635 9.485977
2.417941 -19.876165 9.721760
1.803150 -23.804316 5.540304
1.470716 -25.928377 3.279276
2.766438 -20.226088 9.575647
2.641746 -21.144926 8.608290
3.109315 -20.698650 9.125381
1.874944 -20.772060 9.089371
2.275006 -20.841343 9.064125
2.752357 -20.360842 9.790062
3.097968 -20.802458 9.379322
1.843822 -21.014868 9.202467
2.217046 -21.264727 8.992079
1.913725 -23.212786 6.989790
2.626191 -21.324129 9.160706
2.995139 -21.701111 8.824293
1.789534 -21.389771 9.184101
2.225093 -21.264240 9.356829
1.820993 -23.866064 6.728977
2.633776 -21.299740 9.545872
3.030077 -21.403793 9.486778
1.823749 -21.259937 9.674664
1.113272 -25.319740 5.636580
2.174695 -21.639986 9.341824
2.595040 -21.618311 9.587307
2.994063 -21.723145 9.528656
1.721361 -21.910913 9.391409
2.172540 -21.704462 9.637222
2.545654 -22.016520 9.556782
2.207073 -24.530897 7.131216
2.948100 -22.129490 9.491655
1.649430 -22.389437 9.289961
2.202914 -21.557325 10.131575
2.509686 -22.315712 9.627584
2.924425 -22.342585 9.645149
1.500862 -23.311489 8.780043
1.993713 -22.966003 9.150152
1.751094 -24.543238 7.664938
2.486443 -22.520622 9.790281
2.839670 -23.087444 9.305578
1.686995 -22.301659 10.085844
1.794846 -24.312983 8.266392
1.586638 -25.669643 7.011112
2.425988 -23.003304 9.699707
2.203575 -24.662333 8.181234
2.853070 -22.979008 9.763805
2.650158 -24.744726 8.151024
1.673224 -22.444258 10.303169
2.048995 -22.706640 10.105291
2.412781 -23.134050 9.935501
2.622740 -24.992496 8.308535
1.530168 -23.338593 9.846703
1.982704 -23.189552 10.020996
2.408864 -23.195303 10.231335
2.725051 -24.110992 9.463778
1.474212 -23.728563 9.856518
1.945726 -23.481441 10.114103
2.399359 -23.298222 10.487572
2.751612 -23.889030 10.014675
1.342470 -24.562843 9.489151
1.922531 -23.683142 10.288679
2.328660 -23.860149 10.350262
2.707705 -24.281353 10.030569
1.047530 -26.357841 8.326479
1.815549 -24.436865 9.996578
1.472699 -26.695614 8.083223
1.970327 -26.584095 8.413151
1.826192 -27.666880 7.505844
2.679476 -24.537600 10.166876
2.414815 -26.845333 8.236923
1.929871 -26.923912 8.514124
2.372566 -27.225407 8.308029
1.965447 -26.691547 9.082249
2.459087 -26.482300 9.291199
1.842911 -27.650854 8.691977
2.391739 -27.082319 9.183054
1.660338 -29.065872 7.968359
2.286271 -28.016207 8.826921
1.781105 -28.190037 9.034079
2.265099 -28.214558 9.054266
0.029469 -41.491867 -0.594427
2.264234 -28.235842 9.415026
2.190590 -28.894180 9.301815
-0.140140 -42.885902 -0.504707
5.372184 -1.059093 29.826414
5.368175 -1.094460 29.807478
5.372208 -1.031005 29.856394
5.373514 -1.047903 29.845263
5.368839 -1.056992 29.841635
5.375285 -1.032477 29.858040
5.366532 -1.074906 29.832729
5.368512 -1.092076 29.821882
5.370780 -1.042654 29.856115
5.376022 -1.026230 29.866747
5.366270 -1.077499 29.836864
5.372076 -1.061047 29.847343
5.366142 -1.078768 29.838947
5.374854 -1.036735 29.864828
5.367126 -1.071494 29.846149
5.372810 -1.054846 29.856333
5.370752 -1.073118 29.848145