# This PCD file was generated using the MATLAB® pcwrite function
# from Computer Vision System Toolbox®.
# .PCD v.7 - Point Cloud Data file format
VERSION .7
FIELDS x y z
SIZE 4 4 4
TYPE F F F
COUNT 1 1 1
WIDTH 780
HEIGHT 1
VIEWPOINT 0 0 0 1 0 0 0
POINTS 780
DATA ascii
63.430580 -68.822281 0.877792
62.778946 -68.887329 0.919632
62.786430 -69.669037 0.924835
62.178894 -68.941940 0.906506
62.162445 -69.723518 0.944221
61.605057 -68.991554 0.868820
61.571243 -69.772324 0.931454
60.992073 -69.051018 0.893661
60.440155 -69.097366 0.845562
60.407753 -69.868683 0.910748
59.878464 -69.146805 0.819923
59.841064 -69.915009 0.894421
59.267864 -69.208740 0.873936
59.276573 -69.961716 0.884651
58.727745 -69.254868 0.837082
58.736748 -70.003960 0.848621
58.189377 -69.301376 0.806324
58.176567 -70.051392 0.851646
57.631050 -69.353607 0.814743
57.662449 -70.089539 0.794777
56.967743 -69.432983 0.996113
57.063492 -70.147285 0.876984
56.410591 -69.487183 1.026619
56.425755 -70.214928 1.033409
53.437073 -70.160316 4.962502
55.918678 -70.254082 0.995220
52.971352 -70.200829 4.942345
55.371796 -70.303146 1.030396
52.522446 -70.237648 4.901760
51.733994 -71.078072 6.255333
54.848015 -70.347733 1.037685
52.054722 -70.280090 4.900211
51.288391 -71.114433 6.244335
51.608551 -70.317505 4.869400
51.461632 -71.002487 5.161419
51.139416 -70.361847 4.886566
51.175133 -70.999367 4.860325
50.696251 -70.399834 4.865467
50.741539 -71.032211 4.822227
52.857014 -70.508987 0.976788
50.254478 -70.438110 4.849068
50.285484 -71.071259 4.832371
49.777184 -70.487198 4.907520
49.808167 -71.116455 4.891361
49.379845 -70.514168 4.821491
49.406456 -71.143066 4.814476
48.924591 -70.558502 4.854427
48.951313 -71.184067 4.847939
48.489094 -70.597839 4.856728
48.515976 -71.220619 4.850704
48.089706 -70.626991 4.792171
48.099556 -71.252762 4.822273
47.783833 -70.627785 4.534294
47.701160 -71.280518 4.762165
47.242390 -70.701759 4.782909
47.253250 -71.322487 4.814178
47.058197 -71.955719 4.836315
48.857338 -72.190178 0.962078
46.829025 -70.736931 4.766739
46.824078 -71.360046 4.834770
42.796394 -72.951530 13.443363
48.383507 -72.226303 0.997574
46.400864 -70.777527 4.791054
42.695084 -72.463997 13.258560
46.440784 -71.385132 4.759842
42.509178 -72.967194 13.358791
42.496544 -73.450340 13.434801
45.990204 -70.813194 4.783356
42.362930 -72.493065 13.274931
46.022255 -71.420876 4.770695
42.209885 -72.986137 13.304321
42.182556 -73.471756 13.417500
45.580807 -70.849106 4.779808
41.943691 -72.548691 13.505383
45.609154 -71.455704 4.776653
41.864895 -73.017395 13.362957
41.965015 -73.471680 13.173367
45.172703 -70.885254 4.780369
41.589813 -72.586021 13.593693
41.641556 -73.016693 13.130159
41.451973 -73.539360 13.650686
41.577465 -72.030998 12.781609
44.794735 -71.523773 4.782646
41.393223 -73.022362 12.954401
41.578903 -73.458908 12.541201
41.220764 -72.071983 12.873907
41.477337 -72.475891 12.272598
41.114208 -73.036324 12.854872
41.242836 -73.485725 12.579826
40.856163 -72.116890 12.997852
41.096947 -72.520966 12.422823
43.996399 -71.589371 4.777031
40.988148 -73.006935 12.347843
41.174728 -73.447914 11.913021
40.717651 -72.079552 12.520754
41.129726 -72.431870 11.468025
41.945953 -72.662224 8.849236
43.429920 -72.832230 4.862953
39.717972 -72.364746 14.424814
41.378551 -72.266220 9.864922
40.122852 -73.124054 12.993093
40.171284 -73.585670 12.922720
39.418938 -72.391739 14.433052
39.482780 -72.825623 14.314959
39.818642 -73.146721 12.980021
39.172684 -73.786072 14.915432
39.967712 -73.581055 12.617716
39.114544 -72.421402 14.463009
39.353275 -72.792160 13.827307
39.448616 -73.190056 13.168007
38.867249 -73.811813 14.968000
38.975883 -72.384972 13.996498
39.107105 -72.798218 13.669914
39.107403 -73.225632 13.284346
38.640869 -73.816887 14.786819
39.104874 -73.692123 13.365854
38.748348 -72.382767 13.785282
38.828705 -72.815659 13.609131
39.510521 -72.566559 11.479443
38.286072 -73.416847 14.932209
38.288677 -73.856209 14.996847
38.277191 -72.482704 14.352936
38.311314 -72.922653 14.319704
38.223614 -73.366241 14.212906
38.093147 -73.852715 14.715389
38.027863 -72.490768 14.223185
38.105038 -72.914932 14.047125
37.840446 -73.420822 14.532534
37.830864 -73.867661 14.645239
37.807465 -72.485565 13.990648
37.914200 -72.899986 13.709032
37.601112 -73.427635 14.378195
37.615005 -73.869003 14.414595
37.540756 -72.500404 13.912506
37.472733 -72.984634 14.242592
41.297211 -71.440468 0.675671
37.338459 -73.442352 14.302477
37.310154 -73.896629 14.492676
37.192741 -72.553398 14.133604
40.845428 -70.836685 0.686211
37.169384 -73.015800 14.311558
37.095825 -73.449768 14.152132
37.017727 -73.921127 14.535297
36.937408 -72.563705 14.022427
40.441933 -70.868362 0.657906
36.918510 -73.025482 14.191227
36.791275 -73.480019 14.235018
36.814522 -73.917763 14.243088
36.634563 -72.597351 14.096228
40.026741 -70.906372 0.681412
36.609959 -73.060165 14.294617
36.421234 -73.536491 14.591370
36.456524 -73.964134 14.551628
36.380638 -72.606926 13.980103
36.280251 -73.105606 14.497675
36.134926 -73.562126 14.632433
36.167725 -73.989029 14.602478
36.134361 -72.611977 13.827421
35.972923 -73.142487 14.626764
35.883606 -73.574036 14.530704
35.898453 -74.007767 14.578411
35.790100 -72.670067 14.102877
35.762676 -73.133842 14.341871
35.674282 -73.567848 14.236677
35.631512 -74.025909 14.547039
35.434498 -72.737572 14.459665
35.451115 -73.174164 14.505419
35.358704 -73.606880 14.421257
35.412544 -74.026451 14.293816
35.172127 -72.753799 14.402248
35.221798 -73.173561 14.292362
35.086685 -73.627731 14.413891
35.163677 -74.037430 14.169113
34.967014 -72.734795 14.054871
35.012508 -73.160835 13.963953
34.855053 -73.629807 14.203701
34.905495 -74.051765 14.085602
34.690117 -72.758705 14.060074
34.766521 -73.166298 13.803013
34.643887 -73.620621 13.867960
34.655499 -74.062576 13.955278
34.464657 -72.748810 13.784311
34.507626 -73.178299 13.702765
34.378792 -73.636948 13.808222
34.426376 -74.063919 13.699375
34.238174 -72.737068 13.490568
34.195385 -73.222435 13.908630
34.098289 -73.661476 13.839193
34.145157 -74.087379 13.730310
34.014912 -72.720039 13.149387
33.914295 -73.249138 13.950684
33.860939 -73.662384 13.607101
33.882214 -74.102829 13.655491
33.732246 -72.745140 13.163235
33.735386 -73.207901 13.336485
33.668655 -73.634888 13.051706
33.662987 -74.096474 13.287075
33.454479 -72.766945 13.150127
33.482170 -73.213013 13.166159
33.485130 -73.596924 12.369061
33.801979 -73.398911 10.119884
33.388710 -74.116257 13.265751
33.192768 -72.775238 13.021332
33.285130 -73.174316 12.564056
33.162323 -73.644485 12.655159
33.173588 -74.103683 12.801935
33.055447 -72.667908 11.889217
33.050449 -73.158485 12.180153
32.933746 -73.629356 12.222591
33.191795 -73.447746 10.126202
32.916351 -74.111938 12.616653
32.930897 -72.530472 10.480701
32.771042 -73.176048 12.124016
33.010597 -72.971626 10.088230
34.147911 -72.001129 0.423191
32.658382 -73.644707 12.138058
32.667648 -74.113480 12.334362
32.648891 -72.535545 10.306686
32.685841 -73.015350 10.279690
33.761230 -72.030067 0.396729
32.463337 -73.594467 11.282944
32.428062 -74.106384 11.925034
32.353416 -72.553329 10.243767
32.413280 -73.011002 9.988983
32.265156 -73.535423 10.309723
32.232021 -74.063599 11.001175
33.262745 -73.319336 0.437401
31.993824 -72.650383 10.886139
32.134769 -72.474617 9.322285
32.107052 -73.038383 10.017582
31.922215 -73.600113 10.796703
31.918707 -74.101891 11.220989
31.708597 -72.660530 10.759567
31.837463 -72.483543 9.174618
31.813055 -73.052383 9.910030
31.610813 -73.640434 10.998970
31.609505 -74.140099 11.443729
31.375425 -72.741432 11.269852
31.331308 -73.311859 12.336338
31.494095 -73.097481 10.122646
31.322039 -73.658569 10.935688
31.337042 -74.146912 11.211571
31.087458 -72.759552 11.217987
31.101919 -73.257095 11.530220
30.946253 -73.791618 12.277592
31.084320 -73.607880 10.029308
31.013494 -74.205452 11.738457
30.826061 -72.723579 10.672325
30.809135 -73.287994 11.610229
30.729319 -73.715034 11.055504
30.871645 -74.048515 9.060272
30.472820 -72.883003 11.916214
30.559439 -72.678802 10.039280
30.569593 -73.215370 10.598946
30.444016 -73.726646 10.910221
30.504784 -73.615456 9.526012
30.545223 -74.098923 9.452209
30.204296 -72.859497 11.484730
30.236794 -73.329475 11.559170
30.196972 -73.646629 9.611744
30.236650 -74.129387 9.548000
29.913010 -72.894394 11.592113
29.953457 -73.340347 11.427895
29.878695 -73.714081 10.158611
29.919773 -73.591377 8.603989
29.940601 -74.134674 9.257492
29.627094 -72.911324 11.533070
29.661280 -73.381096 11.617630
29.569031 -73.785683 10.768211
29.606594 -73.619583 8.645031
29.649548 -74.106590 8.440666
29.337931 -72.950653 11.685326
29.382387 -73.347672 11.003418
29.272074 -73.839653 11.161297
29.297544 -73.619354 8.319935
29.336020 -74.132477 8.454533
29.051567 -72.987892 11.820240
29.056128 -72.785866 9.900848
29.090244 -73.383408 11.138435
29.096849 -73.210846 9.246304
28.982098 -73.879501 11.377541
28.982784 -73.658867 8.506004
29.022898 -74.154808 8.411255
28.761295 -72.921158 10.963112
28.799431 -73.400238 11.066875
28.790604 -73.247917 9.383778
28.694763 -73.908623 11.456726
28.671329 -73.698349 8.694817
28.707834 -74.166870 8.201042
28.455624 -72.852737 10.078655
28.509638 -73.431686 11.157196
28.483606 -73.264450 9.294872
28.404041 -73.916786 11.259258
28.357716 -73.713722 8.567303
28.389944 -74.182526 8.043480
28.157761 -72.886307 10.171486
28.179827 -73.299965 9.417763
28.043957 -73.735466 8.522289
28.075256 -74.213188 8.128204
27.856009 -72.902649 10.097874
27.782740 -72.672432 7.850822
27.826839 -73.191185 7.910465
27.725945 -73.750122 8.380352
27.754009 -74.229576 7.976219
27.554592 -72.923363 10.066673
27.463324 -72.698814 7.859943
27.506718 -73.214005 7.879742
27.389856 -73.738914 7.882526
27.433870 -74.251755 7.916840
27.241629 -72.922256 9.819500
27.143023 -72.723419 7.851974
27.186010 -73.237106 7.851822
27.071508 -73.765556 7.895790
27.116194 -74.278343 7.930080
26.818415 -72.741287 7.777275
26.864744 -73.260483 7.826717
26.750277 -73.788841 7.862053
26.796284 -74.302841 7.906223
26.499121 -72.769409 7.804733
26.545584 -73.287552 7.844204
26.431812 -73.815964 7.880886
26.475166 -74.327049 7.875217
26.172600 -72.787918 7.735744
26.221375 -73.308929 7.794922
26.107307 -73.837692 7.822952
26.157219 -74.354362 7.896812
25.853176 -72.816521 7.768818
25.898663 -73.333138 7.778301
25.785097 -73.862534 7.807652
25.833508 -74.378006 7.851551
25.533230 -72.844360 7.794769
25.574568 -73.356789 7.754597
25.462440 -73.887650 7.795189
25.511650 -74.403610 7.838985
25.204372 -72.863770 7.734398
25.251879 -73.382378 7.753586
25.135201 -73.910324 7.745880
25.189369 -74.429489 7.829258
24.880871 -72.889244 7.736324
24.926765 -73.406593 7.735611
24.815880 -73.938698 7.778809
24.866688 -74.455635 7.822384
24.551203 -72.910255 7.691681
24.598732 -73.429482 7.700718
24.493240 -73.965286 7.784817
24.542435 -74.481522 7.808445
24.230703 -72.939095 7.728989
24.273623 -73.455086 7.698418
24.163931 -73.988853 7.744198
24.209934 -74.504601 7.737972
23.910561 -72.968132 7.769085
23.964413 -73.490433 7.817513
23.839149 -74.015343 7.746075
23.891012 -74.533646 7.779335
23.583549 -72.992775 7.762722
23.639694 -73.516472 7.820843
23.514072 -74.042091 7.750828
23.572483 -74.562897 7.823479
23.248404 -73.013130 7.710075
23.294865 -73.532715 7.698959
23.187168 -74.068481 7.748615
23.234280 -74.585945 7.742130
22.913593 -73.034752 7.670307
22.976543 -73.563217 7.757427
22.856560 -74.093895 7.729633
22.917122 -74.616180 7.801857
22.579401 -73.057610 7.643394
22.636787 -73.584045 7.690914
22.523489 -74.119003 7.703796
22.543940 -74.630859 7.539623
22.244320 -73.080795 7.619511
22.281199 -73.599266 7.549061
22.153259 -74.132294 7.484692
22.216244 -74.659378 7.556221
21.870804 -73.086693 7.403030
21.937637 -73.620941 7.488972
21.869942 -74.174988 7.739624
21.926146 -74.697365 7.771935
21.579458 -73.131622 7.619961
21.631626 -73.657677 7.627670
21.527063 -74.198639 7.683640
21.576172 -74.720810 7.676533
21.250414 -73.159203 7.644176
21.311228 -73.688667 7.690800
21.190990 -74.225006 7.669926
21.248741 -74.750031 7.701778
20.904198 -73.180191 7.593487
20.974422 -73.714111 7.678764
20.871389 -74.256287 7.737267
20.921223 -74.779503 7.729950
20.574306 -73.208344 7.623737
20.634657 -73.739159 7.660080
20.516569 -74.278694 7.651726
20.575819 -74.805809 7.683140
20.253586 -73.240105 7.695724
20.307756 -73.768745 7.702785
20.187576 -74.308243 7.686108
20.247528 -74.835854 7.717339
19.897697 -73.259583 7.625385
19.959606 -73.792343 7.661205
19.848944 -74.335846 7.684685
19.909641 -74.864502 7.715683
19.554798 -73.284439 7.616379
19.622425 -73.819733 7.671242
19.509657 -74.363762 7.686386
19.561172 -74.891853 7.678425
19.213650 -73.310432 7.620193
19.282227 -73.846748 7.674728
19.180054 -74.394119 7.729809
19.242193 -74.924309 7.760357
18.874538 -73.337540 7.636765
18.938789 -73.873413 7.671730
18.818590 -74.418442 7.660694
18.892166 -74.952316 7.729450
18.521389 -73.360970 7.608509
18.600033 -73.901718 7.691143
18.477180 -74.447327 7.671921
18.540897 -74.980713 7.701881
18.178259 -73.387924 7.621876
18.244104 -73.926422 7.656197
18.135235 -74.476524 7.686317
18.199692 -75.010948 7.716019
17.820150 -73.411293 7.590721
17.881058 -73.950233 7.605556
17.781132 -74.504036 7.665676
17.846375 -75.040062 7.695065
17.475597 -73.438904 7.610596
17.546001 -73.980797 7.653759
17.437868 -74.533875 7.686539
17.551579 -75.076546 7.868271
17.139759 -73.469109 7.662151
17.210983 -74.011620 7.705009
17.155712 -74.573624 7.900658
17.234459 -75.110321 7.967747
16.860521 -73.513115 7.887123
16.919853 -74.051277 7.891998
16.813236 -74.603897 7.927410
16.867857 -75.138939 7.918213
16.500546 -73.537712 7.868824
16.560448 -74.077629 7.873383
16.444424 -74.630775 7.881775
16.525391 -75.170593 7.947990
16.132763 -73.561226 7.835205
16.193254 -74.103180 7.839413
16.087238 -74.659904 7.877495
16.156059 -75.200027 7.905540
15.760105 -73.584442 7.795837
15.831324 -74.130325 7.827866
15.715442 -74.687630 7.839108
15.795269 -75.230820 7.894978
15.399705 -73.610962 7.797588
15.475180 -74.159012 7.838577
15.355993 -74.717537 7.841888
15.440317 -75.262589 7.906696
15.024173 -73.635025 7.765556
15.114728 -74.187485 7.843399
15.009907 -74.749512 7.885498
15.066819 -75.293274 7.875137
14.657992 -73.661613 7.765156
14.720787 -74.211281 7.767986
14.634381 -74.778450 7.857971
14.691788 -75.324394 7.847336
14.298214 -73.689972 7.786888
14.361547 -74.241119 7.789394
14.167804 -74.798035 7.611771
14.225989 -75.349495 7.600624
13.812594 -73.696228 7.507587
13.895720 -74.256126 7.555546
13.772143 -74.826469 7.555664
13.846069 -75.381706 7.581177
13.444997 -73.724907 7.528191
13.513615 -74.284241 7.538822
13.421135 -74.860085 7.614117
13.480260 -75.415359 7.602444
13.048976 -73.749313 7.488277
13.110402 -74.310181 7.480087
13.006479 -74.887901 7.529186
13.101831 -75.448654 7.599762
12.663229 -73.776169 7.479836
12.745272 -74.341789 7.517002
12.621626 -74.919273 7.521782
12.681828 -75.480034 7.509457
12.288507 -73.805397 7.502602
12.355007 -74.370705 7.502846
12.251999 -74.952522 7.554695
12.329123 -75.515808 7.578564
11.866880 -73.828018 7.429466
11.954948 -74.399086 7.474556
11.848070 -74.983315 7.518761
11.909254 -75.548439 7.505848
11.481197 -73.856842 7.442062
11.544661 -74.426979 7.432377
11.425140 -75.013237 7.450970
11.504015 -75.582474 7.473831
11.090132 -73.885468 7.449593
11.171444 -74.459686 7.475517
11.034714 -75.046402 7.459682
11.114393 -75.617790 7.482101
10.680208 -73.912094 7.425346
10.766785 -74.489479 7.459660
10.647600 -75.080322 7.481361
10.705902 -75.652794 7.458523
10.264048 -73.938629 7.396530
10.351555 -74.518837 7.430218
10.232412 -75.112762 7.453522
10.313738 -75.689003 7.474979
9.855209 -73.966858 7.389900
9.920763 -74.547371 7.378563
9.820000 -75.146034 7.438999
9.828762 -75.722305 7.317814
9.440226 -73.994987 7.378761
9.427263 -74.570770 7.216663
9.293716 -75.172707 7.216862
9.395676 -75.758293 7.272449
8.886284 -74.007149 7.117168
9.057167 -74.606590 7.298214
8.976084 -75.213203 7.396805
9.078938 -75.798538 7.451920
8.586264 -74.050514 7.334782
8.715870 -74.645241 7.435978
8.553873 -75.247711 7.386932
8.643427 -75.835442 7.415066
8.185883 -74.082375 7.371986
8.277925 -74.675865 7.402493
8.159460 -75.284340 7.433891
8.240078 -75.873810 7.444069
7.744932 -74.110336 7.344044
7.813143 -74.705063 7.330460
7.719532 -75.319046 7.406929
7.800955 -75.911781 7.416565
7.317093 -74.140457 7.346844
7.416008 -74.740402 7.384605
7.277607 -75.354324 7.384838
7.380011 -75.950760 7.428482
6.857048 -74.167976 7.302822
3.956861 -73.873192 2.439602
6.967209 -74.772324 7.356964
6.833742 -75.390175 7.367668
6.937244 -75.989830 7.410591
6.415407 -74.198151 7.298138
1.703337 -73.734894 -0.449646
6.521528 -74.805206 7.342888
6.382780 -75.426353 7.346897
6.492586 -76.029465 7.397636
7.440619 -74.368515 9.666454
1.166353 -73.771935 -0.451065
7.450415 -74.933456 9.561077
6.058226 -74.837563 7.308277
7.392212 -75.523590 9.682945
5.924555 -75.462906 7.322712
7.478765 -76.091309 9.701660
6.040819 -76.069588 7.381153
7.074902 -74.402466 9.751709
0.622004 -73.809158 -0.454967
7.174879 -74.975121 9.790230
5.608654 -74.871597 7.304306
7.054060 -75.561996 9.811615
5.496365 -75.501312 7.354378
7.157293 -76.130814 9.855263
5.619162 -76.110710 7.420486
0.080948 -73.847534 -0.444389
6.901739 -75.016777 10.021557
5.039904 -75.539200 7.348724
6.750278 -76.169525 9.877342
7.785391 -74.595261 12.129276
-0.472975 -73.885628 -0.444481
7.780462 -75.128265 12.011135
6.702168 -75.062752 10.363750
7.930376 -75.692764 12.433584
4.587120 -75.577866 7.356590
6.402399 -76.209267 9.995884
7.232971 -74.610527 11.906139
7.532936 -75.168159 12.245079
7.029676 -75.710251 11.686832
5.809608 -75.671013 9.868595
6.988831 -76.256058 11.514393
6.132763 -76.249832 10.234276
4.259422 -76.236206 7.432972
7.294222 -74.676498 12.598043
7.462072 -75.217712 12.737165
7.006090 -75.756767 12.257496
7.459095 -76.299042 12.813484
8.084076 -74.797005 14.320242
6.892797 -74.704681 12.605471
7.250225 -75.258728 13.014406
6.499334 -75.788734 12.120491
7.157600 -76.336563 12.960032
7.776863 -74.829674 14.436104
6.536074 -74.736816 12.682730
7.104980 -75.302818 13.382816
-2.625553 -74.807518 -0.413689
5.988590 -75.821556 11.989899
6.926340 -76.374382 13.207441
7.376656 -74.855812 14.425365
5.524771 -74.722031 11.856022
4.146082 -74.622437 9.943203
6.532957 -75.325569 13.150639
6.059540 -75.869209 12.676256
7.235378 -76.412224 14.203083
5.604971 -76.411942 11.939049
7.299875 -74.905151 14.862335
7.607943 -75.425987 15.185043
7.545177 -75.946510 15.267689
7.447645 -76.448334 15.037777
5.815414 -76.450783 12.812151
6.858196 -74.928993 14.802189
7.277235 -75.458427 15.266459
7.527046 -75.987038 15.766312
6.613649 -76.486237 14.448324
6.292843 -74.945663 14.588472
6.215330 -75.460487 14.387733
6.442448 -76.007378 14.855913
7.020809 -76.520180 15.518948
5.709911 -74.962631 14.366560
5.808773 -75.492065 14.395603
6.395546 -76.047714 15.320572
6.502110 -76.557938 15.362495
5.963177 -75.031357 15.219559
4.743927 -74.957993 13.673935
6.086565 -75.550125 15.280640
6.472864 -76.089142 15.932863
4.767281 -76.064362 13.775812
6.381435 -76.593460 15.723427
5.678896 -75.066574 15.380215
6.046881 -75.594635 15.744925
4.734964 -75.547638 14.105820
6.320856 -76.126503 16.245617
5.464367 -76.636101 15.085890
5.838436 -75.126610 16.085274
5.735699 -75.629097 15.866678
5.950794 -76.161163 16.288151
5.831247 -76.666870 16.049992
4.825581 -76.677773 14.818480
5.203121 -75.142235 15.817347
5.744036 -75.673996 16.376503
5.733503 -76.197693 16.519337
4.190102 -76.183197 14.668446
5.241495 -76.707657 15.836584
5.103960 -75.187050 16.199039
5.314537 -75.704758 16.356842
5.078524 -76.230774 16.233751
5.143637 -76.742744 16.219189
5.074911 -75.234665 16.656036
5.000257 -75.739441 16.479078
4.867908 -76.267937 16.479668
3.848228 -76.261673 15.299070
4.678768 -76.783020 16.169401
4.584124 -75.259460 16.577877
4.686348 -75.774384 16.604675
3.383451 -75.739960 15.114147
3.458265 -76.299553 15.360138
-0.133110 -76.283157 11.274143
4.151991 -76.824989 16.057917
4.442951 -75.301079 16.901421
3.156740 -75.779587 15.366507
3.494175 -76.339157 15.902843
3.648125 -76.867371 15.983364
2.954893 -75.283638 15.737965
3.234463 -75.826088 15.954197
3.517393 -76.377907 16.420565
3.913794 -76.895767 16.767122
2.720261 -75.323051 15.978500
3.367872 -75.872627 16.589853
3.330242 -76.415871 16.700968
2.270239 -76.415863 15.556417
3.234791 -76.942215 16.508177
2.275600 -75.354004 15.995207
2.826607 -75.904701 16.491488
2.467100 -76.454681 16.262043
2.973928 -76.980766 16.710859
1.677261 -75.379784 15.858601
0.018717 -75.316826 14.125036
2.695807 -75.945091 16.834635
2.369654 -76.493095 16.644489
2.873568 -77.015747 17.082247
1.290760 -75.414429 15.952328
1.239008 -75.963478 15.807308
1.313162 -76.535255 16.038773
1.711161 -77.076164 16.356619
1.227488 -75.460625 16.377356
0.984941 -76.003418 16.041382
1.237627 -76.574120 16.450031
1.673620 -77.110291 16.800573
0.899860 -75.497490 16.533779
0.988010 -76.046753 16.531708
0.826048 -76.614914 16.522783
2.209236 -77.128731 17.806740
0.038527 -77.186539 15.650751
0.737526 -75.539711 16.854343
0.447109 -76.082962 16.481403
1.682251 -76.645531 17.834934
0.671707 -76.654030 16.851664
1.543917 -77.178810 17.614239
1.098360 -75.596992 17.673727
1.352142 -76.134773 17.831512
1.532766 -76.683060 18.148706
1.378347 -77.215485 17.915857
0.166292 -77.250603 16.753061
0.961847 -75.638458 18.004934
-1.849894 -76.147415 15.262724
-3.187227 -76.135765 13.998997
0.118803 -76.734360 17.271513
1.354166 -77.247818 18.348665
0.095736 -77.285721 17.162151
-0.344927 -75.648949 17.249811
-4.123541 -75.550087 13.751984
-0.386787 -76.202538 17.123178
1.302784 -76.756729 18.832335
0.127466 -76.771202 17.746788
1.210752 -77.283478 18.664396
-0.498280 -75.691124 17.578472
-3.197763 -75.624733 15.122688
0.086885 -76.246986 18.025726
-0.761105 -76.819641 17.399961
-0.267136 -77.362206 17.762371
-1.609676 -75.710907 17.048126
-3.734072 -75.661934 15.148909
-0.505447 -76.284691 17.949852
-0.732468 -76.856148 17.891991
-0.473806 -77.401222 18.037514
-1.823503 -75.752632 17.333590
-1.176233 -76.323135 17.816195
-0.592258 -76.890251 18.473780
-1.068235 -77.453651 17.970993
-1.974096 -75.795494 17.673000
-7.590052 -75.682899 12.824827
-1.632278 -76.363129 17.882093
-2.588272 -76.960327 17.204388
-4.732336 -76.997307 15.357632
-2.104650 -77.522667 17.533781
-19.407263 -75.516869 3.349655
-2.142706 -76.403687 17.908577
-6.102762 -76.402122 14.538418
-5.363916 -77.049019 15.328339
-3.783220 -77.617004 16.575672
-18.824747 -75.596619 4.551018
-5.675570 -77.095375 15.576393
-4.152689 -77.665062 16.752657
-19.447378 -75.654671 4.738243
-4.359163 -77.707153 17.067078
-20.039118 -75.713844 4.958385
-20.716917 -75.772499 5.117657
-28.263304 -78.748749 -0.890537
-21.395571 -75.831963 5.285767
-25.416620 -77.729004 2.262669
-22.051115 -75.892471 5.480942
-22.739008 -75.953438 5.660618
-22.517321 -76.848282 5.698044
-23.427553 -76.015213 5.849350
-23.124014 -76.915207 5.944286
-24.092310 -76.077950 6.064739
-23.811205 -76.983604 6.139534
-24.822458 -76.141090 6.242531
-24.531439 -77.053185 6.320686
-25.569853 -76.205055 6.418743
-25.252424 -77.123642 6.511532
-34.962700 -78.686996 3.981514
-34.461105 -79.714996 4.158211
-34.287605 -79.761650 5.033810
-33.917633 -78.830666 6.896023
-33.619118 -79.888809 7.674568
28.734497 -76.426735 44.266407
28.770304 -76.428337 44.284504
28.741358 -76.426842 44.275028
28.759577 -76.429329 44.283630
28.749369 -76.426659 44.281410
28.731731 -76.431259 44.272415
28.721354 -76.428207 44.270546
28.712696 -76.432663 44.265961
28.765961 -76.429436 44.293484
28.719334 -76.428741 44.274967
28.728785 -76.432030 44.278790
28.754902 -76.427147 44.293339
28.773458 -76.429268 44.301174
28.754078 -76.427376 44.295250
28.736071 -76.431923 44.287052
28.726006 -76.432793 44.285244
28.724768 -76.429306 44.287704
28.743567 -76.431786 44.295025
28.761276 -76.430733 44.304497