# This PCD file was generated using the MATLAB® pcwrite function
# from Computer Vision System Toolbox®.
# .PCD v.7 - Point Cloud Data file format
VERSION .7
FIELDS x y z
SIZE 4 4 4
TYPE F F F
COUNT 1 1 1
WIDTH 765
HEIGHT 1
VIEWPOINT 0 0 0 1 0 0 0
POINTS 765
DATA ascii
-17.641663 -9.273957 -0.793574
-17.818790 -8.954706 -0.765645
-17.283279 -9.065472 -0.746362
-17.471714 -8.757423 -0.731442
-17.001047 -8.897843 -0.764176
-17.194551 -8.596091 -0.755996
-16.719723 -8.731077 -0.777543
-16.911421 -8.432136 -0.769725
-16.386082 -8.537107 -0.733813
-16.575415 -8.241940 -0.726420
-16.054207 -8.344567 -0.684640
-16.267899 -8.066607 -0.704234
-15.809453 -8.198287 -0.717328
-15.994971 -7.909101 -0.710677
-15.532745 -8.035576 -0.712424
-15.716456 -7.749198 -0.706130
-15.283027 -7.887370 -0.730567
-15.465216 -7.603322 -0.724589
-15.034095 -7.739909 -0.744914
-15.214759 -7.458187 -0.739255
-14.760539 -7.579959 -0.727618
-14.939394 -7.301045 -0.722312
-14.513498 -7.434181 -0.734191
-14.716352 -7.170228 -0.757285
-14.242322 -7.276227 -0.708669
-14.392523 -6.989950 -0.675694
-13.972504 -7.119374 -0.678954
-14.171326 -6.860764 -0.703229
-13.753330 -6.989054 -0.702769
-13.925792 -6.719927 -0.698743
-13.534755 -6.859323 -0.723405
-13.705966 -6.592038 -0.719657
-13.268417 -6.705346 -0.682220
-13.462293 -6.452812 -0.708104
-13.051565 -6.577125 -0.696073
-13.195452 -6.302688 -0.663400
-12.835410 -6.449545 -0.706798
-13.032359 -6.203328 -0.741136
-12.596440 -6.310623 -0.684386
-12.791581 -6.066551 -0.719312
-12.381994 -6.184517 -0.688684
-12.546103 -5.927890 -0.686381
-12.174116 -6.062031 -0.697530
-12.360418 -5.818355 -0.725934
-11.961230 -5.937287 -0.695756
-12.146052 -5.695308 -0.724648
-11.749198 -5.813267 -0.690946
-11.903876 -5.559308 -0.681705
-11.538049 -5.689984 -0.683125
-11.697204 -5.440600 -0.681867
-11.350006 -5.578582 -0.703671
-11.508182 -5.330556 -0.702638
-11.134994 -5.453931 -0.682195
-11.297401 -5.210489 -0.689311
-11.374695 -4.916363 -0.717168
-10.948229 -5.343673 -0.697394
-11.109597 -5.101552 -0.704785
-11.208198 -4.818727 -0.763585
-11.354618 -4.568409 -0.748616
-10.745877 -5.225907 -0.686072
-10.927767 -4.995663 -0.725734
-10.981470 -4.694795 -0.719804
-11.126567 -4.446764 -0.705077
-10.539123 -5.106246 -0.663882
-10.714074 -4.875142 -0.696012
-10.772405 -4.579021 -0.696979
-10.938342 -4.341911 -0.714656
-10.375458 -5.008167 -0.703624
-10.533498 -4.770365 -0.711856
-10.591222 -4.475749 -0.711814
-10.712696 -4.222107 -0.665044
-10.154790 -4.882207 -0.651603
-10.306034 -4.644132 -0.652009
-10.405231 -4.370648 -0.716119
-10.547576 -4.127289 -0.701913
-10.012597 -4.795097 -0.719483
-10.158214 -4.555017 -0.711843
-10.198914 -4.257076 -0.685122
-10.366685 -4.026316 -0.712127
-9.804143 -4.675707 -0.678416
-9.974202 -4.449417 -0.712211
-10.035193 -4.162127 -0.717376
-10.175838 -3.921639 -0.703498
-9.622036 -4.569480 -0.675941
-9.770539 -4.335111 -0.676963
-9.830716 -4.050013 -0.681121
-9.970237 -3.811445 -0.667447
-9.465379 -4.475851 -0.712808
-9.628305 -4.249078 -0.739028
-9.667903 -3.955927 -0.708926
-9.806844 -3.718308 -0.695371
-9.279501 -4.368255 -0.697362
-9.426312 -4.136113 -0.698768
-9.490342 -3.855829 -0.709502
-9.628497 -3.619523 -0.696099
-9.104144 -4.265995 -0.696330
-9.230458 -4.026275 -0.664186
-9.308479 -3.754206 -0.699346
-9.465784 -3.527098 -0.719861
-8.924668 -4.161994 -0.684531
-9.069578 -3.932442 -0.686339
-9.107915 -3.645119 -0.652833
-9.263844 -3.419772 -0.673743
-8.745985 -4.058629 -0.670381
-8.904216 -3.836804 -0.697976
-8.961533 -3.558807 -0.697574
-9.102203 -3.328298 -0.693156
-8.582024 -3.962525 -0.679637
-8.725167 -3.735318 -0.681823
-8.767653 -3.453151 -0.654748
-8.921637 -3.229868 -0.676293
-8.404800 -3.860342 -0.660962
-8.560882 -3.640625 -0.689200
-8.607757 -3.361724 -0.669753
-8.756153 -3.137446 -0.682975
-8.228435 -3.758827 -0.639987
-8.392489 -3.544355 -0.685878
-8.448212 -3.270651 -0.682809
-8.581784 -3.041971 -0.670287
-8.070723 -3.666335 -0.651572
-8.233745 -3.452533 -0.697843
-8.270841 -3.172645 -0.659060
-8.422026 -2.952207 -0.681520
-7.917772 -3.576257 -0.669984
-8.070930 -3.359154 -0.699122
-8.130255 -3.089602 -0.703107
-8.262658 -2.862815 -0.690818
-7.756464 -3.482465 -0.668963
-7.899879 -3.262463 -0.680821
-7.954200 -2.992672 -0.675170
-8.085746 -2.767316 -0.663045
-7.595705 -3.389141 -0.665954
-7.755543 -3.177466 -0.713334
-7.796510 -2.903267 -0.680358
-7.927469 -2.678858 -0.668345
-7.460605 -3.307839 -0.714225
-7.581482 -3.079996 -0.682099
-7.622110 -2.807615 -0.648129
-7.769633 -2.590798 -0.671752
-7.267673 -3.200166 -0.636165
-7.395846 -2.977968 -0.621928
-7.465586 -2.719182 -0.649375
-7.595101 -2.497149 -0.637637
-7.149294 -3.126809 -0.716727
-7.289870 -2.909642 -0.729341
-7.309540 -2.631168 -0.648749
-7.459580 -2.417374 -0.681861
-6.974445 -3.027915 -0.670197
-7.113892 -2.812180 -0.683040
-7.174426 -2.551276 -0.691237
-7.315573 -2.334780 -0.706624
-6.839923 -2.947468 -0.711751
-6.974950 -2.730317 -0.715716
-7.019050 -2.463919 -0.687079
-7.163495 -2.249620 -0.711717
-6.686007 -2.858452 -0.706483
-6.824235 -2.643769 -0.719659
-6.876057 -2.381375 -0.708289
-7.003766 -2.162150 -0.696918
-6.543966 -2.774917 -0.726693
-6.662371 -2.552914 -0.694543
-6.709893 -2.290544 -0.673247
-6.848668 -2.076509 -0.689305
-6.379797 -2.681772 -0.690450
-6.508893 -2.465713 -0.685721
-6.552330 -2.203169 -0.654452
-6.698011 -1.992579 -0.689000
-6.216605 -2.589341 -0.652181
-6.344843 -2.374555 -0.647586
-6.414219 -2.123007 -0.679656
-6.559241 -1.912668 -0.714442
-6.104459 -2.519377 -0.740834
-6.240103 -2.307037 -0.754661
-6.261435 -2.037827 -0.666497
-6.401776 -1.827054 -0.692367
-5.924783 -2.420260 -0.652823
-6.055508 -2.208323 -0.657655
-6.123697 -1.958127 -0.688519
-6.263444 -1.747644 -0.714587
-5.788071 -2.339936 -0.673812
-5.918355 -2.128383 -0.678748
-5.989569 -1.879790 -0.718299
-6.114354 -1.665136 -0.707500
-5.648068 -2.258345 -0.683984
-5.791590 -2.052525 -0.726233
-5.838028 -1.795712 -0.700103
-5.962223 -1.582000 -0.689414
-5.498401 -2.172852 -0.664571
-5.637557 -1.966466 -0.697747
-5.683739 -1.711019 -0.670815
-5.824620 -1.503377 -0.706876
-5.362307 -2.093243 -0.680890
-5.487621 -1.882227 -0.676818
-5.550244 -1.633408 -0.695924
-5.673529 -1.421098 -0.685412
-5.207383 -2.006012 -0.639327
-5.354497 -1.804408 -0.701108
-5.400426 -1.550709 -0.672620
-5.533105 -1.342090 -0.690370
-5.065781 -1.924512 -0.633634
-5.211891 -1.723280 -0.695704
-5.260877 -1.471528 -0.675868
-5.386439 -1.261612 -0.674954
-4.933653 -1.847027 -0.654719
-5.069707 -1.642518 -0.688704
-5.140329 -1.398348 -0.734300
-5.262656 -1.187409 -0.723979
-4.786811 -1.763791 -0.626967
-4.912886 -1.556865 -0.632730
-4.979607 -1.313113 -0.668284
-5.110416 -1.105969 -0.686522
-4.663696 -1.690155 -0.673617
-4.789606 -1.483128 -0.679442
-4.829126 -1.231377 -0.628886
-4.965149 -1.026660 -0.666318
-4.514966 -1.606597 -0.633183
-4.654445 -1.405397 -0.686790
-4.708594 -1.158536 -0.683099
-4.826441 -0.949234 -0.663535
-4.372606 -1.525781 -0.610158
-4.505472 -1.323264 -0.644897
-4.573376 -1.081582 -0.688319
-4.690973 -0.872780 -0.668792
-4.246835 -1.451468 -0.643064
-4.371063 -1.246198 -0.649201
-4.424559 -1.001163 -0.644170
-4.555714 -0.796557 -0.672595
-4.113087 -1.374254 -0.645837
-4.247494 -1.172723 -0.690475
-4.292819 -0.925591 -0.655976
-4.412403 -0.718847 -0.646165
-3.982081 -1.298198 -0.656808
-4.102902 -1.092778 -0.653478
-4.169017 -0.852138 -0.695281
-4.293922 -0.646430 -0.704720
-3.846285 -1.220557 -0.647075
-3.971686 -1.017190 -0.663116
-4.032158 -0.775539 -0.685071
-4.151303 -0.569344 -0.675347
-3.703776 -1.140762 -0.606833
-3.838136 -0.941060 -0.661693
-3.888286 -0.697581 -0.644370
-4.016994 -0.494112 -0.673396
-3.580487 -1.067877 -0.642606
-3.693018 -0.861856 -0.610385
-3.754859 -0.622329 -0.640855
-3.885419 -0.419547 -0.679709
-3.456889 -0.994914 -0.677131
-3.569542 -0.788965 -0.644876
-3.614736 -0.545902 -0.606784
-3.742010 -0.343364 -0.636127
-3.307185 -0.913457 -0.593518
-3.428009 -0.711355 -0.600253
-3.491107 -0.473077 -0.639325
-3.606437 -0.268753 -0.620149
-3.175569 -0.838238 -0.586272
-3.295945 -0.636520 -0.593081
-3.367193 -0.400188 -0.670611
-3.475807 -0.195057 -0.622209
-3.060291 -0.768227 -0.655860
-3.180772 -0.565924 -0.662683
-3.232481 -0.325482 -0.651797
-3.351863 -0.122253 -0.652186
-2.920996 -0.690950 -0.606795
-3.040752 -0.489514 -0.613717
-3.102302 -0.251774 -0.651135
-3.219257 -0.048649 -0.641810
-2.797471 -0.618545 -0.634709
-2.918980 -0.417417 -0.651475
-2.970356 -0.178013 -0.639318
-3.086986 0.024657 -0.630048
-2.666568 -0.544155 -0.622062
-2.783853 -0.342638 -0.619273
-2.844404 -0.105222 -0.655576
-2.962868 0.097256 -0.656137
-2.542850 -0.471841 -0.647420
-2.654705 -0.269303 -0.615140
-2.705706 -0.031234 -0.601718
-2.831006 0.170119 -0.641681
-2.414002 -0.398298 -0.641955
-2.529179 -0.196751 -0.629375
-2.581845 0.041012 -0.625165
-2.706723 0.242610 -0.665206
-2.288497 -0.325699 -0.654899
-2.400325 -0.123790 -0.622602
-2.457769 0.113282 -0.647359
-2.571855 0.314948 -0.628379
-2.152541 -0.250981 -0.597377
-2.270154 -0.050877 -0.604627
-2.327147 0.185763 -0.628808
-2.442636 0.387004 -0.619735
-2.034494 -0.180162 -0.657168
-2.150732 0.020674 -0.654527
-2.196926 0.257911 -0.608911
-2.312090 0.458697 -0.599891
-1.904979 -0.107185 -0.636539
-2.022245 0.093120 -0.643846
-2.074294 0.329914 -0.637160
-2.193988 0.531330 -0.657788
-1.775882 -0.034550 -0.614575
-1.892698 0.165372 -0.621936
-1.948615 0.401842 -0.644362
-2.063678 0.602686 -0.635354
-1.651953 0.037185 -0.631000
-1.768594 0.237207 -0.638381
-1.824204 0.473806 -0.660211
-1.940570 0.674927 -0.661119
-1.527861 0.108914 -0.646171
-1.644328 0.309038 -0.653579
-1.696004 0.545254 -0.645034
-1.809481 0.745504 -0.626161
-1.399479 0.180838 -0.620313
-1.512184 0.380369 -0.597953
-1.571513 0.617066 -0.658353
-1.685014 0.817302 -0.639478
-1.271556 0.252398 -0.593144
-1.390206 0.452094 -0.630486
-1.445823 0.688602 -0.660481
-1.560408 0.889081 -0.651542
-1.147638 0.323731 -0.604514
-1.262075 0.523032 -0.602080
-1.317203 0.759130 -0.631503
-1.430409 0.958732 -0.612678
-1.023596 0.395037 -0.614638
-1.138811 0.594595 -0.622174
-1.189067 0.829280 -0.601226
-1.305932 1.030240 -0.622211
-0.899441 0.466311 -0.623519
-1.011272 0.664996 -0.591207
-1.064758 0.900592 -0.609488
-1.182247 1.102219 -0.640437
-0.772551 0.536884 -0.591245
-0.887139 0.736158 -0.598830
-0.940349 0.971863 -0.616504
-1.057484 1.173693 -0.647473
-0.648498 0.607903 -0.597615
-0.764863 0.808267 -0.635131
-0.818576 1.044980 -0.662131
-0.933381 1.245714 -0.663211
-0.526384 0.679881 -0.642674
-0.640321 0.879467 -0.640271
-0.691269 1.114262 -0.626786
-0.807696 1.316497 -0.657786
-0.400145 0.749788 -0.606622
-0.514206 0.949364 -0.614228
-0.567147 1.185938 -0.640023
-0.680892 1.385775 -0.631186
-0.273028 0.817936 -0.529351
-0.387632 1.018022 -0.566962
-0.440085 1.254023 -0.592189
-0.556050 1.456902 -0.633208
-0.151525 0.891436 -0.610644
-0.265235 1.091211 -0.618257
-0.317136 1.327419 -0.632842
-0.431156 1.527960 -0.633975
-0.027139 0.962156 -0.610787
-0.140401 1.161486 -0.608417
-0.191115 1.395578 -0.592475
-0.305847 1.598136 -0.623534
0.097285 1.032802 -0.609685
-0.016072 1.232777 -0.617297
-0.066575 1.466240 -0.590747
-0.179770 1.665589 -0.581965
0.221687 1.103876 -0.617322
0.108557 1.303441 -0.614945
0.057989 1.536818 -0.587773
-0.055813 1.738883 -0.608863
0.346111 1.171627 -0.563804
0.233558 1.368617 -0.531528
0.182568 1.607307 -0.583554
0.068901 1.810469 -0.614589
0.470693 1.244229 -0.598903
0.357864 1.444504 -0.606500
0.307156 1.681143 -0.617938
0.193569 1.884990 -0.648913
0.595882 1.317076 -0.632730
0.482522 1.514891 -0.600408
0.432115 1.752512 -0.621169
0.318807 1.955656 -0.642167
0.720659 1.387433 -0.625384
0.607723 1.587588 -0.622966
0.556907 1.821969 -0.603234
0.443779 2.023015 -0.604341
0.845417 1.457681 -0.616792
0.731802 1.655354 -0.584483
0.681753 1.892218 -0.594010
0.568752 2.093335 -0.595105
0.968934 1.525513 -0.577065
0.856405 1.725417 -0.574655
0.807784 1.966477 -0.623307
0.694635 2.168149 -0.624349
1.094839 1.597833 -0.595866
0.983849 1.801884 -0.633218
0.933238 2.037733 -0.621497
0.820770 2.241987 -0.642362
1.219485 1.667725 -0.583537
1.106949 1.868105 -0.581086
1.057879 2.106713 -0.598569
0.946146 2.312240 -0.629331
1.346600 1.741070 -0.609725
1.233890 1.941991 -0.607230
1.184967 2.181270 -0.624002
1.071460 2.382360 -0.615048
1.471425 1.810867 -0.594872
1.361370 2.016080 -0.632060
1.310158 2.251223 -0.608479
1.196703 2.452342 -0.599521
1.596175 1.880523 -0.578774
1.486523 2.085962 -0.615911
1.435953 2.322276 -0.601605
1.324323 2.527637 -0.622291
1.724274 1.954123 -0.601079
1.612380 2.156841 -0.608420
1.561049 2.391978 -0.583575
1.446937 2.591868 -0.564713
1.845408 2.019394 -0.542853
1.736561 2.225281 -0.579877
1.686045 2.461526 -0.564300
1.574971 2.667197 -0.584903
1.977953 2.097448 -0.602130
1.868958 2.304529 -0.639028
1.818213 2.541872 -0.622691
1.703500 2.742702 -0.603747
2.107249 2.171417 -0.620463
1.991265 2.370321 -0.588195
1.943584 2.611431 -0.600823
1.829763 2.813779 -0.591722
2.237025 2.245554 -0.637446
2.120639 2.444873 -0.605168
2.072009 2.685178 -0.607215
1.954064 2.881621 -0.558772
2.367269 2.319850 -0.653069
2.250483 2.519585 -0.620786
2.197338 2.754514 -0.582810
2.083412 2.957281 -0.573657
2.487481 2.384115 -0.588674
2.375814 2.588872 -0.595740
2.322518 2.823668 -0.557158
2.214355 3.034750 -0.596969
2.618031 2.458380 -0.601684
2.500992 2.657975 -0.569451
2.457833 2.905259 -0.608588
2.344673 3.110747 -0.609101
2.743171 2.527362 -0.574124
2.631579 2.732798 -0.581084
2.584650 2.975983 -0.590091
2.470254 3.179921 -0.580800
2.874285 2.601738 -0.584447
2.768464 2.813830 -0.630435
2.715748 3.051572 -0.599576
2.601126 3.256021 -0.590230
3.005816 2.676243 -0.593387
2.895566 2.884401 -0.609962
2.847256 3.127286 -0.607673
2.732408 3.332246 -0.598268
3.144495 2.756786 -0.639916
3.025858 2.958048 -0.607680
2.979164 3.203118 -0.614373
2.856507 3.399272 -0.556373
3.264801 2.821049 -0.577907
3.151321 3.026803 -0.574880
3.109800 3.277277 -0.609969
2.996160 3.485042 -0.610141
3.395456 2.894215 -0.573005
3.278337 3.097023 -0.550538
3.244136 3.355108 -0.623548
3.128607 3.561599 -0.613969
3.520609 2.962597 -0.537688
3.401599 3.163654 -0.505553
3.360895 3.414472 -0.539107
3.261421 3.638253 -0.616374
3.661397 3.043886 -0.578429
3.549375 3.252902 -0.584893
3.503040 3.499868 -0.588519
3.387334 3.706896 -0.578864
3.796956 3.120540 -0.588655
3.684764 3.330257 -0.595025
3.636484 3.576025 -0.588223
3.518663 3.781498 -0.568908
3.930871 3.195633 -0.587792
3.824767 3.411462 -0.622909
3.768230 3.650275 -0.576911
3.654100 3.860308 -0.576720
4.071728 3.276089 -0.614274
3.950582 3.479792 -0.582110
3.904359 3.728566 -0.583335
3.794077 3.943561 -0.602155
4.206508 3.351443 -0.610467
4.091596 3.561338 -0.606996
4.030056 3.796674 -0.540570
3.930587 4.022744 -0.606938
4.332184 3.419488 -0.567039
4.208235 3.621581 -0.525392
4.171225 3.879255 -0.563159
4.065360 4.099837 -0.600717
4.476969 3.502324 -0.598508
4.361705 3.713297 -0.594907
4.317768 3.966411 -0.603108
4.198163 4.174714 -0.583562
4.610128 3.575916 -0.580855
4.497187 3.789348 -0.586680
4.441342 4.032167 -0.546733
4.335750 4.254162 -0.583896
4.748554 3.653389 -0.580722
4.635441 3.867521 -0.586444
4.576803 4.108680 -0.536328
4.468945 4.329036 -0.563867
4.895314 3.736970 -0.607371
4.781825 3.952166 -0.612966
4.722687 4.194268 -0.562064
4.617086 4.418154 -0.598773
5.032035 3.812734 -0.594695
4.907849 4.019866 -0.562598
4.879851 4.289392 -0.623590
4.761098 4.502838 -0.613185
5.171776 3.890592 -0.589913
5.066172 4.113660 -0.623408
5.008835 4.359414 -0.580375
4.890060 4.573007 -0.569934
5.309022 3.966420 -0.574244
5.203530 4.190180 -0.607545
5.145879 4.436343 -0.563788
5.034945 4.657939 -0.581189
5.431814 4.031478 -0.510512
5.318180 4.248494 -0.515735
5.291620 4.520520 -0.573554
5.169415 4.732953 -0.553679
5.593142 4.124654 -0.566281
5.478857 4.343219 -0.571336
5.440881 4.607370 -0.590878
5.323764 4.825906 -0.589400
5.743495 4.209504 -0.583032
5.628831 4.429131 -0.587951
5.581969 4.687030 -0.578784
5.461717 4.903618 -0.567994
5.882001 4.285563 -0.561149
5.779546 4.515325 -0.602796
5.720317 4.764210 -0.555930
5.599833 4.981306 -0.545072
6.020665 4.361593 -0.537755
5.908939 4.584796 -0.551627
5.858815 4.841357 -0.531562
5.747241 5.067025 -0.548049
6.185785 4.456338 -0.586032
6.057374 4.668799 -0.553994
6.022948 4.939307 -0.578584
5.901445 5.158381 -0.567496
6.311855 4.523063 -0.522870
6.212948 4.757988 -0.572839
6.175303 5.027234 -0.587197
6.053291 5.247297 -0.575999
6.478637 4.618459 -0.567393
6.362620 4.842416 -0.571658
6.315022 5.104683 -0.557824
6.205810 5.336453 -0.582677
6.632647 4.704566 -0.573640
6.502525 4.919275 -0.541627
6.465030 5.190217 -0.553924
6.358984 5.425838 -0.587522
6.773030 4.780931 -0.542039
6.642520 4.996067 -0.510058
6.622475 5.281404 -0.566192
6.499209 5.503950 -0.554698
6.942603 4.877449 -0.580617
6.814732 5.096634 -0.557561
6.777150 5.370085 -0.567601
6.667238 5.605259 -0.591660
7.087392 4.956510 -0.554545
6.966416 5.181653 -0.549314
6.914405 5.444839 -0.522700
6.822287 5.695274 -0.590934
7.239925 5.040753 -0.544614
7.122274 5.269519 -0.548154
7.088311 5.548040 -0.564813
6.949090 5.761621 -0.517621
7.400598 5.130384 -0.550578
7.293828 5.368605 -0.580468
7.229795 5.625705 -0.525359
7.104758 5.851718 -0.513448
7.542409 5.206902 -0.510547
7.435734 5.445800 -0.540187
7.382727 5.712053 -0.510638
7.272213 5.951148 -0.533650
7.712103 5.302257 -0.530297
7.577646 5.522876 -0.498334
7.539948 5.801461 -0.502824
7.429192 6.041684 -0.525554
7.858445 5.381522 -0.495555
7.735481 5.611285 -0.489766
7.717432 5.906037 -0.536513
7.602207 6.144865 -0.550225
8.050192 5.491282 -0.554626
7.914083 5.714341 -0.522637
7.872015 5.992873 -0.516004
7.764437 6.238988 -0.546741
8.210043 5.579232 -0.541987
8.093863 5.817881 -0.553149
8.051447 6.098206 -0.545224
7.923283 6.330117 -0.532645
8.370378 5.667306 -0.527410
8.249697 5.904076 -0.529775
8.194691 6.176034 -0.495086
8.094838 6.431045 -0.542222
8.544136 5.764139 -0.536521
8.431363 6.008336 -0.555772
8.388433 6.291399 -0.545436
8.254816 6.522500 -0.524079
8.727511 5.867112 -0.560403
8.605512 6.106964 -0.562369
8.549432 6.381998 -0.525397
8.432076 6.627235 -0.537772
8.889729 5.955766 -0.539580
8.767341 6.196672 -0.541373
8.745623 6.498358 -0.570701
8.614559 6.735655 -0.557517
9.056873 6.047483 -0.525182
8.947373 6.298880 -0.551995
8.907970 6.589385 -0.546319
8.776391 6.827666 -0.533017
9.233706 6.145370 -0.525422
9.110271 6.388870 -0.526834
9.066226 6.677196 -0.511619
8.969455 6.943516 -0.564681
9.392724 6.231314 -0.490121
9.291857 6.491604 -0.532891
9.247425 6.781539 -0.516364
9.132488 7.035871 -0.535836
9.603784 6.351151 -0.543818
9.474317 6.594646 -0.536550
9.447912 6.899554 -0.551595
9.314011 7.142113 -0.537814
9.749626 6.428059 -0.479501
9.638802 6.685036 -0.504962
9.612392 6.991119 -0.518617
9.514773 7.262623 -0.570018
9.967854 6.551950 -0.536036
9.841771 6.801606 -0.536605
9.796115 7.096329 -0.516095
9.684216 7.358973 -0.542594
10.158367 6.657480 -0.540732
10.046057 6.918701 -0.565398
9.980634 7.201798 -0.511119
9.863525 7.462509 -0.529140
10.339864 6.756904 -0.526742
10.212456 7.009634 -0.526875
10.165926 7.307514 -0.503676
10.053060 7.573407 -0.529336
10.532051 6.862991 -0.526402
10.403911 7.117381 -0.526311
10.376579 7.430974 -0.533597
10.253173 7.691845 -0.542863
10.714923 6.962818 -0.507554
10.586185 7.218622 -0.507253
10.578613 7.547897 -0.544663
10.439638 7.799725 -0.529860
10.929299 7.082629 -0.533755
10.794473 7.337150 -0.525292
10.746395 7.640258 -0.497857
10.626805 7.907806 -0.514342
11.113702 7.182925 -0.509784
10.983361 7.442287 -0.509004
10.955224 7.761321 -0.511430
10.829762 8.027221 -0.519692
11.309197 7.290075 -0.498990
11.178123 7.551094 -0.497977
11.165197 7.882800 -0.522029
11.043935 8.154483 -0.537663
11.542811 7.421237 -0.539760
11.410526 7.684765 -0.538455
11.376284 8.004680 -0.529635
11.228384 8.259546 -0.506396
11.734839 7.525609 -0.515571
11.623200 7.804870 -0.544765
11.562008 8.108512 -0.496009
11.460294 8.398946 -0.541371
11.905635 7.616286 -0.458278
11.788450 7.893133 -0.479419
11.780289 8.234704 -0.505441
11.656780 8.512094 -0.519828
12.164776 7.762641 -0.520085
12.051734 8.046179 -0.548303
12.015943 8.372534 -0.534307
11.864614 8.633142 -0.510612
12.381281 7.881673 -0.517772
12.262029 8.163710 -0.537980
12.231195 8.495831 -0.529752
12.100316 8.773928 -0.535758
12.598771 8.001025 -0.512382
12.456490 8.270499 -0.502334
12.447418 8.619436 -0.522111
12.321085 8.903485 -0.535142
12.811526 8.117105 -0.496499
12.673935 8.392142 -0.493644
12.658993 8.739500 -0.504006
12.537392 9.029437 -0.523955
13.053841 8.251421 -0.514356
12.915036 8.528964 -0.511195
12.882646 8.867499 -0.497500
12.749032 9.151680 -0.502358
13.274281 8.371706 -0.499467
13.111572 8.636259 -0.466920
13.118690 9.003581 -0.502213
12.967061 9.278125 -0.484967
13.495584 8.492236 -0.481435
13.378080 8.788933 -0.506598
13.338652 9.128319 -0.481877
13.208682 9.420944 -0.493094
13.711799 8.609306 -0.453076
13.599498 8.911816 -0.484889
13.559427 9.253272 -0.458365
13.451569 9.564196 -0.497563
13.940660 8.733956 -0.435876
13.815804 9.031070 -0.452903
13.827941 9.410173 -0.488126
13.695684 9.707859 -0.498353
14.212635 8.885024 -0.464669
14.092427 9.189071 -0.488204
14.050696 9.535713 -0.457730
13.917573 9.835446 -0.467505
14.437528 9.006558 -0.433410
14.316592 9.312726 -0.456412
14.298090 9.677498 -0.451846
14.163816 9.979756 -0.461122
14.706127 9.154787 -0.447358
14.559687 9.448270 -0.442126
14.546603 9.819626 -0.442225
14.411179 10.124412 -0.450997
14.982360 9.307327 -0.464042
14.834428 9.603799 -0.458461
14.790116 9.958006 -0.422036
14.659623 10.269387 -0.437110
15.071421 10.121231 -0.438649
14.909114 10.414661 -0.419442
15.317096 10.260236 -0.410754
15.208615 10.594172 -0.451316
15.619867 10.436791 -0.438691
15.485216 10.757255 -0.451922
15.899206 10.597273 -0.435550
15.750700 10.912169 -0.435088
16.179850 10.758153 -0.428023
16.029844 11.076021 -0.427072
16.506575 10.948961 -0.460998
16.303909 11.235898 -0.408240
16.777140 11.102228 -0.431464
16.642929 11.439737 -0.448493
17.048664 11.255714 -0.397742
0.453526 0.366426 15.626801
16.926111 11.604802 -0.426639
0.464022 0.369027 15.623542
0.481940 0.385220 15.605393
0.493157 0.387532 15.602825
0.471301 0.377459 15.621113
0.454003 0.361851 15.640403
0.459138 0.368998 15.634709
0.523004 0.406351 15.583271
0.500581 0.396629 15.601182
0.497129 0.389328 15.608718
0.454528 0.365430 15.643733
0.498423 0.389909 15.610707
0.510096 0.402405 15.599573
0.471964 0.372619 15.635326
0.463415 0.370919 15.641224
0.493988 0.386556 15.620305
0.471363 0.375986 15.637306
0.493298 0.390334 15.622543