# This PCD file was generated using the MATLAB® pcwrite function
# from Computer Vision System Toolbox®.
# .PCD v.7 - Point Cloud Data file format
VERSION .7
FIELDS x y z
SIZE 4 4 4
TYPE F F F
COUNT 1 1 1
WIDTH 751
HEIGHT 1
VIEWPOINT 0 0 0 1 0 0 0
POINTS 751
DATA ascii
-28.775906 -13.855113 0.596546
-28.014797 -14.099957 0.518047
-28.342590 -13.598892 0.541288
-27.532076 -13.814615 0.523779
-27.863388 -13.321620 0.539515
-27.103868 -13.557358 0.482847
-27.419205 -13.061932 0.511347
-26.650684 -13.288488 0.475780
-26.949959 -12.791250 0.517260
-26.205601 -13.024497 0.468781
-26.541512 -12.550161 0.468359
-25.807150 -12.784348 0.419823
-26.134060 -12.310290 0.425520
-25.364971 -12.523424 0.425966
-25.695396 -12.056587 0.423801
-24.937187 -12.270411 0.424665
-25.232744 -11.792597 0.457010
-24.529846 -12.028195 0.408360
-24.848421 -11.565907 0.411602
-24.148777 -11.799517 0.369249
-24.439833 -11.328712 0.400566
-23.743992 -11.560029 0.364769
-24.032658 -11.092968 0.395548
-23.389685 -11.345676 0.307619
-23.676519 -10.881398 0.337959
-22.987484 -11.108891 0.314594
-23.271927 -10.648358 0.344406
-22.586878 -10.873651 0.327482
-22.868929 -10.416861 0.356764
-22.235636 -10.662750 0.286207
-22.491718 -10.197840 0.345032
-21.885239 -10.452860 0.249861
-22.139706 -9.990881 0.308481
-21.494747 -10.224604 0.271746
-21.764885 -9.774351 0.307264
-21.117569 -10.003401 0.283947
-21.414923 -9.569634 0.280720
-20.770657 -9.797139 0.262897
-21.065954 -9.366004 0.259024
-20.424786 -9.591990 0.246666
-20.694994 -9.153334 0.273243
-20.080004 -9.387974 0.235229
-20.348373 -8.952099 0.261385
-19.736357 -9.185117 0.228556
-20.025463 -8.761868 0.222771
-19.415955 -8.993613 0.194838
-19.703272 -8.572510 0.188473
-20.043352 -7.604987 0.264179
-19.101774 -8.805509 0.157415
-19.387373 -8.386431 0.150482
-19.497469 -7.866924 0.151602
-19.753378 -7.434538 0.187847
-18.712702 -8.583741 0.236834
-18.973721 -8.158992 0.261328
-19.148048 -7.671043 0.167732
-19.413336 -7.245801 0.187475
-18.422125 -8.407588 0.176035
-18.725212 -8.002979 0.135515
-18.827328 -7.487327 0.148104
-19.091064 -7.064379 0.167393
-18.100166 -8.217687 0.167845
-18.385098 -7.808385 0.150967
-18.485960 -7.296080 0.165297
-18.753325 -6.877912 0.175932
-17.763597 -8.021806 0.188551
-18.046391 -7.615088 0.171015
-18.167336 -7.114481 0.154278
-18.433081 -6.698565 0.164408
-17.474928 -7.848009 0.139576
-17.766670 -7.447164 0.105017
-17.870779 -6.942080 0.114424
-18.135178 -6.527931 0.124109
-17.181570 -7.672570 0.102558
-17.430246 -7.256090 0.133636
-17.553930 -6.762366 0.111513
-17.795603 -6.342926 0.153833
-16.843426 -7.477811 0.144386
-17.120903 -7.076910 0.125099
-17.238150 -6.583703 0.112720
-17.504520 -6.175898 0.113083
-16.551786 -7.304198 0.115252
-16.807484 -6.896648 0.128944
-16.923481 -6.406112 0.118023
-17.203623 -6.005929 0.092710
-16.265699 -7.133494 0.081371
-16.530092 -6.731653 0.077869
-16.630053 -6.237155 0.093634
-16.888226 -5.831514 0.101398
-15.955895 -6.952954 0.093508
-16.223459 -6.555278 0.081043
-16.337311 -6.068984 0.072924
-16.579039 -5.659934 0.105663
-15.647300 -6.773536 0.109667
-15.893605 -6.370214 0.130753
-16.045294 -5.901617 0.055868
-16.285849 -5.494449 0.088310
-15.377775 -6.611459 0.061213
-15.642268 -6.217092 0.047789
-15.739526 -5.729780 0.068165
-15.973800 -5.323215 0.108833
-15.108523 -6.449887 0.016026
-15.352818 -6.049237 0.036606
-15.449244 -5.564196 0.058489
-15.701770 -5.165961 0.064501
-14.802762 -6.273290 0.043390
-15.045489 -5.874938 0.063631
-15.178622 -5.406195 0.017767
-15.410948 -5.002991 0.057997
-14.534656 -6.113104 0.005033
-14.794804 -5.723214 -0.009754
-14.871190 -5.235614 0.049902
-15.139832 -4.846972 0.020317
-14.253492 -5.947888 -0.003860
-14.507623 -5.557789 -0.010357
-14.601804 -5.079046 0.015970
-14.850498 -4.685599 0.020782
-13.981928 -5.787127 -0.026880
-14.239263 -5.400058 -0.042536
-14.332823 -4.923053 -0.014765
-14.598749 -4.536624 -0.045391
-13.697885 -5.621697 -0.020132
-13.953670 -5.236279 -0.036238
-14.042028 -4.760068 0.001825
-14.310770 -4.376745 -0.038198
-13.414814 -5.457198 -0.009892
-13.669049 -5.073430 -0.026440
-13.778657 -4.606953 -0.031214
-14.005966 -4.212389 0.007891
-13.166450 -5.307203 -0.067450
-13.402561 -4.917824 -0.048759
-13.511329 -4.452941 -0.052265
-13.755342 -4.065060 -0.048914
-12.884896 -5.144280 -0.050591
-13.119718 -4.756717 -0.032179
-13.223262 -4.292610 -0.025457
-13.470148 -3.907873 -0.031450
-12.637052 -4.995221 -0.102188
-12.854541 -4.602549 -0.048067
-12.944780 -4.136045 -0.013109
-13.203049 -3.756580 -0.046423
-12.373186 -4.840207 -0.114874
-12.606262 -4.454831 -0.096889
-12.696110 -3.989542 -0.060556
-12.919778 -3.601207 -0.022272
-12.094127 -4.679757 -0.088223
-12.325910 -4.296197 -0.070507
-12.447509 -3.843379 -0.105204
-12.670607 -3.455997 -0.067049
-11.831744 -4.526267 -0.094582
-12.078309 -4.149497 -0.113440
-12.167129 -3.687793 -0.074335
-12.405320 -3.306734 -0.072733
-11.585256 -4.379244 -0.134405
-11.819171 -3.999192 -0.126223
-11.903616 -3.537971 -0.076626
-12.140693 -3.158177 -0.075350
-11.323926 -4.226996 -0.134790
-11.552946 -3.846958 -0.117712
-11.656186 -3.393415 -0.112507
-11.876752 -3.010338 -0.074921
-11.063298 -4.075475 -0.132139
-11.310031 -3.702952 -0.161228
-11.393804 -3.244874 -0.108856
-11.644311 -2.871019 -0.144888
-10.807008 -3.926008 -0.135706
-11.048774 -3.553291 -0.155951
-11.132162 -3.097079 -0.102192
-11.366157 -2.720595 -0.101830
-10.561949 -3.781022 -0.164131
-10.791880 -3.405534 -0.156914
-10.885858 -2.954078 -0.129562
-11.119005 -2.578374 -0.129461
-10.317122 -3.636460 -0.189831
-10.542706 -3.260673 -0.173531
-10.639794 -2.811507 -0.154203
-10.857526 -2.433202 -0.117260
-10.045345 -3.482848 -0.138176
-10.297393 -3.117399 -0.196678
-10.379980 -2.665686 -0.138851
-10.614726 -2.292825 -0.148621
-9.828247 -3.348655 -0.233076
-10.038755 -2.970484 -0.179722
-10.138181 -2.525063 -0.167297
-10.365067 -2.151299 -0.158665
-9.558162 -3.196640 -0.175531
-9.797626 -2.829268 -0.206715
-9.889822 -2.383146 -0.174347
-10.133020 -2.013902 -0.212770
-9.330996 -3.059521 -0.237267
-9.563198 -2.690311 -0.249889
-9.645232 -2.242587 -0.188063
-9.873845 -1.871257 -0.189270
-9.087874 -2.917388 -0.249378
-9.293605 -2.541759 -0.186764
-9.388104 -2.099517 -0.161358
-9.628754 -1.731965 -0.200552
-8.845119 -2.775751 -0.258820
-9.062940 -2.404587 -0.234083
-9.144532 -1.960123 -0.169626
-9.371158 -1.590829 -0.171371
-8.587859 -2.629988 -0.218102
-8.832098 -2.267576 -0.278961
-8.913689 -1.823896 -0.213205
-9.142878 -1.455438 -0.224598
-8.369524 -2.496660 -0.298328
-8.592169 -2.128450 -0.292850
-8.673668 -1.685987 -0.225800
-8.908153 -1.319139 -0.256441
-8.116445 -2.353090 -0.261702
-8.346718 -1.988328 -0.285074
-8.439829 -1.549680 -0.254898
-8.652389 -1.179923 -0.219114
-7.878221 -2.214391 -0.270138
-8.116037 -1.852214 -0.322445
-8.197423 -1.412060 -0.252825
-8.421153 -1.044902 -0.255373
-7.645717 -2.077664 -0.295210
-7.865922 -1.711879 -0.290264
-7.966690 -1.276958 -0.286497
-8.189829 -0.910091 -0.289206
-7.405419 -1.939112 -0.288950
-7.622119 -1.573547 -0.274563
-7.703205 -1.136723 -0.202414
-7.936100 -0.772898 -0.243847
-7.155446 -1.798474 -0.241516
-7.371124 -1.434242 -0.227320
-7.486483 -1.004609 -0.279161
-7.707959 -0.639169 -0.282291
-6.938793 -1.666855 -0.317019
-7.164539 -1.304395 -0.341499
-7.243220 -0.868712 -0.257172
-7.463761 -0.504168 -0.260527
-6.697358 -1.529266 -0.293446
-6.924474 -1.168061 -0.327841
-7.005690 -0.734136 -0.251926
-7.233155 -0.370826 -0.284462
-6.479968 -1.397716 -0.364370
-6.694597 -1.033989 -0.350414
-6.785644 -0.601984 -0.312040
-7.002562 -0.237749 -0.306000
-6.239286 -1.261091 -0.335812
-6.464742 -0.900187 -0.370596
-6.553243 -0.468619 -0.321348
-6.762283 -0.104518 -0.286348
-6.003747 -1.126076 -0.324179
-6.216887 -0.764053 -0.310499
-6.314177 -0.335074 -0.299036
-6.532062 0.027827 -0.303034
-5.772934 -0.992419 -0.329592
-5.985537 -0.630886 -0.316013
-6.093480 -0.203294 -0.352211
-6.313323 0.159782 -0.366024
-5.546425 -0.859869 -0.352171
-5.758630 -0.498584 -0.338669
-5.838037 -0.069931 -0.246864
-6.063012 0.291525 -0.290266
-5.315938 -0.726909 -0.352814
-5.529641 -0.366310 -0.349201
-5.627870 0.060970 -0.344227
-5.835486 0.422849 -0.309534
-5.089499 -0.594901 -0.370701
-5.298808 -0.234204 -0.347569
-5.390594 0.192443 -0.312120
-5.605876 0.553824 -0.316692
-4.853961 -0.461996 -0.337109
-5.072032 -0.102731 -0.363188
-5.169407 0.323513 -0.356054
-5.384362 0.685089 -0.360689
-4.638349 -0.331805 -0.409351
-4.848889 0.028363 -0.396152
-4.940412 0.454273 -0.358437
-5.147112 0.814758 -0.323942
-4.403510 -0.199809 -0.370998
-4.615043 0.159487 -0.367771
-4.711599 0.584676 -0.358477
-4.925350 0.945673 -0.363354
-4.183812 -0.069391 -0.419046
-4.398477 0.290232 -0.435574
-4.481290 0.714548 -0.346327
-4.694370 1.075135 -0.351332
-3.955977 0.061358 -0.415466
-4.165181 0.420538 -0.402489
-4.259458 0.845012 -0.381147
-4.473897 1.206124 -0.396053
-3.734155 0.191693 -0.449141
-3.937105 0.550538 -0.396656
-4.024891 0.973404 -0.334719
-4.238377 1.333788 -0.349804
-3.506497 0.321848 -0.440952
-3.715038 0.680771 -0.428076
-3.804425 1.103737 -0.374866
-4.016035 1.464061 -0.380119
-3.279104 0.451604 -0.430452
-3.492637 0.810956 -0.457260
-3.580692 1.233420 -0.393005
-3.793366 1.594280 -0.408197
-3.056879 0.581442 -0.457333
-3.263466 0.939864 -0.434637
-3.354156 1.362179 -0.389080
-3.570390 1.724434 -0.434031
-2.825183 0.709879 -0.402519
-3.035961 1.068553 -0.419609
-3.131520 1.491892 -0.412603
-3.347123 1.854515 -0.457623
-2.594407 0.837538 -0.345343
-2.804212 1.195490 -0.362562
-2.903923 1.619627 -0.394205
-3.118617 1.982136 -0.439348
-2.380507 0.968472 -0.444975
-2.586186 1.326135 -0.422401
-2.681058 1.748988 -0.413221
-2.890457 2.109313 -0.418772
-2.153186 1.096139 -0.413086
-2.360379 1.454104 -0.410461
-2.457953 1.878246 -0.430000
-2.667019 2.238765 -0.435574
-1.934841 1.226674 -0.478489
-2.140282 1.584475 -0.455933
-2.234626 2.007391 -0.444534
-2.443359 2.368103 -0.450130
-1.711679 1.355603 -0.491886
-1.917001 1.713472 -0.469339
-2.011093 2.136414 -0.456827
-2.219492 2.497318 -0.462442
-1.488320 1.484404 -0.503046
-1.693523 1.842343 -0.480503
-1.786577 2.264612 -0.456938
-1.995437 2.626400 -0.472507
-1.264782 1.613069 -0.511965
-1.469865 1.971076 -0.489428
-1.563479 2.394051 -0.474686
-1.774362 2.758763 -0.520056
-1.041080 1.741586 -0.518642
-1.244207 2.097754 -0.466223
-1.339432 2.522647 -0.480249
-1.546828 2.884127 -0.485897
-0.813024 1.864919 -0.433315
-1.020468 2.226052 -0.470657
-1.115248 2.651080 -0.483568
-1.322309 3.012753 -0.489222
-0.591298 1.995131 -0.475397
-0.797982 2.356353 -0.502735
-0.890944 2.779342 -0.484640
-1.099913 3.145149 -0.530037
-0.369170 2.126158 -0.525219
-0.573776 2.484438 -0.502687
-0.668201 2.911056 -0.523268
-0.874867 3.273594 -0.528860
-0.144988 2.253989 -0.522924
-0.349784 2.613147 -0.510355
-0.443403 3.039118 -0.519846
-0.649735 3.401847 -0.525434
0.079271 2.381625 -0.518391
-0.126030 2.743452 -0.535700
-0.218537 3.166979 -0.514174
-0.425867 3.534359 -0.559481
0.302881 2.515253 -0.591372
0.097924 2.875600 -0.578701
0.005626 3.298780 -0.546034
-0.200310 3.662372 -0.551542
0.527967 2.635451 -0.492630
0.323826 2.994822 -0.480055
0.230431 3.430704 -0.575619
0.024554 3.794968 -0.581053
0.752784 2.769284 -0.561077
0.548287 3.129732 -0.548403
0.456009 3.558246 -0.563175
0.250891 3.917722 -0.528904
0.978407 2.900856 -0.597338
0.773762 3.262019 -0.584597
0.681587 3.685546 -0.548479
0.476411 4.048902 -0.543955
1.203493 3.026933 -0.571583
0.999258 3.389153 -0.568781
0.907149 3.812597 -0.531536
0.702278 4.177428 -0.536903
1.430146 3.158604 -0.603273
1.225616 3.520472 -0.590460
1.132677 3.939387 -0.512341
0.928628 4.309897 -0.557301
1.652751 3.277027 -0.503437
1.450158 3.642646 -0.530407
1.360285 4.076264 -0.570198
1.154743 4.436775 -0.535799
1.880717 3.410605 -0.550457
1.678514 3.778546 -0.587219
1.586300 4.202845 -0.546448
1.381883 4.569203 -0.551601
2.110703 3.546726 -0.614965
1.905760 3.908653 -0.592091
1.813902 4.334653 -0.560030
1.608148 4.695682 -0.525562
2.341366 3.682157 -0.667154
2.133892 4.039999 -0.604563
2.042008 4.466500 -0.571287
1.837708 4.834197 -0.576244
2.567772 3.808351 -0.637701
2.362518 4.171378 -0.614708
2.267751 4.591056 -0.530836
2.066357 4.966739 -0.585064
2.791070 3.929257 -0.566420
2.586887 4.293232 -0.553335
2.499658 4.730267 -0.586805
2.297778 5.105803 -0.630949
3.026748 4.070065 -0.651108
2.818927 4.429976 -0.598375
2.732050 4.868356 -0.630465
2.524388 5.230195 -0.585842
3.252425 4.194294 -0.604939
3.052014 4.567056 -0.640974
2.959108 4.994058 -0.592947
2.751402 5.355872 -0.548336
3.487489 4.331782 -0.655128
3.281612 4.697011 -0.631886
3.192950 5.132460 -0.631798
2.984647 5.495214 -0.587074
3.709050 4.449921 -0.565004
3.509508 4.823800 -0.600798
3.423056 5.262805 -0.619104
3.219769 5.636654 -0.633135
3.945358 4.587607 -0.610399
3.740500 4.955025 -0.596884
3.655433 5.396456 -0.623671
3.450302 5.767463 -0.617979
4.176799 4.718198 -0.604202
3.970731 5.084594 -0.580803
3.882832 5.521363 -0.576910
3.677957 5.892511 -0.571167
4.418777 4.861013 -0.674025
4.213208 5.230582 -0.660259
4.122873 5.665645 -0.635338
3.919701 6.042093 -0.648882
4.651502 4.991816 -0.662947
4.445854 5.361976 -0.649092
4.355552 5.797567 -0.622890
4.152509 6.174717 -0.636282
4.890234 5.129008 -0.688540
4.682876 5.498505 -0.664799
4.588533 5.929405 -0.608049
4.380604 6.299261 -0.582417
5.116376 5.251522 -0.623871
4.910636 5.622741 -0.609846
4.834383 6.078427 -0.678234
4.629646 6.456025 -0.681480
5.356204 5.388813 -0.644547
5.157629 5.770204 -0.678970
5.067118 6.208472 -0.648726
4.863906 6.588691 -0.661520
5.588648 5.517625 -0.614117
5.390436 5.899687 -0.648359
5.307688 6.348322 -0.665211
5.102846 6.727602 -0.668121
5.838406 5.664028 -0.678204
5.631598 6.038468 -0.663761
5.549082 6.488369 -0.679113
5.337804 6.860142 -0.643259
6.087927 5.809203 -0.729832
5.882218 6.187143 -0.724859
5.791280 6.628594 -0.690422
5.579477 7.001346 -0.654438
6.331353 5.947437 -0.740108
6.123560 6.324509 -0.725332
6.028950 6.762625 -0.670288
5.823636 7.144962 -0.672607
6.567771 6.078234 -0.709274
6.359897 6.455894 -0.694399
6.272473 6.903056 -0.676435
6.065154 7.284248 -0.668959
6.814446 6.218558 -0.724005
6.606148 6.597413 -0.708967
6.532090 7.061239 -0.756460
6.318364 7.437526 -0.720020
7.059909 6.357120 -0.726475
6.857328 6.743347 -0.739983
6.767704 7.191053 -0.709435
6.563417 7.579524 -0.720566
7.303916 6.493785 -0.716747
7.105466 6.885362 -0.749121
7.023945 7.343390 -0.755148
6.807170 7.719233 -0.708954
7.570874 6.651063 -0.799671
7.360958 7.034102 -0.784088
7.268760 7.482306 -0.741001
7.063879 7.873605 -0.751562
7.818995 6.790267 -0.793959
7.606476 7.172159 -0.768730
7.518512 7.625947 -0.743145
7.309114 8.013582 -0.734539
8.067763 6.929552 -0.785561
7.857133 7.314734 -0.769661
7.764472 7.764946 -0.723677
7.565922 8.166143 -0.761971
8.317154 7.068905 -0.774464
8.113345 7.462046 -0.786707
8.034496 7.928291 -0.795626
7.826217 8.321631 -0.795868
8.574749 7.214954 -0.788912
8.365666 7.604975 -0.782059
8.282098 8.067629 -0.770557
8.076016 8.464575 -0.779936
8.838574 7.365779 -0.819239
8.623788 7.752768 -0.793386
8.532628 8.209435 -0.752167
8.336124 8.618083 -0.798605
9.090289 7.505560 -0.799747
8.875072 7.893580 -0.773760
8.804325 8.371672 -0.805588
8.594849 8.769242 -0.804987
9.350794 7.652339 -0.805496
9.151038 8.056453 -0.835238
9.067103 8.524162 -0.818611
8.846786 8.912503 -0.780605
9.615067 7.801711 -0.817602
9.412286 8.205079 -0.837685
9.330957 8.676945 -0.828617
9.109834 9.066742 -0.790421
9.880404 7.951365 -0.826685
9.665972 8.346338 -0.809410
9.584686 8.819343 -0.798689
9.384829 9.232396 -0.834040
10.146784 8.101291 -0.832733
9.931718 8.497816 -0.815237
9.873254 8.994127 -0.876266
9.653033 9.390141 -0.846811
10.389869 8.231638 -0.762133
10.183628 8.636546 -0.772066
10.128723 9.136877 -0.840347
9.919514 9.545341 -0.847300
10.710549 8.424526 -0.918129
10.490561 8.822611 -0.890936
10.408662 9.301768 -0.874598
10.195783 9.709457 -0.872023
10.967812 8.565280 -0.878126
10.759843 8.975091 -0.887262
10.665483 9.444657 -0.832754
10.464395 9.865202 -0.866207
11.235197 8.713711 -0.862579
11.017326 9.116929 -0.844141
10.947860 9.610245 -0.860500
10.733929 10.021137 -0.857265
11.516643 8.872757 -0.880213
11.314202 9.291627 -0.906754
11.231695 9.776299 -0.884817
11.016958 10.189272 -0.881187
11.792607 9.026866 -0.876444
11.573195 9.433671 -0.857504
11.503800 9.931110 -0.869764
11.275650 10.333514 -0.829939
12.079958 9.189292 -0.896397
11.859639 9.598134 -0.877178
11.776746 10.086063 -0.851538
11.560947 10.502234 -0.847231
12.354566 9.341203 -0.877083
12.133613 9.751595 -0.857630
12.064227 10.253117 -0.865738
11.861059 10.683820 -0.896587
12.644386 9.504309 -0.890213
12.436659 9.928299 -0.906061
12.353049 10.420559 -0.876425
12.135627 10.840883 -0.871311
12.906160 9.645356 -0.828871
12.698350 10.070552 -0.844368
12.643184 10.588373 -0.883570
12.438946 11.023512 -0.913292
13.227980 9.831648 -0.905882
13.022662 10.262950 -0.929659
12.934601 10.756537 -0.887157
12.729819 11.193889 -0.916304
13.487410 9.969963 -0.829288
13.282140 10.402382 -0.852680
13.242092 10.937571 -0.922134
13.007397 11.351577 -0.880819
13.812764 10.157445 -0.898542
13.587337 10.577885 -0.877666
13.536249 11.106513 -0.918367
13.315284 11.535611 -0.911552
14.112796 10.325171 -0.902592
13.913535 10.769224 -0.942265
13.846965 11.288560 -0.945608
13.624899 11.720208 -0.938316
14.422164 10.499204 -0.920248
14.210427 10.936594 -0.933342
14.143734 11.458198 -0.934397
13.936209 11.905344 -0.961088
14.741242 10.679727 -0.951227
14.512470 11.107356 -0.929369
14.473448 11.654253 -0.988087
14.249176 12.090998 -0.979836
15.037208 10.842548 -0.926655
14.840240 11.297429 -0.973009
14.756782 11.811414 -0.935049
14.531963 12.249743 -0.926432
15.355194 11.020921 -0.941122
15.161725 11.481786 -0.995291
15.089979 12.008572 -0.980444
14.863775 12.449927 -0.971281
15.679036 11.202868 -0.959993
15.459631 11.647265 -0.962561
15.391832 12.179469 -0.953882
15.181234 12.636855 -0.977976
15.995851 11.379029 -0.957796
15.784091 11.832455 -0.976742
15.694674 12.350531 -0.923569
15.479332 12.806585 -0.938667
16.318451 11.558720 -0.959953
16.105835 12.014822 -0.978312
16.032951 12.549226 -0.956223
15.820658 13.011957 -0.978956
16.660437 11.751644 -0.991329
16.424629 12.194248 -0.967392
16.373196 12.748558 -0.984324
16.155464 13.210849 -0.998035
16.986187 11.932220 -0.984957
16.767103 12.390797 -0.993801
16.728689 12.959002 -1.032579
16.500807 13.417525 -1.029081
17.331764 12.126240 -1.007368
17.111486 12.587943 -1.015614
17.041393 13.134888 -0.993944
16.790482 13.577353 -0.949020
17.660507 12.307600 -0.992361
17.439301 12.771945 -1.000050
17.405313 13.350097 -1.040983
17.188475 13.825410 -1.060713
18.009518 12.502606 -1.005688
17.805799 12.983914 -1.045317
17.734463 13.537312 -1.018156
17.498495 14.000421 -1.004843
18.360308 12.698127 -1.014328
18.136698 13.168719 -1.020802
18.060158 13.721151 -0.982977
17.860168 14.216649 -1.033438
18.712839 12.894136 -1.018255
18.488022 13.367849 -1.024109
18.453600 13.956361 -1.055519
18.209852 14.422197 -1.033037
19.086782 13.104329 -1.049414
18.860487 13.581647 -1.054604
18.782293 14.140927 -1.011143
18.580223 14.643418 -1.059582
19.417934 13.284042 -1.003901
19.215401 13.781785 -1.048174
19.155975 14.359072 -1.033518
18.933441 14.849937 -1.049397
19.800629 13.498770 -1.033003
19.571915 13.982323 -1.036938
19.531731 14.577839 -1.050640
19.307753 15.072311 -1.065678
20.180386 13.710649 -1.048904
19.970390 14.212373 -1.083456
19.909513 14.797198 -1.062479
19.703861 15.310866 -1.107748
20.562147 13.923106 -1.059513
20.330463 14.413858 -1.062082
20.309572 15.032347 -1.099920
20.057396 15.514868 -1.074615
20.966835 14.150431 -1.095703
20.712696 14.630461 -1.066673
20.670961 15.237563 -1.070164
20.462894 15.758666 -1.113285
21.352701 14.364065 -1.095400
21.091595 14.843845 -1.058241
21.075306 15.473967 -1.096424
20.845238 15.983317 -1.107983
21.713608 14.559993 -1.051624
21.503998 15.080207 -1.090145
21.481958 15.711057 -1.116814
21.250151 16.224483 -1.127453
22.167910 14.818404 -1.131496
21.934870 15.328661 -1.138704
21.890862 15.948802 -1.131300
21.631075 16.446089 -1.103546
22.559599 15.033578 -1.114513
22.325123 15.547454 -1.120958
22.280453 16.171362 -1.110044
22.045425 16.692446 -1.118879
22.975153 15.264018 -1.121817
22.717068 15.766623 -1.097710
22.715189 16.426102 -1.142401
22.478128 16.951731 -1.150246
23.415224 15.510018 -1.152676
23.177055 16.032583 -1.157438
23.108522 16.649565 -1.109612
22.891676 17.195276 -1.145849
23.812540 15.726556 -1.118420
23.595293 16.268326 -1.151669
23.570036 16.921701 -1.158531
23.329170 17.455929 -1.164436
24.234255 15.958582 -1.107645
23.992922 16.488855 -1.110794
23.989553 17.162264 -1.142693
23.724760 17.683834 -1.118849
24.704117 16.221697 -1.148451
24.454813 16.753088 -1.143475
24.433643 17.419596 -1.149351
24.188959 17.962412 -1.153301
25.153439 16.470224 -1.153566
24.902082 17.006170 -1.147766
24.880030 17.677526 -1.149363
24.650253 18.237568 -1.173542
25.605028 16.719337 -1.152027
25.351618 17.259830 -1.145395
25.351768 17.952564 -1.170826
25.125534 18.521950 -1.200768
26.082609 16.984621 -1.171902
25.826868 17.530149 -1.164387
25.820284 18.224159 -1.178102
25.591997 18.798529 -1.206738
26.526752 17.227007 -1.142761
26.304703 17.801168 -1.176147
26.297125 18.500568 -1.185154
26.066713 19.080040 -1.212461
26.773064 18.064682 -1.166853
26.776436 18.777605 -1.184906
26.543888 19.362173 -1.210880
27.282156 19.072170 -1.204447
27.023455 19.644886 -1.201952
27.766401 19.350426 -1.189219
27.553240 19.963181 -1.239271
24.151827 16.753822 3.298603
28.061966 20.264723 -1.241571
24.234724 16.758657 3.680599
23.691069 17.019566 4.031055
23.368498 16.102848 5.053614
23.830486 17.063280 4.344000
23.560963 16.186951 5.295033
23.973249 17.109776 4.651070
23.802250 16.304874 5.487116
24.138268 17.172615 4.933300
24.476036 16.721136 5.251936
0.746000 0.341192 28.803085
0.712258 0.321839 28.834702
24.855288 17.575485 5.114119
0.787971 0.369181 28.770163
0.746849 0.345749 28.807291
0.741731 0.341729 28.815252
0.725079 0.325532 28.834692
0.736501 0.337660 28.823090
0.712897 0.316965 28.848192
0.717954 0.324248 28.842602
0.754280 0.344682 28.814667
0.739011 0.338705 28.826721
0.728536 0.326967 28.839737
0.713453 0.320471 28.851595
0.756926 0.345770 28.818630
0.768449 0.358535 28.807644
0.703331 0.309465 28.865681
0.722300 0.326034 28.849110
0.724974 0.323705 28.850439
0.702844 0.312233 28.867397
0.745050 0.341161 28.836002