# This PCD file was generated using the MATLAB® pcwrite function
# from Computer Vision System Toolbox®.
# .PCD v.7 - Point Cloud Data file format
VERSION .7
FIELDS x y z
SIZE 4 4 4
TYPE F F F
COUNT 1 1 1
WIDTH 742
HEIGHT 1
VIEWPOINT 0 0 0 1 0 0 0
POINTS 742
DATA ascii
44.564720 -46.420479 13.539680
44.610001 -46.368740 13.022709
44.019238 -46.442032 13.230940
42.965633 -46.609303 13.999502
42.834560 -46.113434 13.687677
43.082371 -46.008919 12.916063
42.772572 -46.029793 12.817051
46.037567 -45.845806 8.766409
45.136719 -45.432625 9.333595
45.741417 -45.855698 8.580379
44.784897 -45.457478 9.233438
45.415585 -45.310120 8.419735
45.638435 -45.825027 8.146343
44.960785 -45.358082 8.443893
45.295410 -45.844616 8.019442
44.994240 -45.290371 7.823338
44.969894 -45.860714 7.872284
45.229439 -45.172337 6.912399
44.708252 -45.863136 7.640427
44.895061 -45.190403 6.766071
49.760544 -44.003883 0.009789
49.761650 -44.699047 0.031387
43.879982 -45.376495 7.585117
49.218689 -44.750847 0.056774
43.970367 -45.290894 6.849445
48.671143 -44.118652 0.073200
48.701054 -44.797890 0.056015
48.155743 -44.170189 0.077793
48.129776 -44.857937 0.143242
47.554615 -44.244499 0.220089
47.628357 -44.903084 0.138462
44.299046 -45.005634 4.427925
44.294830 -45.606491 4.461304
43.860851 -45.048561 4.425259
43.883896 -45.639774 4.417740
43.366360 -45.107128 4.519699
43.447556 -45.679646 4.420605
43.010700 -45.129658 4.401085
43.013054 -45.719784 4.428402
42.598259 -45.167831 4.379150
42.559872 -45.765198 4.475014
42.166931 -45.211838 4.395767
42.190361 -45.790825 4.390408
41.757530 -45.250542 4.382996
41.761108 -45.831741 4.412426
41.349567 -45.289505 4.374672
41.353577 -45.867912 4.404778
40.943092 -45.328724 4.370777
40.947540 -45.904343 4.401562
40.500111 -45.379219 4.440788
40.504890 -45.950935 4.472347
40.153511 -45.402405 4.341240
40.158890 -45.972984 4.373299
39.733055 -45.447849 4.385395
39.757298 -46.010147 4.383022
39.332985 -45.488026 4.398945
39.380062 -46.041389 4.352928
39.165337 -46.627003 4.437618
39.159885 -47.187939 4.494339
38.934631 -45.528427 4.416790
38.963623 -46.083931 4.406513
38.808365 -46.652145 4.378597
38.817039 -47.208668 4.409176
38.559879 -45.562233 4.394444
38.602158 -46.111973 4.357822
38.439171 -47.237251 4.398884
38.216187 -45.586773 4.313435
38.267067 -46.132965 4.259094
38.018600 -46.722687 4.432709
38.032486 -47.272655 4.455391
37.800835 -45.634640 4.388176
37.830204 -46.183460 4.379059
37.660088 -46.749649 4.393970
37.657612 -47.301674 4.453148
37.412956 -45.674564 4.413452
37.421680 -46.226803 4.449841
37.269268 -46.785446 4.431190
37.284019 -47.330917 4.454769
37.051178 -45.706600 4.388565
37.064537 -46.255798 4.416412
36.896557 -46.817158 4.436199
36.895538 -47.364101 4.496605
36.646523 -45.753658 4.467144
36.656239 -46.300713 4.504711
36.509361 -46.853344 4.481510
36.524937 -47.393761 4.506016
36.295158 -45.783447 4.431648
36.321106 -46.324135 4.433186
36.170765 -46.876972 4.421036
36.186871 -47.416248 4.445892
35.936775 -45.816154 4.417892
35.962975 -46.355022 4.419788
35.786713 -46.913551 4.474056
35.818459 -47.446350 4.462589
35.568146 -45.853081 4.435238
35.594563 -46.389717 4.437538
35.434532 -46.941875 4.457314
35.455250 -47.475731 4.473789
35.230236 -45.879585 4.382637
35.245972 -46.418655 4.412895
35.068653 -46.974617 4.481060
35.086086 -47.507133 4.507187
34.853241 -45.920906 4.434937
34.880165 -46.453758 4.437946
34.722107 -47.002323 4.462074
34.736473 -47.534187 4.497856
34.516705 -45.947872 4.389084
34.529930 -46.484322 4.429535
34.355469 -47.036499 4.502365
34.377327 -47.564163 4.519932
34.139526 -45.990871 4.458111
34.153252 -46.524509 4.499126
34.024548 -47.060482 4.452881
34.043472 -47.588043 4.480087
33.791256 -46.023525 4.456333
33.818954 -46.550777 4.460384
33.660679 -47.095032 4.500290
33.683365 -47.619305 4.518505
33.431007 -46.061611 4.495419
33.458939 -46.586624 4.499851
33.314808 -47.124607 4.504318
33.337910 -47.647182 4.522858
33.097775 -46.089455 4.462944
33.113323 -46.617985 4.505280
32.960548 -47.157448 4.540020
32.980873 -47.678795 4.568348
32.752625 -46.122715 4.471294
32.768787 -46.649544 4.514057
32.629341 -47.183334 4.512981
32.662521 -47.700020 4.503708
32.420574 -46.151009 4.445190
32.452465 -46.670918 4.440987
32.286659 -47.213497 4.527012
32.326000 -47.726753 4.498959
33.490845 -47.386959 0.803043
32.077332 -46.184673 4.460098
32.118214 -46.699455 4.427704
33.186295 -46.812706 0.471012
33.282959 -47.368050 0.267284
32.891373 -45.695557 0.600662
32.982895 -46.246830 0.410507
32.866634 -46.825348 0.289856
32.894169 -47.402607 0.314911
32.554974 -45.713787 0.478504
32.639759 -46.267685 0.307037
32.490097 -46.858345 0.302643
30.300495 -48.127510 8.066696
32.238705 -45.722195 0.282795
32.274319 -46.297943 0.283104
30.003160 -47.682190 7.963421
32.133259 -46.884613 0.251858
30.035835 -48.141167 7.949175
29.747757 -46.796024 8.144150
29.799328 -47.245487 8.060207
31.909382 -46.328449 0.262543
29.695850 -47.711403 8.001926
29.707993 -48.175484 8.064867
29.472139 -46.813454 8.068819
29.465557 -47.288757 8.205898
29.469322 -47.709347 7.734991
29.432732 -48.193001 7.990917
29.164501 -46.847466 8.120987
29.190859 -47.306351 8.133381
29.210035 -47.719482 7.585501
29.147217 -48.214127 7.958046
28.851460 -46.885349 8.205055
28.899155 -47.331985 8.130861
28.930296 -47.737736 7.515541
28.824598 -48.248775 8.082802
28.596684 -46.892200 8.050570
28.463526 -47.428600 8.750471
28.641064 -47.760105 7.486824
28.549580 -48.266937 8.016560
28.138849 -47.014633 8.798807
28.135004 -47.476242 8.948582
28.334806 -47.790367 7.538475
28.256775 -48.291920 8.030558
27.867052 -47.034000 8.747257
27.864840 -47.495361 8.897421
27.933321 -47.865562 8.050774
27.989637 -48.307289 7.930271
27.596909 -47.052380 8.688374
27.588329 -47.517986 8.877840
27.602528 -47.910950 8.265177
27.713375 -48.326191 7.871311
27.303410 -47.085663 8.748732
27.321611 -47.535389 8.811975
27.328882 -47.929890 8.209261
27.419531 -48.352573 7.902826
27.026056 -47.109322 8.733797
27.032267 -47.565975 8.865675
26.991699 -47.981827 8.498438
27.152155 -48.367939 7.799829
26.752415 -47.130760 8.701803
26.760086 -47.587029 8.833990
26.680668 -48.022427 8.673433
26.892122 -48.379658 7.650000
26.470448 -47.158428 8.721172
26.482845 -47.611496 8.834124
26.415569 -48.038979 8.596100
26.621740 -48.395668 7.551445
26.225243 -47.158714 8.517612
26.209215 -47.634022 8.817114
26.086218 -48.093414 8.924362
26.334532 -48.419777 7.553650
25.929623 -47.197552 8.630146
25.940191 -47.653584 8.773037
25.812639 -48.116631 8.921097
26.000732 -48.468777 7.873983
25.651703 -47.223389 8.637327
25.663792 -47.678616 8.780533
25.696484 -48.504528 8.029858
25.375612 -47.248222 8.637156
25.393188 -47.699657 8.751074
25.261387 -48.167206 8.961378
25.383656 -48.547096 8.277601
25.108429 -47.265030 8.570446
25.119978 -47.722984 8.743727
25.090071 -48.580486 8.409639
24.833633 -47.289101 8.565241
24.846992 -47.746498 8.738796
24.732004 -48.203335 8.843271
24.794628 -48.616871 8.584057
24.563267 -47.308727 8.522953
24.573191 -47.771225 8.746172
24.454445 -48.231892 8.901588
24.521263 -48.639889 8.582731
24.301115 -47.318226 8.394030
24.302746 -47.793079 8.726273
24.191376 -48.248344 8.823572
24.221485 -48.683617 8.861792
24.041367 -47.322357 8.217825
24.033129 -47.814137 8.698832
23.921240 -48.271145 8.817286
23.938118 -48.717705 9.014561
23.759130 -47.355381 8.291349
23.758503 -47.841419 8.733250
23.675608 -48.735222 8.941244
23.492439 -47.365860 8.169199
23.494705 -47.854935 8.631159
23.401865 -48.291786 8.513613
23.433542 -48.730938 8.561718
23.212795 -47.396946 8.227818
23.236233 -47.857933 8.422070
23.117737 -48.332253 8.713182
23.138374 -48.781696 8.950737
22.941765 -47.412491 8.150000
22.951670 -47.902542 8.632484
22.845411 -48.359230 8.756123
22.873569 -48.800663 8.894266
22.670441 -47.426121 8.054657
22.679111 -47.929543 8.666542
22.577375 -48.379696 8.721813
22.605789 -48.823353 8.889921
22.391966 -47.457737 8.120565
22.415718 -47.934494 8.474232
22.305889 -48.407806 8.779484
22.337738 -48.846928 8.897884
22.119850 -47.468628 8.000149
22.143261 -47.960030 8.493101
22.039989 -48.421349 8.660196
22.071255 -48.867294 8.858328
21.839474 -47.517998 8.229933
21.874897 -47.967674 8.325254
21.769077 -48.450619 8.732557
21.802986 -48.892601 8.890921
21.564053 -47.557495 8.372757
21.601923 -47.991795 8.328943
21.500765 -48.466362 8.637846
21.536316 -48.910770 8.816105
21.291323 -47.576576 8.329105
21.329365 -48.002079 8.185675
21.230913 -48.484825 8.575371
21.268381 -48.916817 8.554022
21.018864 -47.608719 8.407143
21.055889 -48.033195 8.263819
20.961332 -48.513794 8.644844
21.000891 -48.959682 8.853071
20.746468 -47.632477 8.408018
20.778978 -48.035862 8.035700
20.691679 -48.537415 8.646887
20.732674 -48.980556 8.815186
20.476658 -47.666950 8.510687
20.507341 -48.073772 8.188320
20.419327 -48.553532 8.551620
20.462496 -48.998535 8.729765
20.208982 -47.702515 8.625635
20.230122 -48.089027 8.094452
20.147110 -48.573814 8.508574
20.194313 -49.023090 8.746468
19.945869 -47.744320 8.802519
19.956242 -48.115406 8.122435
19.865149 -48.579277 8.268686
19.925518 -49.046589 8.745562
19.674463 -47.763439 8.763107
19.674246 -48.126831 7.983692
19.595003 -48.607735 8.330080
19.655609 -49.069084 8.727074
19.406521 -47.789974 8.795589
19.412205 -48.172192 8.225321
19.315285 -48.623749 8.224604
19.386528 -49.093018 8.730875
19.135620 -47.811607 8.780781
19.149555 -48.211266 8.399563
19.039303 -48.645992 8.201212
19.115332 -49.115383 8.707163
18.862028 -47.830467 8.738592
18.877619 -48.236427 8.417086
18.760412 -48.666328 8.150427
18.843609 -49.137997 8.685837
18.591888 -47.854591 8.748394
18.605862 -48.261776 8.436979
18.478739 -48.685532 8.082249
18.567036 -49.157986 8.617184
18.317028 -47.873981 8.711031
18.323997 -48.277973 8.350128
18.212185 -48.717091 8.185371
18.285290 -49.176033 8.511257
18.043425 -47.895611 8.695904
18.070143 -48.318932 8.553267
17.921930 -48.731937 8.052685
17.972330 -49.178810 8.129862
17.739075 -47.891266 8.416193
17.743038 -48.302307 8.075146
17.661125 -48.766563 8.200171
17.694315 -49.202850 8.118633
17.423592 -47.882801 8.090015
17.468414 -48.328766 8.104929
17.363382 -48.779350 8.032990
17.417103 -49.227680 8.119780
17.139729 -47.902805 8.053160
17.183813 -48.348877 8.058043
17.100592 -48.812187 8.155432
17.137066 -49.251678 8.103579
16.879824 -47.940140 8.196320
16.909096 -48.375767 8.092707
16.808870 -48.830421 8.062733
16.874527 -49.282776 8.218433
16.559069 -47.937149 7.918192
16.611429 -48.390049 7.971989
16.528627 -48.854961 8.061537
16.578339 -49.301495 8.098434
16.307697 -47.979477 8.115322
16.329857 -48.414268 7.972248
16.260635 -48.884930 8.141672
16.323427 -49.334915 8.257429
15.993905 -47.984886 7.921574
16.067493 -48.448120 8.093046
15.960560 -48.902222 8.027277
16.011726 -49.350285 8.063854
15.717775 -48.012772 7.966272
15.765795 -48.463444 7.980305
15.706959 -48.937614 8.190872
15.758631 -49.383949 8.227461
15.436636 -48.038116 7.984007
15.512123 -48.500629 8.145023
15.397316 -48.953072 8.042532
15.442621 -49.400181 8.039515
15.145947 -48.059216 7.955351
15.200665 -48.513584 7.998442
15.138302 -48.986214 8.171490
15.168603 -49.428387 8.090050
14.886044 -48.094791 8.085550
14.933506 -48.544991 8.089510
14.817139 -49.000050 7.989635
14.881145 -49.453503 8.074450
14.568081 -48.104969 7.935278
14.626430 -48.561729 7.987671
14.552834 -49.031738 8.094101
14.599202 -49.480274 8.090796
14.311571 -48.141720 8.079969
14.334248 -48.584751 7.966715
14.261686 -49.055878 8.074112
14.342977 -49.512653 8.226728
13.983343 -48.150127 7.906336
14.070145 -48.617443 8.074858
13.960703 -49.078011 8.017910
14.014662 -49.530575 8.043476
13.698003 -48.176128 7.929819
13.747414 -48.631710 7.932909
13.702682 -49.111320 8.148983
13.761767 -49.563713 8.193924
13.422176 -48.205723 7.994553
13.510245 -48.672501 8.152502
13.371302 -49.127327 7.981907
13.431417 -49.582966 8.026430
13.104631 -48.221336 7.897650
13.157453 -48.679886 7.909992
13.129254 -49.164276 8.175823
13.135045 -49.608986 8.007446
12.872325 -48.265381 8.131237
12.904908 -48.716057 8.066568
12.794129 -49.181129 8.014774
12.884204 -49.642563 8.165007
12.521290 -48.271858 7.924601
12.585732 -48.734669 7.975025
12.498429 -49.207081 8.011118
12.555634 -49.664333 8.035627
12.226349 -48.296707 7.932514
12.278009 -48.757072 7.934641
12.224131 -49.237511 8.087011
12.306608 -49.698154 8.197836
11.939397 -48.324223 7.971844
12.025220 -48.792976 8.088699
11.890833 -49.257317 7.964252
11.952241 -49.717731 7.997814
11.626315 -48.344891 7.927956
11.684690 -48.808823 7.948738
11.639594 -49.292263 8.121841
11.654930 -49.745659 8.002350
11.350678 -48.376038 8.010757
11.397664 -48.837357 7.993280
11.297154 -49.311886 7.986179
11.383989 -49.777084 8.095486
11.002029 -48.388927 7.868328
11.086229 -48.861088 7.964447
10.998034 -49.339355 7.996576
11.046243 -49.801014 7.981785
10.725934 -48.420586 7.956575
10.770438 -48.884567 7.929167
10.723766 -49.370918 8.085564
10.800643 -49.835583 8.156038
10.415013 -48.444160 7.943483
10.524296 -48.921833 8.104799
10.381926 -49.392838 7.978636
10.447053 -49.858994 8.010757
10.096464 -48.466606 7.914602
10.154702 -48.936283 7.924463
10.124256 -49.427158 8.120073
10.133416 -49.887150 7.991796
9.837873 -48.502548 8.057623
9.838844 -48.961452 7.907791
9.769080 -49.448563 7.991417
9.876589 -49.920902 8.135668
9.493866 -48.520557 7.969116
9.567039 -48.994530 8.015900
9.466886 -49.477554 8.016279
9.516790 -49.945744 8.000629
9.143925 -48.538376 7.874886
9.221650 -49.015736 7.930429
9.189367 -49.509819 8.109306
9.228791 -49.977257 8.065554
8.882655 -48.574215 8.016479
8.932092 -49.046436 7.997368
8.817357 -49.531380 7.963106
8.915510 -50.007023 8.067980
8.522334 -48.591484 7.910379
8.613096 -49.072929 7.992821
8.513072 -49.561337 7.997023
8.579009 -50.035515 8.017851
8.201155 -48.616806 7.909594
8.277940 -49.097618 7.954496
8.239069 -49.594757 8.107700
8.294106 -50.068096 8.100588
7.941245 -48.653210 8.059023
8.003228 -49.131248 8.066868
7.841108 -49.615883 7.926439
7.959120 -50.097610 8.066210
7.556012 -48.668526 7.917629
7.634562 -49.152477 7.961580
7.534684 -49.646835 7.969671
7.606708 -50.126602 7.998596
7.195683 -48.689068 7.844385
7.275214 -49.175835 7.887733
7.260546 -49.681011 8.088886
7.349383 -50.161621 8.154108
6.940384 -48.726791 8.011261
7.000020 -49.210266 8.008848
6.888038 -49.706699 7.992235
6.978108 -50.190521 8.056805
6.543960 -48.743099 7.872469
6.642015 -49.234970 7.951082
6.525500 -49.734024 7.926880
6.599924 -50.219803 7.954536
6.199780 -48.768162 7.855366
6.281969 -49.260189 7.897163
6.255396 -49.769325 8.063927
6.347562 -50.255688 8.127439
5.963307 -48.808914 8.066288
6.041773 -49.299129 8.098871
5.877120 -49.796505 7.978693
5.953045 -50.285320 8.005545
5.507345 -48.819576 7.831964
5.626790 -49.319546 7.944254
5.514100 -49.825546 7.933455
5.621988 -50.318314 8.022507
5.159163 -48.845928 7.825708
5.244072 -49.344322 7.865791
5.257996 -49.862495 8.105940
5.299150 -50.352016 8.060698
4.906246 -48.884892 8.009222
4.936796 -49.377197 7.942493
4.856161 -49.889923 7.996725
4.952841 -50.385242 8.057751
4.538509 -48.909599 7.974180
4.662317 -49.413338 8.084015
4.488773 -49.920322 7.962767
4.581934 -50.418148 8.014273
4.130968 -48.930336 7.872902
4.218504 -49.434406 7.911287
4.195837 -49.955673 8.073423
4.218588 -50.451855 7.992485
3.816971 -48.962734 7.951141
3.866785 -49.464527 7.918995
3.826136 -49.986916 8.046869
3.945379 -50.488491 8.141033
3.478567 -48.992691 7.988958
3.592209 -49.501484 8.069849
3.395721 -50.015575 7.919941
3.516573 -50.521427 8.013107
3.049946 -49.013481 7.874453
3.160044 -49.526028 7.945644
3.041712 -50.048931 7.936705
3.144037 -50.556408 7.994356
2.673618 -49.040703 7.859770
2.784933 -49.555885 7.930115
2.767759 -50.086491 8.095142
2.810314 -50.592670 8.048750
2.352104 -49.074020 7.943510
2.387764 -49.584759 7.884392
2.310114 -50.115986 7.947323
2.476208 -50.629265 8.106585
1.978662 -49.102623 7.945204
2.107841 -49.622490 8.039612
1.952873 -50.150631 7.975679
2.037689 -50.664642 7.997084
1.556377 -49.127312 7.874678
1.692339 -49.651234 7.976461
1.552420 -50.184036 7.940014
1.638117 -50.701298 7.960827
1.174253 -49.156479 7.876585
1.263659 -49.679943 7.901272
1.235750 -50.221146 8.043953
1.300718 -50.739208 8.030529
0.834105 -49.189873 7.949867
0.886362 -49.712612 7.915188
0.854198 -50.256279 8.050333
0.979357 -50.777584 8.128946
0.471769 -49.221767 7.993313
0.584627 -49.750210 8.050268
0.427216 -50.290504 7.994246
0.537325 -50.815430 8.046806
0.064146 -49.250496 7.974325
0.183712 -49.782444 8.038677
0.020094 -50.326038 7.976404
0.109095 -50.854065 7.994928
-0.384815 -49.276737 7.902327
-5.573780 -48.875645 0.315903
-0.269585 -49.812546 7.957355
-0.434084 -50.360912 7.897306
-0.321550 -50.893356 7.948151
-0.813734 -49.305401 7.868538
-5.662977 -48.944138 0.909058
-0.731535 -49.843098 7.873339
-0.708010 -50.401100 8.086084
-0.686016 -50.933350 8.005014
-1.250608 -49.334274 7.831675
-5.633984 -49.019672 1.655643
-1.167662 -49.875786 7.835789
-1.142527 -50.437637 8.049103
-1.004822 -50.973694 8.131130
-1.549259 -49.373508 7.994373
-3.328718 -49.250523 5.532665
-5.629137 -49.091534 2.350262
-1.448299 -49.916306 8.022448
-3.206913 -49.836231 5.580940
-3.151299 -50.442078 5.847046
-3.031990 -51.019058 5.892750
-3.558691 -49.299004 5.834297
-3.477541 -49.881271 5.825676
-3.537788 -50.484062 5.930744
-3.417440 -51.063137 5.975681
-3.947062 -49.336952 5.921482
-3.817516 -49.923344 5.976460
-3.876577 -50.527252 6.082611
-3.779272 -51.107464 6.094833
-4.311495 -49.376789 6.044678
-4.205112 -49.963768 6.066971
-4.281378 -50.569668 6.150478
-4.140854 -51.152096 6.217773
-4.730827 -49.413673 6.100655
-4.592979 -50.004581 6.161713
-4.674559 -50.612698 6.238670
-4.526663 -51.197266 6.312904
-5.070465 -49.455620 6.263306
-4.981077 -50.045780 6.260685
-5.012190 -50.656757 6.401741
-4.912691 -51.242817 6.412262
-5.509481 -49.492321 6.304802
-5.400640 -50.086349 6.324921
-5.424250 -50.700325 6.474792
-5.273830 -51.288437 6.547031
-5.842010 -49.535198 6.482849
-5.738800 -50.129910 6.494621
-5.811586 -50.744549 6.583458
-5.685226 -51.335075 6.623699
-6.237444 -49.575062 6.587425
-6.120722 -50.172401 6.613899
-6.224655 -50.789001 6.665688
-6.097237 -51.382172 6.705074
-6.678341 -49.613155 6.643059
-6.534851 -50.214397 6.699188
-6.612371 -50.834019 6.783115
-6.477489 -51.429173 6.829304
-7.068012 -49.654182 6.764400
-6.923416 -50.257488 6.819511
-7.000072 -50.879410 6.904839
-6.870667 -51.476765 6.942558
-7.477438 -49.694710 6.867523
-7.344889 -50.300205 6.906536
-7.387712 -50.925167 7.030857
-7.257320 -51.524612 7.067738
-7.893826 -49.735394 6.967857
-7.760273 -50.343529 7.005905
-7.801949 -50.971306 7.131397
-7.663862 -51.573257 7.174839
-8.256748 -49.778664 7.132118
-8.142437 -50.387943 7.147083
-8.209812 -51.017879 7.244106
-8.111000 -51.623249 7.242207
-8.700493 -49.819126 7.212242
-8.531078 -50.432583 7.285130
-8.624659 -51.064899 7.354164
-8.491196 -51.672142 7.388351
-9.117592 -49.861103 7.326756
-8.974260 -50.476715 7.369209
-9.074097 -51.112541 7.432678
-8.932697 -51.722950 7.473179
-9.562592 -49.902573 7.417236
-9.362898 -50.522148 7.516415
-9.455082 -51.160252 7.588726
-9.326506 -51.772976 7.613853
-9.980326 -49.945465 7.541656
-9.806990 -50.567238 7.610628
-9.898516 -51.208813 7.684643
-9.768940 -51.824745 7.708866
-10.369993 -49.989639 7.699314
-10.223560 -50.613148 7.738604
-10.342543 -51.257889 7.785906
-10.183821 -51.876202 7.837605
-10.872923 -50.030907 7.748823
-10.696962 -50.658970 7.815062
-10.758650 -51.307156 7.920624
-10.627153 -51.928955 7.943047
-11.291319 -50.075165 7.888348
-11.114103 -50.705814 7.953260
-11.232141 -51.357563 8.004499
-11.035166 -51.981071 8.088736
-11.709665 -50.119839 8.032768
-11.567286 -50.752865 8.061737
-11.793341 -51.409767 8.011410
-11.674059 -52.041233 8.017923
-12.324636 -50.160305 7.997231
-12.202864 -50.799614 8.004236
-12.473490 -51.464584 7.916292
-12.352926 -52.103718 7.921648
-13.096903 -50.198380 7.827576
-12.944532 -50.847103 7.860281
-13.216516 -51.521553 7.776453
-13.065210 -52.168415 7.807713
-13.815332 -50.239082 7.722738
-13.691130 -50.895939 7.726879
-15.327978 -51.604202 6.412010
-15.165178 -52.285019 6.446507
-16.000704 -50.253685 6.323547
-15.813650 -50.945927 6.377045
-16.083788 -51.665661 6.311932
-15.964056 -52.356747 6.304897
-16.799093 -50.297939 6.198978
-16.580305 -50.999390 6.276882
-16.949339 -51.730576 6.130383
-16.730455 -52.428452 6.207726
-17.625101 -50.343254 6.066223
-17.442198 -51.054420 6.109116
-17.729757 -51.795124 6.039654
-17.569357 -52.504204 6.062687
-18.501989 -50.389393 5.906578
-18.340235 -51.111153 5.927975
-18.652021 -51.864159 5.843884
-18.497385 -52.584911 5.858707
-19.376795 -50.437222 5.766064
-19.213518 -51.169376 5.785595
-20.688391 -51.961597 4.742218
-20.937071 -52.730839 4.414810
-23.648756 -50.448700 2.867226
-26.746302 -50.414074 0.336617
-26.557211 -51.272663 0.355846
-22.049238 -52.046162 4.242153
-21.114832 -52.783649 4.884350
-27.599379 -50.474648 0.340519
-27.362055 -51.341854 0.395512
-22.508787 -52.109413 4.494549
-22.650755 -52.896446 4.258610
-28.400934 -50.537014 0.399666
-28.201078 -51.412544 0.421448
-23.925673 -52.199512 3.998024
-23.220102 -52.968094 4.431282
-28.762327 -50.603634 0.812733
-28.372107 -51.477402 0.980679
-28.359964 -52.379028 1.200142
-27.935156 -53.232620 1.395565
-26.343462 -51.515720 3.214706
-26.587297 -52.382305 3.228558
-26.362467 -53.208275 3.272388
-23.202211 -50.763283 6.335636
-27.176107 -51.585644 3.239029
-23.222441 -50.822456 6.917213
-27.947397 -51.655937 3.322578
-28.078375 -52.536781 3.427429
-27.809843 -53.375320 3.497005
-23.146662 -50.880997 7.560982
-28.598776 -50.872421 3.632526
-28.307547 -51.720924 3.715664
-28.104265 -52.591591 4.061714
-27.834990 -53.425030 4.129974
-23.226320 -50.938484 8.085506
-28.516336 -50.937012 4.343025
-28.354708 -51.780762 4.332287
-23.866919 -50.995953 8.215429
-28.392458 -51.000473 5.072250
-28.378489 -51.839542 4.958508
-27.353769 -52.671120 5.864437
-27.100737 -53.482048 5.919659
21.074268 -50.963116 39.453064
21.001951 -50.963718 39.418343
21.028612 -50.966354 39.432453
21.000681 -50.964035 39.420708
21.036249 -50.966076 39.439335
21.061310 -50.961304 39.455669
21.079292 -50.963482 39.464737
20.998629 -50.968956 39.425133
21.023748 -50.963612 39.441376
21.006325 -50.968678 39.432041
21.058502 -50.962032 39.461246
21.112492 -50.961731 39.487579
21.021622 -50.964176 39.445740
21.039970 -50.966827 39.454140
21.074776 -50.961544 39.473534
21.029993 -50.967709 39.451904
21.064913 -50.962257 39.471077
21.047123 -50.966709 39.462421
21.064413 -50.965672 39.472641