# This PCD file was generated using the MATLAB® pcwrite function
# from Computer Vision Toolbox®.
# .PCD v.7 - Point Cloud Data file format
VERSION .7
FIELDS x y z
SIZE 8 8 8
TYPE F F F
COUNT 1 1 1
WIDTH 860
HEIGHT 1
VIEWPOINT 0 0 0 1 0 0 0
POINTS 860
DATA ascii
-0.274805754423141 -0.061168015003204 1.000004529953003
-0.274805754423141 -0.050572335720062 1.000004172325134
-0.274805754423141 -0.039919197559357 1.000004291534424
-0.274805754423141 -0.029207289218903 1.000004529953003
-0.274805754423141 -0.018435060977936 1.000004291534424
-0.274805754423141 -0.007601560093462 1.000004053115845
-0.274805754423141 0.003294407390058 1.000004053115845
-0.274805754423141 0.014254092238843 1.000004410743713
-0.274805754423141 0.025279045104980 1.000004410743713
-0.274805754423141 0.036370575428009 1.000004410743713
-0.274805754423141 0.047529995441437 1.000004291534424
-0.274805754423141 0.058758556842804 1.000004410743713
-0.274805754423141 0.070057928562164 1.000004291534424
-0.274805754423141 0.081429302692413 1.000004291534424
-0.274805754423141 0.092874407768250 1.000004172325134
-0.274805754423141 0.104394666850567 1.000003814697266
-0.274805754423141 0.115990996360779 1.000004410743713
-0.274805754423141 0.127666175365448 1.000003933906555
-0.274805754423141 0.139420866966248 1.000003695487976
-0.274805754423141 0.151256680488586 1.000004053115845
-0.274805754423141 0.163175404071808 1.000004529953003
-0.274805754423141 0.175179183483124 1.000004529953003
-0.274805754423141 0.187269628047943 1.000004172325134
-0.274805754423141 0.199447870254517 1.000004410743713
-0.274805754423141 0.211716532707214 1.000004172325134
-0.274805754423141 0.224076747894287 1.000004291534424
-0.274805754423141 0.236530959606171 1.000004172325134
-0.274805754423141 0.249080598354340 1.000004291534424
-0.274805754423141 0.261728167533875 1.000004172325134
-0.274805754423141 0.274475097656250 1.000004291534424
-0.274805754423141 0.287323474884033 1.000004887580872
-0.274805754423141 0.300276279449463 1.000004649162292
-0.274805754423141 0.313335180282593 1.000004172325134
-0.274805754423141 0.326501965522766 1.000004053115845
-0.274805754423141 0.339778780937195 1.000004529953003
-0.274805754423141 0.353168725967407 1.000004291534424
-0.274805754423141 0.366673350334167 1.000004649162292
-0.274805754423141 0.380295872688293 1.000004529953003
-0.274805754423141 0.394038319587708 1.000004410743713
-0.274805754423141 0.407903432846069 1.000004172325134
-0.274805754423141 0.421893358230591 1.000004291534424
-0.274805754423141 0.436010956764221 1.000004529953003
-0.274805754423141 0.450259208679199 1.000004410743713
-0.274805754423141 0.464640974998474 1.000004053115845
-0.274805754423141 0.479158401489258 1.000004410743713
-0.274805754423141 0.493814706802368 1.000004887580872
-0.266805768013000 -0.493879199028015 1.000004529953003
-0.266805768013000 -0.479222536087036 1.000004410743713
-0.266805768013000 -0.464704751968384 1.000004529953003
-0.266805768013000 -0.450323462486267 1.000004291534424
-0.266805768013000 -0.436075210571289 1.000004291534424
-0.266805768013000 -0.421957492828369 1.000004291534424
-0.266805768013000 -0.407967448234558 1.000004291534424
-0.266805768013000 -0.394102573394775 1.000004410743713
-0.266805768013000 -0.380360245704651 1.000004291534424
-0.266805768013000 -0.366737604141235 1.000004649162292
-0.266805768013000 -0.353232622146606 1.000004649162292
-0.266805768013000 -0.339843273162842 1.000004053115845
-0.266805768013000 -0.326565980911255 1.000004291534424
-0.266805768013000 -0.313399434089661 1.000004053115845
-0.266805768013000 -0.300340652465820 1.000004410743713
-0.266805768013000 -0.287388205528259 1.000004053115845
-0.266805768013000 -0.274539589881897 1.000003933906555
-0.266805768013000 -0.261792063713074 1.000004529953003
-0.266805768013000 -0.249145090579987 1.000003933906555
-0.266805768013000 -0.236594915390015 1.000004529953003
-0.266805768013000 -0.224140703678131 1.000004649162292
-0.266805768013000 -0.211780667304993 1.000004172325134
-0.266805768013000 -0.199512243270874 1.000004172325134
-0.266805768013000 -0.187333464622498 1.000004649162292
-0.266805768013000 -0.175243198871613 1.000004768371582
-0.266805768013000 -0.163239598274231 1.000004410743713
-0.266805768013000 -0.151320695877075 1.000004291534424
-0.266805768013000 -0.139484703540802 1.000004291534424
-0.266805768013000 -0.127730250358582 1.000004053115845
-0.266805768013000 -0.116055250167847 1.000004291534424
-0.266805768013000 -0.104458630084991 1.000004172325134
-0.266805768013000 -0.092938482761383 1.000004291534424
-0.266805768013000 -0.081493556499481 1.000004172325134
-0.266805768013000 -0.070122182369232 1.000004053115845
-0.266805768013000 -0.058822870254517 1.000004172325134
-0.266805768013000 -0.047594189643860 1.000004172325134
-0.266805768013000 -0.036434769630432 1.000004291534424
-0.266805768013000 -0.025343358516693 1.000004172325134
-0.266805768013000 -0.014318467117846 1.000003933906555
-0.266805768013000 -0.003358365036547 1.000004410743713
-0.266805768013000 0.007537304423749 1.000003814697266
-0.266805768013000 0.018370985984802 1.000004410743713
-0.266805768013000 0.029143154621124 1.000004529953003
-0.266805768013000 0.039855122566223 1.000004410743713
-0.266805768013000 0.050508201122284 1.000004172325134
-0.266805768013000 0.061103820800781 1.000004291534424
-0.266805768013000 0.071642875671387 1.000004291534424
-0.266805768013000 0.082126617431641 1.000004291534424
-0.266805768013000 0.092556178569794 1.000004172325134
-0.266805768013000 0.102932810783386 1.000004410743713
-0.266805768013000 0.113257348537445 1.000004291534424
-0.266805768013000 0.123530976474285 1.000004053115845
-0.266805768013000 0.133754968643188 1.000004291534424
-0.266805768013000 0.143930196762085 1.000004291534424
-0.266805768013000 0.154057681560516 1.000004529953003
-0.266805768013000 0.164138257503510 1.000004053115845
-0.266805768013000 0.174173414707184 1.000004410743713
-0.266805768013000 0.184163630008698 1.000004172325134
-0.266805768013000 0.194110274314880 1.000004410743713
-0.266805768013000 0.204014003276825 1.000004291534424
-0.266805768013000 0.213875889778137 1.000004172325134
-0.266805768013000 0.223696887493134 1.000004291534424
-0.266805768013000 0.233477890491486 1.000004291534424
-0.266805768013000 0.243219673633575 1.000004291534424
-0.266805768013000 0.252923339605331 1.000004291534424
-0.266805768013000 0.262589395046234 1.000003576278687
-0.266805768013000 0.272219479084015 1.000004291534424
-0.266805768013000 0.281813591718674 1.000004053115845
-0.266805768013000 0.291373103857040 1.000004291534424
-0.266805768013000 0.300898700952530 1.000004649162292
-0.266805768013000 0.310391038656235 1.000004649162292
-0.266805768013000 0.319851011037827 1.000004410743713
-0.266805768013000 0.329279482364655 1.000004291534424
-0.266805768013000 0.338677316904068 1.000004291534424
-0.266805768013000 0.348045229911804 1.000004410743713
-0.266805768013000 0.357383847236633 1.000004053115845
-0.266805768013000 0.366694182157516 1.000004172325134
-0.266805768013000 0.375976920127869 1.000004410743713
-0.266805768013000 0.385232746601105 1.000004410743713
-0.266805768013000 0.394462376832962 1.000004529953003
-0.266805768013000 0.403666555881500 1.000004291534424
-0.266805768013000 0.412846028804779 1.000004053115845
-0.266805768013000 0.422001719474792 1.000004649162292
-0.266805768013000 0.431133925914764 1.000004291534424
-0.266805768013000 0.440243631601334 1.000004053115845
-0.266805768013000 0.449331521987915 1.000004291534424
-0.266805768013000 0.458398252725601 1.000004410743713
-0.266805768013000 0.467444449663162 1.000004172325134
-0.266805768013000 0.476470977067947 1.000004887580872
-0.266805768013000 0.485478192567825 1.000004410743713
-0.266805768013000 0.494466930627823 1.000004053115845
-0.266788810491562 0.499935269355774 0.978692054748535
-0.266743153333664 0.499935328960419 0.921356558799744
-0.266694009304047 0.499935477972031 0.859648942947388
-0.266640961170197 0.499935328960419 0.793041944503784
-0.266583561897278 0.499935269355774 0.720925569534302
-0.266521185636520 0.499935567378998 0.642583489418030
-0.266453146934509 0.499935299158096 0.557159304618835
-0.266378700733185 0.499935597181320 0.463650703430176
-0.266296833753586 0.499935418367386 0.360836029052734
-0.266206383705139 0.499935388565063 0.247251033782959
-0.266105949878693 0.499935716390610 0.121103532612324
-0.266009509563446 0.501903951168060 0.000004532278581
-0.266009509563446 -0.516647458076477 0.000004527577858
-0.266009509563446 -0.501968145370483 0.000004289227036
-0.266106426715851 -0.500063776969910 0.121711246669292
-0.266206830739975 -0.500063657760620 0.247828722000122
-0.266297250986099 -0.500063776969910 0.361385345458984
-0.266379117965698 -0.500064015388489 0.464173793792725
-0.266453534364700 -0.500063657760620 0.557658076286316
-0.266521543264389 -0.500064373016357 0.643063664436340
-0.266583919525146 -0.500064015388489 0.721385121345520
-0.266641318798065 -0.500063776969910 0.793481111526489
-0.266694337129593 -0.500063896179199 0.860070705413818
-0.266743481159210 -0.500063955783844 0.921763896942139
-0.266789108514786 -0.500063955783844 0.979085087776184
-0.266805768013000 -0.494531065225601 1.000004172325134
-0.266805768013000 -0.485542207956314 1.000004053115845
-0.266805768013000 -0.476534932851791 1.000004053115845
-0.266805768013000 -0.467508554458618 1.000004291534424
-0.266805768013000 -0.458462357521057 1.000004410743713
-0.266805768013000 -0.449395567178726 1.000003933906555
-0.266805768013000 -0.440307736396790 1.000004172325134
-0.266805768013000 -0.431198030710220 1.000004291534424
-0.266805768013000 -0.422065794467926 1.000004529953003
-0.266805768013000 -0.412910133600235 1.000004053115845
-0.266805768013000 -0.403730720281601 1.000004529953003
-0.266805768013000 -0.394526481628418 1.000004529953003
-0.266805768013000 -0.385296761989594 1.000004172325134
-0.266805768013000 -0.376041054725647 1.000004410743713
-0.266805768013000 -0.366758316755295 1.000004172325134
-0.266805768013000 -0.357447981834412 1.000004172325134
-0.266805768013000 -0.348109453916550 1.000004887580872
-0.266805768013000 -0.338741391897202 1.000004172325134
-0.266805768013000 -0.329343706369400 1.000004649162292
-0.266805768013000 -0.319915115833282 1.000004410743713
-0.266805768013000 -0.310455083847046 1.000004410743713
-0.266805768013000 -0.300962656736374 1.000004172325134
-0.266805768013000 -0.291437238454819 1.000004410743713
-0.266805768013000 -0.281877815723419 1.000004410743713
-0.266805768013000 -0.272283673286438 1.000004529953003
-0.266805768013000 -0.262653708457947 1.000004172325134
-0.266805768013000 -0.252987444400787 1.000004172325134
-0.266805768013000 -0.243283927440643 1.000004649162292
-0.266805768013000 -0.233541905879974 1.000004172325134
-0.266805768013000 -0.223761022090912 1.000004410743713
-0.266805768013000 -0.213939905166626 1.000004053115845
-0.266805768013000 -0.204078137874603 1.000004410743713
-0.266805768013000 -0.194174468517303 1.000004529953003
-0.266805768013000 -0.184227764606476 1.000004172325134
-0.266805768013000 -0.174237489700317 1.000004291534424
-0.266805768013000 -0.164202392101288 1.000004172325134
-0.266805768013000 -0.154121637344360 1.000004053115845
-0.266805768013000 -0.143994390964508 1.000004649162292
-0.266805768013000 -0.133819103240967 1.000004291534424
-0.266805768013000 -0.123595178127289 1.000004291534424
-0.266805768013000 -0.113321542739868 1.000004529953003
-0.266805768013000 -0.102996893227100 1.000004291534424
-0.266805768013000 -0.092620313167572 1.000004172325134
-0.266805768013000 -0.082190871238708 1.000004529953003
-0.266805768013000 -0.071707010269165 1.000004291534424
-0.266805768013000 -0.061167895793915 1.000004291534424
-0.266805768013000 -0.050572335720062 1.000004172325134
-0.266805768013000 -0.039919197559357 1.000004291534424
-0.266805768013000 -0.029207229614258 1.000004410743713
-0.266805768013000 -0.018435060977936 1.000004291534424
-0.266805768013000 -0.007601560093462 1.000004053115845
-0.266805768013000 0.003294228576124 1.000004410743713
-0.266805768013000 0.014254092238843 1.000004410743713
-0.266805768013000 0.025279045104980 1.000004410743713
-0.266805768013000 0.036370575428009 1.000004410743713
-0.266805768013000 0.047530114650726 1.000004172325134
-0.266805768013000 0.058758556842804 1.000004410743713
-0.266805768013000 0.070057928562164 1.000004291534424
-0.266805768013000 0.081429481506348 1.000004053115845
-0.266805768013000 0.092874348163605 1.000004291534424
-0.266805768013000 0.104394666850567 1.000003814697266
-0.266805768013000 0.115990996360779 1.000004410743713
-0.266805768013000 0.127666056156158 1.000004053115845
-0.266805768013000 0.139420688152313 1.000003933906555
-0.266805768013000 0.151256680488586 1.000004053115845
-0.266805768013000 0.163175523281097 1.000004291534424
-0.266805768013000 0.175179183483124 1.000004529953003
-0.266805768013000 0.187269628047943 1.000004172325134
-0.266805768013000 0.199448049068451 1.000004172325134
-0.266805768013000 0.211716532707214 1.000004172325134
-0.266805768013000 0.224076688289642 1.000004410743713
-0.266805768013000 0.236530959606171 1.000004172325134
-0.266805768013000 0.249080598354340 1.000004291534424
-0.266805768013000 0.261728048324585 1.000004291534424
-0.266805768013000 0.274474859237671 1.000004649162292
-0.266805768013000 0.287323474884033 1.000004887580872
-0.266805768013000 0.300276279449463 1.000004649162292
-0.266805768013000 0.313335061073303 1.000004291534424
-0.266805768013000 0.326501846313477 1.000004172325134
-0.266805768013000 0.339778900146484 1.000004291534424
-0.266805768013000 0.353168845176697 1.000004172325134
-0.266805768013000 0.366673469543457 1.000004529953003
-0.266805768013000 0.380295753479004 1.000004649162292
-0.266805768013000 0.394038438796997 1.000004291534424
-0.266805768013000 0.407903194427490 1.000004410743713
-0.266805768013000 0.421893477439880 1.000004053115845
-0.266805768013000 0.436010837554932 1.000004529953003
-0.266805768013000 0.450259089469910 1.000004529953003
-0.266805768013000 0.464640974998474 1.000004053115845
-0.266805768013000 0.479158401489258 1.000004410743713
-0.266805768013000 0.493814706802368 1.000004887580872
-0.241805762052536 -0.493879199028015 1.000004529953003
-0.241805762052536 -0.479222536087036 1.000004410743713
-0.241805762052536 -0.464704990386963 1.000004291534424
-0.241805762052536 -0.450323700904846 1.000004053115845
-0.241805762052536 -0.436075329780579 1.000004291534424
-0.241805762052536 -0.421957373619080 1.000004410743713
-0.241805762052536 -0.407967329025269 1.000004529953003
-0.241805762052536 -0.394102692604065 1.000004291534424
-0.241805762052536 -0.380360484123230 1.000004053115845
-0.241805762052536 -0.366737604141235 1.000004649162292
-0.241805762052536 -0.353232741355896 1.000004649162292
-0.241805762052536 -0.339843153953552 1.000004172325134
-0.241805762052536 -0.326565980911255 1.000004172325134
-0.241805762052536 -0.313399314880371 1.000004053115845
-0.241805762052536 -0.300340652465820 1.000004291534424
-0.241805762052536 -0.287388205528259 1.000004172325134
-0.241805762052536 -0.274539589881897 1.000003933906555
-0.241805762052536 -0.261792063713074 1.000004649162292
-0.241805762052536 -0.249144852161407 1.000004291534424
-0.241805762052536 -0.236594915390015 1.000004529953003
-0.241805762052536 -0.224140703678131 1.000004649162292
-0.241805762052536 -0.211780846118927 1.000003933906555
-0.241805762052536 -0.199512243270874 1.000004172325134
-0.241805762052536 -0.187333464622498 1.000004649162292
-0.241805762052536 -0.175243198871613 1.000004768371582
-0.241805762052536 -0.163239598274231 1.000004410743713
-0.241805762052536 -0.151320695877075 1.000004291534424
-0.241805762052536 -0.139484703540802 1.000004291534424
-0.241805762052536 -0.127730250358582 1.000004053115845
-0.241805762052536 -0.116055250167847 1.000004291534424
-0.241805762052536 -0.104458630084991 1.000004172325134
-0.241805762052536 -0.092938482761383 1.000004291534424
-0.241805762052536 -0.081493556499481 1.000004172325134
-0.241805762052536 -0.070122182369232 1.000004053115845
-0.241805762052536 -0.058822929859161 1.000004053115845
-0.241805762052536 -0.047594189643860 1.000004172325134
-0.241805762052536 -0.036434769630432 1.000004291534424
-0.241805762052536 -0.025343179702759 1.000004410743713
-0.241805762052536 -0.014318347908556 1.000004172325134
-0.241805762052536 -0.003358365036547 1.000004410743713
-0.241805762052536 0.007537304423749 1.000003814697266
-0.241805762052536 0.018370926380157 1.000004291534424
-0.241805762052536 0.029143154621124 1.000004529953003
-0.241805762052536 0.039855122566223 1.000004410743713
-0.241805762052536 0.050508201122284 1.000004172325134
-0.241805762052536 0.061103820800781 1.000004291534424
-0.241805762052536 0.071642994880676 1.000004529953003
-0.241805762052536 0.082126617431641 1.000004291534424
-0.241805762052536 0.092556178569794 1.000004172325134
-0.241805762052536 0.102932810783386 1.000004410743713
-0.241805762052536 0.113257348537445 1.000004291534424
-0.241805762052536 0.123531103134155 1.000004291534424
-0.241805762052536 0.133754968643188 1.000004291534424
-0.241805762052536 0.143930256366730 1.000004410743713
-0.241805762052536 0.154057562351227 1.000004172325134
-0.241805762052536 0.164138197898865 1.000003814697266
-0.241805762052536 0.174173355102539 1.000004291534424
-0.241805762052536 0.184163630008698 1.000004172325134
-0.241805762052536 0.194110274314880 1.000004410743713
-0.241805762052536 0.204014003276825 1.000004291534424
-0.241805762052536 0.213876008987427 1.000004529953003
-0.241805762052536 0.223696947097778 1.000004410743713
-0.241805762052536 0.233477890491486 1.000004291534424
-0.241805762052536 0.243219733238220 1.000004291534424
-0.241805762052536 0.252923339605331 1.000004291534424
-0.241805762052536 0.262589454650879 1.000003695487976
-0.241805762052536 0.272219568490982 1.000004529953003
-0.241805762052536 0.281813591718674 1.000004053115845
-0.241805762052536 0.291373103857040 1.000004291534424
-0.241805762052536 0.300898700952530 1.000004649162292
-0.241805762052536 0.310390919446945 1.000004291534424
-0.241805762052536 0.319851070642471 1.000004649162292
-0.241805762052536 0.329279452562332 1.000004172325134
-0.241805762052536 0.338677316904068 1.000004291534424
-0.241805762052536 0.348045229911804 1.000004410743713
-0.241805762052536 0.357383847236633 1.000004053115845
-0.241805762052536 0.366694182157516 1.000004172325134
-0.241805762052536 0.375976949930191 1.000004529953003
-0.241805762052536 0.385232746601105 1.000004410743713
-0.241805762052536 0.394462376832962 1.000004529953003
-0.241805762052536 0.403666555881500 1.000004291534424
-0.241805762052536 0.412846118211746 1.000004410743713
-0.241805762052536 0.422001689672470 1.000004529953003
-0.241805762052536 0.431133896112442 1.000004172325134
-0.241805762052536 0.440243631601334 1.000004053115845
-0.241805762052536 0.449331521987915 1.000004291534424
-0.241805762052536 0.458398252725601 1.000004410743713
-0.241805762052536 0.467444419860840 1.000004053115845
-0.241805762052536 0.476471006870270 1.000005006790161
-0.241805762052536 0.485478162765503 1.000004291534424
-0.241805762052536 0.494466930627823 1.000004053115845
-0.241788789629936 0.499935269355774 0.978692054748535
-0.241743147373199 0.499935299158096 0.921356439590454
-0.241694003343582 0.499935507774353 0.859649062156677
-0.241640970110893 0.499935328960419 0.793041944503784
-0.241583541035652 0.499935239553452 0.720925331115723
-0.241521164774895 0.499935597181320 0.642583608627319
-0.241453140974045 0.499935239553452 0.557158827781677
-0.241378694772720 0.499935626983643 0.463650941848755
-0.241296827793121 0.499935418367386 0.360836029052734
-0.241206377744675 0.499935418367386 0.247251272201538
-0.241105929017067 0.499935686588287 0.121103048324585
-0.241009503602982 0.501903951168060 0.000004532278581
-0.241009503602982 -0.516647458076477 0.000004527577858
-0.241009503602982 -0.501968145370483 0.000004289227036
-0.241106420755386 -0.500063836574554 0.121711492538452
-0.241206839680672 -0.500063776969910 0.247829198837280
-0.241297259926796 -0.500063776969910 0.361385107040405
-0.241379112005234 -0.500064015388489 0.464174032211304
-0.241453543305397 -0.500063657760620 0.557658076286316
-0.241521552205086 -0.500064253807068 0.643063187599182
-0.241583913564682 -0.500064015388489 0.721385478973389
-0.241641312837601 -0.500063776969910 0.793481111526489
-0.241694346070290 -0.500063836574554 0.860070347785950
-0.241743460297585 -0.500064015388489 0.921764373779297
-0.241789102554321 -0.500063896179199 0.979084849357605
-0.241805762052536 -0.494531095027924 1.000004291534424
-0.241805762052536 -0.485542267560959 1.000004410743713
-0.241805762052536 -0.476534932851791 1.000004053115845
-0.241805762052536 -0.467508554458618 1.000004291534424
-0.241805762052536 -0.458462297916412 1.000004172325134
-0.241805762052536 -0.449395626783371 1.000004291534424
-0.241805762052536 -0.440307825803757 1.000004529953003
-0.241805762052536 -0.431198000907898 1.000004172325134
-0.241805762052536 -0.422065794467926 1.000004529953003
-0.241805762052536 -0.412910133600235 1.000004053115845
-0.241805762052536 -0.403730630874634 1.000004172325134
-0.241805762052536 -0.394526511430740 1.000004649162292
-0.241805762052536 -0.385296761989594 1.000004172325134
-0.241805762052536 -0.376041054725647 1.000004410743713
-0.241805762052536 -0.366758316755295 1.000004172325134
-0.241805762052536 -0.357447981834412 1.000004172325134
-0.241805762052536 -0.348109453916550 1.000004887580872
-0.241805762052536 -0.338741391897202 1.000004172325134
-0.241805762052536 -0.329343646764755 1.000004410743713
-0.241805762052536 -0.319915115833282 1.000004410743713
-0.241805762052536 -0.310455024242401 1.000004172325134
-0.241805762052536 -0.300962716341019 1.000004410743713
-0.241805762052536 -0.291437208652496 1.000004291534424
-0.241805762052536 -0.281877815723419 1.000004410743713
-0.241805762052536 -0.272283643484116 1.000004410743713
-0.241805762052536 -0.262653678655624 1.000004053115845
-0.241805762052536 -0.252987414598465 1.000004053115845
-0.241805762052536 -0.243283927440643 1.000004529953003
-0.241805762052536 -0.233541905879974 1.000004172325134
-0.241805762052536 -0.223761022090912 1.000004291534424
-0.241805762052536 -0.213939905166626 1.000004053115845
-0.241805762052536 -0.204078257083893 1.000004768371582
-0.241805762052536 -0.194174468517303 1.000004529953003
-0.241805762052536 -0.184227824211121 1.000004291534424
-0.241805762052536 -0.174237489700317 1.000004291534424
-0.241805762052536 -0.164202392101288 1.000004172325134
-0.241805762052536 -0.154121696949005 1.000004172325134
-0.241805762052536 -0.143994271755219 1.000004291534424
-0.241805762052536 -0.133819103240967 1.000004291534424
-0.241805762052536 -0.123595178127289 1.000004291534424
-0.241805762052536 -0.113321602344513 1.000004649162292
-0.241805762052536 -0.102996893227100 1.000004291534424
-0.241805762052536 -0.092620313167572 1.000004172325134
-0.241805762052536 -0.082190752029419 1.000004172325134
-0.241805762052536 -0.071706950664520 1.000004172325134
-0.241805762052536 -0.061167895793915 1.000004291534424
-0.241805762052536 -0.050572335720062 1.000004172325134
-0.241805762052536 -0.039919197559357 1.000004291534424
-0.241805762052536 -0.029207229614258 1.000004410743713
-0.241805762052536 -0.018435239791870 1.000004649162292
-0.241805762052536 -0.007601560093462 1.000004053115845
-0.241805762052536 0.003294228576124 1.000004410743713
-0.241805762052536 0.014254092238843 1.000004410743713
-0.241805762052536 0.025279164314270 1.000004291534424
-0.241805762052536 0.036370575428009 1.000004410743713
-0.241805762052536 0.047530055046082 1.000004172325134
-0.241805762052536 0.058758556842804 1.000004410743713
-0.241805762052536 0.070057928562164 1.000004291534424
-0.241805762052536 0.081429421901703 1.000004172325134
-0.241805762052536 0.092874407768250 1.000004172325134
-0.241805762052536 0.104394666850567 1.000003814697266
-0.241805762052536 0.115990996360779 1.000004410743713
-0.241805762052536 0.127666056156158 1.000004053115845
-0.241805762052536 0.139420688152313 1.000003933906555
-0.241805762052536 0.151256740093231 1.000003933906555
-0.241805762052536 0.163175404071808 1.000004529953003
-0.241805762052536 0.175179004669189 1.000004768371582
-0.241805762052536 0.187269568443298 1.000004291534424
-0.241805762052536 0.199447870254517 1.000004410743713
-0.241805762052536 0.211716592311859 1.000004053115845
-0.241805762052536 0.224076926708221 1.000004053115845
-0.241805762052536 0.236530959606171 1.000004172325134
-0.241805762052536 0.249080598354340 1.000004291534424
-0.241805762052536 0.261728048324585 1.000004291534424
-0.241805762052536 0.274475097656250 1.000004291534424
-0.241805762052536 0.287323594093323 1.000004768371582
-0.241805762052536 0.300276160240173 1.000004649162292
-0.241805762052536 0.313335180282593 1.000004172325134
-0.241805762052536 0.326501846313477 1.000004172325134
-0.241805762052536 0.339778900146484 1.000004291534424
-0.241805762052536 0.353168725967407 1.000004410743713
-0.241805762052536 0.366673469543457 1.000004529953003
-0.241805762052536 0.380295872688293 1.000004529953003
-0.241805762052536 0.394038319587708 1.000004410743713
-0.241805762052536 0.407903194427490 1.000004410743713
-0.241805762052536 0.421893477439880 1.000003933906555
-0.241805762052536 0.436010837554932 1.000004529953003
-0.241805762052536 0.450259208679199 1.000004410743713
-0.241805762052536 0.464640974998474 1.000004053115845
-0.241805762052536 0.479158520698547 1.000004172325134
-0.241805762052536 0.493814706802368 1.000004887580872
-0.241805762052536 -0.493879437446594 1.000004291534424
-0.241805762052536 -0.479222655296326 1.000004291534424
-0.241805762052536 -0.464704990386963 1.000004291534424
-0.241805762052536 -0.450323462486267 1.000004291534424
-0.241805762052536 -0.436075210571289 1.000004291534424
-0.241805762052536 -0.421957492828369 1.000004291534424
-0.241805762052536 -0.407967329025269 1.000004529953003
-0.241805762052536 -0.394102692604065 1.000004291534424
-0.241805762052536 -0.380360245704651 1.000004291534424
-0.241805762052536 -0.366737604141235 1.000004649162292
-0.241805762052536 -0.353232622146606 1.000004649162292
-0.241805762052536 -0.339842915534973 1.000004410743713
-0.241805762052536 -0.326565980911255 1.000004172325134
-0.241805762052536 -0.313399314880371 1.000004053115845
-0.241805762052536 -0.300340652465820 1.000004410743713
-0.241805762052536 -0.287388205528259 1.000004172325134
-0.241805762052536 -0.274539589881897 1.000003933906555
-0.241805762052536 -0.261791825294495 1.000004887580872
-0.241805762052536 -0.249145090579987 1.000003933906555
-0.241805762052536 -0.236594915390015 1.000004529953003
-0.241805762052536 -0.224140763282776 1.000004529953003
-0.241805762052536 -0.211780667304993 1.000004172325134
-0.241805762052536 -0.199512243270874 1.000004172325134
-0.241805762052536 -0.187333464622498 1.000004649162292
-0.241805762052536 -0.175243198871613 1.000004768371582
-0.241805762052536 -0.163239598274231 1.000004410743713
-0.241805762052536 -0.151320576667786 1.000004410743713
-0.241805762052536 -0.139484822750092 1.000004053115845
-0.241805762052536 -0.127730250358582 1.000004053115845
-0.241805762052536 -0.116055309772491 1.000004172325134
-0.241805762052536 -0.104458451271057 1.000004529953003
-0.241805762052536 -0.092938601970673 1.000004053115845
-0.241805762052536 -0.081493616104126 1.000004172325134
-0.241805762052536 -0.070122241973877 1.000003933906555
-0.241805762052536 -0.058822929859161 1.000004053115845
-0.241805762052536 -0.047594308853149 1.000004053115845
-0.241805762052536 -0.036434769630432 1.000004291534424
-0.241805762052536 -0.025343239307404 1.000004291534424
-0.241805762052536 -0.014318347908556 1.000004172325134
-0.241805762052536 -0.003358365036547 1.000004410743713
-0.241805762052536 0.007537483237684 1.000004172325134
-0.241805762052536 0.018370926380157 1.000004291534424
-0.241805762052536 0.029143154621124 1.000004529953003
-0.241805762052536 0.039855122566223 1.000004410743713
-0.241805762052536 0.050508201122284 1.000004172325134
-0.241805762052536 0.061103820800781 1.000004291534424
-0.241805762052536 0.071642994880676 1.000004529953003
-0.241805762052536 0.082126617431641 1.000004172325134
-0.241805762052536 0.092556238174438 1.000004291534424
-0.241805762052536 0.102932751178741 1.000004291534424
-0.241805762052536 0.113257348537445 1.000004291534424
-0.241805762052536 0.123531043529510 1.000004172325134
-0.241805762052536 0.133754968643188 1.000004291534424
-0.241805762052536 0.143930196762085 1.000004291534424
-0.241805762052536 0.154057562351227 1.000004172325134
-0.241805762052536 0.164138197898865 1.000003814697266
-0.241805762052536 0.174173414707184 1.000004410743713
-0.241805762052536 0.184163689613342 1.000004291534424
-0.241805762052536 0.194110274314880 1.000004291534424
-0.241805762052536 0.204014003276825 1.000004291534424
-0.241805762052536 0.213876008987427 1.000004529953003
-0.241805762052536 0.223696947097778 1.000004410743713
-0.241805762052536 0.233477830886841 1.000004172325134
-0.241805762052536 0.243219673633575 1.000004291534424
-0.241805762052536 0.252923339605331 1.000004291534424
-0.241805762052536 0.262589395046234 1.000003576278687
-0.241805762052536 0.272219479084015 1.000004291534424
-0.241805762052536 0.281813591718674 1.000004053115845
-0.241805762052536 0.291373074054718 1.000004172325134
-0.241805762052536 0.300898581743240 1.000004291534424
-0.241805762052536 0.310390919446945 1.000004291534424
-0.241805762052536 0.319851040840149 1.000004529953003
-0.241805762052536 0.329279452562332 1.000004172325134
-0.241805762052536 0.338677227497101 1.000003933906555
-0.241805762052536 0.348045229911804 1.000004410743713
-0.241805762052536 0.357383877038956 1.000004172325134
-0.241805762052536 0.366694211959839 1.000004291534424
-0.241805762052536 0.375976890325546 1.000004291534424
-0.241805762052536 0.385232716798782 1.000004291534424
-0.241805762052536 0.394462347030640 1.000004291534424
-0.241805762052536 0.403666615486145 1.000004649162292
-0.241805762052536 0.412846058607101 1.000004172325134
-0.241805762052536 0.422001689672470 1.000004529953003
-0.241805762052536 0.431133866310120 1.000003933906555
-0.241805762052536 0.440243631601334 1.000004053115845
-0.241805762052536 0.449331551790237 1.000004410743713
-0.241805762052536 0.458398312330246 1.000004649162292
-0.241805762052536 0.467444449663162 1.000004291534424
-0.241805762052536 0.476471006870270 1.000005006790161
-0.241805762052536 0.485478162765503 1.000004291534424
-0.241805762052536 0.494466930627823 1.000003933906555
-0.241788789629936 0.499935299158096 0.978692293167114
-0.241743147373199 0.499935328960419 0.921356558799744
-0.241694003343582 0.499935448169708 0.859648823738098
-0.241640970110893 0.499935358762741 0.793042063713074
-0.241583541035652 0.499935209751129 0.720925092697144
-0.241521164774895 0.499935597181320 0.642583608627319
-0.241453140974045 0.499935239553452 0.557158827781677
-0.241378694772720 0.499935626983643 0.463650941848755
-0.241296827793121 0.499935388565063 0.360835790634155
-0.241206377744675 0.499935388565063 0.247251033782959
-0.241105929017067 0.499935686588287 0.121103048324585
-0.241009503602982 0.501903951168060 0.000004532278581
-0.241009503602982 -0.516647458076477 0.000004527577858
-0.241009503602982 -0.501968145370483 0.000004289227036
-0.241106420755386 -0.500063836574554 0.121711492538452
-0.241206839680672 -0.500063776969910 0.247829198837280
-0.241297259926796 -0.500063776969910 0.361385345458984
-0.241379112005234 -0.500064015388489 0.464174032211304
-0.241453543305397 -0.500063657760620 0.557658076286316
-0.241521552205086 -0.500064313411713 0.643063306808472
-0.241583913564682 -0.500064074993134 0.721385598182678
-0.241641312837601 -0.500063776969910 0.793481111526489
-0.241694346070290 -0.500063836574554 0.860070347785950
-0.241743460297585 -0.500064015388489 0.921764254570007
-0.241789102554321 -0.500063896179199 0.979084730148315
-0.241805762052536 -0.494531095027924 1.000004291534424
-0.241805762052536 -0.485542207956314 1.000004053115845
-0.241805762052536 -0.476534932851791 1.000004053115845
-0.241805762052536 -0.467508524656296 1.000004172325134
-0.241805762052536 -0.458462357521057 1.000004410743713
-0.241805762052536 -0.449395626783371 1.000004172325134
-0.241805762052536 -0.440307825803757 1.000004649162292
-0.241805762052536 -0.431198000907898 1.000004172325134
-0.241805762052536 -0.422065764665604 1.000004410743713
-0.241805762052536 -0.412910133600235 1.000004053115845
-0.241805762052536 -0.403730720281601 1.000004529953003
-0.241805762052536 -0.394526511430740 1.000004649162292
-0.241805762052536 -0.385296761989594 1.000004172325134
-0.241805762052536 -0.376041024923325 1.000004291534424
-0.241805762052536 -0.366758316755295 1.000004172325134
-0.241805762052536 -0.357447981834412 1.000004172325134
-0.241805762052536 -0.348109453916550 1.000004887580872
-0.241805762052536 -0.338741362094879 1.000004053115845
-0.241805762052536 -0.329343616962433 1.000004291534424
-0.241805762052536 -0.319915115833282 1.000004410743713
-0.241805762052536 -0.310455024242401 1.000004172325134
-0.241805762052536 -0.300962716341019 1.000004410743713
-0.241805762052536 -0.291437208652496 1.000004291534424
-0.241805762052536 -0.281877815723419 1.000004410743713
-0.241805762052536 -0.272283643484116 1.000004410743713
-0.241805762052536 -0.262653797864914 1.000004410743713
-0.241805762052536 -0.252987414598465 1.000004053115845
-0.241805762052536 -0.243283927440643 1.000004529953003
-0.241805762052536 -0.233541965484619 1.000004291534424
-0.241805762052536 -0.223761141300201 1.000004649162292
-0.241805762052536 -0.213940024375916 1.000004291534424
-0.241805762052536 -0.204078257083893 1.000004768371582
-0.241805762052536 -0.194174468517303 1.000004529953003
-0.241805762052536 -0.184227824211121 1.000004291534424
-0.241805762052536 -0.174237489700317 1.000004291534424
-0.241805762052536 -0.164202392101288 1.000004172325134
-0.241805762052536 -0.154121696949005 1.000004172325134
-0.241805762052536 -0.143994390964508 1.000004649162292
-0.241805762052536 -0.133819162845612 1.000004410743713
-0.241805762052536 -0.123595178127289 1.000004291534424
-0.241805762052536 -0.113321602344513 1.000004649162292
-0.241805762052536 -0.102996893227100 1.000004291534424
-0.241805762052536 -0.092620313167572 1.000004291534424
-0.241805762052536 -0.082190811634064 1.000004291534424
-0.241805762052536 -0.071706950664520 1.000004172325134
-0.241805762052536 -0.061167895793915 1.000004291534424
-0.241805762052536 -0.050572335720062 1.000004172325134
-0.241805762052536 -0.039919197559357 1.000004291534424
-0.241805762052536 -0.029207289218903 1.000004529953003
-0.241805762052536 -0.018435120582581 1.000004410743713
-0.241805762052536 -0.007601619698107 1.000004172325134
-0.241805762052536 0.003294228576124 1.000004410743713
-0.241805762052536 0.014254151843488 1.000004291534424
-0.241805762052536 0.025279104709625 1.000004291534424
-0.241805762052536 0.036370575428009 1.000004410743713
-0.241805762052536 0.047530114650726 1.000004172325134
-0.241805762052536 0.058758556842804 1.000004410743713
-0.241805762052536 0.070057988166809 1.000004172325134
-0.241805762052536 0.081429421901703 1.000004172325134
-0.241805762052536 0.092874407768250 1.000004172325134
-0.241805762052536 0.104394607245922 1.000003933906555
-0.241805762052536 0.115990996360779 1.000004410743713
-0.241805762052536 0.127666234970093 1.000003814697266
-0.241805762052536 0.139420866966248 1.000003695487976
-0.241805762052536 0.151256740093231 1.000003933906555
-0.241805762052536 0.163175404071808 1.000004529953003
-0.241805762052536 0.175179183483124 1.000004529953003
-0.241805762052536 0.187269628047943 1.000004172325134
-0.241805762052536 0.199447870254517 1.000004410743713
-0.241805762052536 0.211716532707214 1.000004172325134
-0.241805762052536 0.224076747894287 1.000004291534424
-0.241805762052536 0.236530900001526 1.000004291534424
-0.241805762052536 0.249080419540405 1.000004649162292
-0.241805762052536 0.261728167533875 1.000004172325134
-0.241805762052536 0.274475097656250 1.000004291534424
-0.241805762052536 0.287323474884033 1.000004887580872
-0.241805762052536 0.300276279449463 1.000004649162292
-0.241805762052536 0.313335061073303 1.000004291534424
-0.241805762052536 0.326501846313477 1.000004172325134
-0.241805762052536 0.339778900146484 1.000004291534424
-0.241805762052536 0.353168725967407 1.000004291534424
-0.241805762052536 0.366673469543457 1.000004529953003
-0.241805762052536 0.380295753479004 1.000004649162292
-0.241805762052536 0.394038319587708 1.000004410743713
-0.241805762052536 0.407903194427490 1.000004410743713
-0.241805762052536 0.421893477439880 1.000004053115845
-0.241805762052536 0.436010718345642 1.000004649162292
-0.241805762052536 0.450259208679199 1.000004410743713
-0.241805762052536 0.464641094207764 1.000003933906555
-0.241805762052536 0.479158520698547 1.000004172325134
-0.241805762052536 0.493814945220947 1.000004649162292
-0.241805762052536 -0.493879199028015 1.000004529953003
-0.241805762052536 -0.479222655296326 1.000004291534424
-0.241805762052536 -0.464704990386963 1.000004291534424
-0.241805762052536 -0.450323462486267 1.000004291534424
-0.241805762052536 -0.436075329780579 1.000004172325134
-0.241805762052536 -0.421957492828369 1.000004291534424
-0.241805762052536 -0.407967209815979 1.000004649162292
-0.241805762052536 -0.394102573394775 1.000004410743713
-0.241805762052536 -0.380360484123230 1.000004053115845
-0.241805762052536 -0.366737723350525 1.000004410743713
-0.241805762052536 -0.353232741355896 1.000004649162292
-0.241805762052536 -0.339843153953552 1.000004172325134
-0.241805762052536 -0.326565980911255 1.000004291534424
-0.241805762052536 -0.313399553298950 1.000003933906555
-0.241805762052536 -0.300340652465820 1.000004291534424
-0.241805762052536 -0.287387967109680 1.000004529953003
-0.241805762052536 -0.274539470672607 1.000004053115845
-0.241805762052536 -0.261792063713074 1.000004529953003
-0.241805762052536 -0.249144971370697 1.000004053115845
-0.241805762052536 -0.236594915390015 1.000004529953003
-0.241805762052536 -0.224140703678131 1.000004649162292
-0.241805762052536 -0.211780726909637 1.000004053115845
-0.241805762052536 -0.199512541294098 1.000003576278687
-0.241805762052536 -0.187333524227142 1.000004529953003
-0.241805762052536 -0.175243198871613 1.000004768371582
-0.241805762052536 -0.163239598274231 1.000004410743713
-0.241805762052536 -0.151320695877075 1.000004291534424
-0.241805762052536 -0.139484763145447 1.000004172325134
-0.241805762052536 -0.127730131149292 1.000004172325134
-0.241805762052536 -0.116055250167847 1.000004291534424
-0.241805762052536 -0.104458630084991 1.000004172325134
-0.241805762052536 -0.092938601970673 1.000004053115845
-0.241805762052536 -0.081493437290192 1.000004410743713
-0.241805762052536 -0.070122241973877 1.000003933906555
-0.241805762052536 -0.058822751045227 1.000004410743713
-0.241805762052536 -0.047594308853149 1.000004053115845
-0.241805762052536 -0.036434710025787 1.000004410743713
-0.241805762052536 -0.025343239307404 1.000004291534424
-0.241805762052536 -0.014318347908556 1.000004172325134
-0.241805762052536 -0.003358484245837 1.000004172325134
-0.241805762052536 0.007537483237684 1.000004172325134
-0.241805762052536 0.018370926380157 1.000004291534424
-0.241805762052536 0.029143035411835 1.000004291534424
-0.241805762052536 0.039855003356934 1.000004172325134
-0.241805762052536 0.050508260726929 1.000004291534424
-0.241805762052536 0.061103940010071 1.000004529953003
-0.241805762052536 0.071642935276031 1.000004410743713
-0.241805762052536 0.082126617431641 1.000004291534424
-0.241805762052536 0.092556118965149 1.000004053115845
-0.241805762052536 0.102932751178741 1.000004291534424
-0.241805762052536 0.113257288932800 1.000004172325134
-0.241805762052536 0.123531043529510 1.000004172325134
-0.241805762052536 0.133754968643188 1.000004291534424
-0.241805762052536 0.143930137157440 1.000004291534424
-0.241805762052536 0.154057681560516 1.000004529953003
-0.241805762052536 0.164138197898865 1.000003933906555
-0.241805762052536 0.174173414707184 1.000004410743713
-0.241805762052536 0.184163630008698 1.000004172325134
-0.241805762052536 0.194110333919525 1.000004529953003
-0.241805762052536 0.204014003276825 1.000004291534424
-0.241805762052536 0.213875889778137 1.000004172325134
-0.241805762052536 0.223696887493134 1.000004291534424
-0.241805762052536 0.233477830886841 1.000004172325134
-0.241805762052536 0.243219673633575 1.000004291534424
-0.241805762052536 0.252923339605331 1.000004291534424
-0.241805762052536 0.262589395046234 1.000003576278687
-0.241805762052536 0.272219568490982 1.000004529953003
-0.241805762052536 0.281813621520996 1.000004172325134
-0.241805762052536 0.291373074054718 1.000004172325134
-0.241805762052536 0.300898700952530 1.000004649162292
-0.241805762052536 0.310390919446945 1.000004291534424
-0.241805762052536 0.319851040840149 1.000004529953003
-0.241805762052536 0.329279452562332 1.000004172325134
-0.241805762052536 0.338677316904068 1.000004291534424
-0.241805762052536 0.348045229911804 1.000004410743713
-0.241805762052536 0.357383877038956 1.000004172325134
-0.241805762052536 0.366694211959839 1.000004291534424
-0.241805762052536 0.375976920127869 1.000004410743713
-0.241805762052536 0.385232746601105 1.000004410743713
-0.241805762052536 0.394462376832962 1.000004529953003
-0.241805762052536 0.403666615486145 1.000004649162292
-0.241805762052536 0.412846058607101 1.000004172325134
-0.241805762052536 0.422001630067825 1.000004291534424
-0.241805762052536 0.431133896112442 1.000004172325134
-0.241805762052536 0.440243661403656 1.000004172325134
-0.241805762052536 0.449331551790237 1.000004410743713
-0.241805762052536 0.458398312330246 1.000004649162292
-0.241805762052536 0.467444449663162 1.000004172325134
-0.241805762052536 0.476471006870270 1.000005006790161
-0.241805762052536 0.485478132963181 1.000004053115845
-0.241805762052536 0.494466930627823 1.000004053115845
-0.241788789629936 0.499935328960419 0.978692293167114
-0.241743147373199 0.499935328960419 0.921356558799744
-0.241694003343582 0.499935507774353 0.859649062156677
-0.241640970110893 0.499935358762741 0.793042063713074
-0.241583541035652 0.499935209751129 0.720925092697144
-0.241521164774895 0.499935567378998 0.642583489418030
-0.241453140974045 0.499935239553452 0.557158827781677
-0.241378694772720 0.499935626983643 0.463650941848755
-0.241296827793121 0.499935358762741 0.360835552215576
-0.241206377744675 0.499935388565063 0.247251033782959
-0.241105929017067 0.499935686588287 0.121103048324585
-0.241009503602982 0.501903951168060 0.000004532278581
-0.241009503602982 -0.516647458076477 0.000004527577858
-0.241009503602982 -0.501968145370483 0.000004289227036
-0.241106420755386 -0.500063776969910 0.121711246669292
-0.241206839680672 -0.500063717365265 0.247828960418701
-0.241297259926796 -0.500063776969910 0.361385345458984
-0.241379112005234 -0.500064015388489 0.464174270629883
-0.241453543305397 -0.500063657760620 0.557658076286316
-0.241521552205086 -0.500064313411713 0.643063306808472
-0.241583913564682 -0.500064015388489 0.721385478973389
-0.241641312837601 -0.500063836574554 0.793481349945068
-0.241694346070290 -0.500063896179199 0.860070705413818
-0.241743460297585 -0.500063896179199 0.921763777732849
-0.241789102554321 -0.500063896179199 0.979084849357605
-0.241805762052536 -0.494531065225601 1.000004172325134
-0.241805762052536 -0.485542267560959 1.000004291534424
-0.241805762052536 -0.476534962654114 1.000004291534424
-0.241805762052536 -0.467508584260941 1.000004529953003
-0.241805762052536 -0.458462327718735 1.000004291534424
-0.241805762052536 -0.449395567178726 1.000003933906555
-0.241805762052536 -0.440307736396790 1.000004172325134
-0.241805762052536 -0.431198030710220 1.000004291534424
-0.241805762052536 -0.422065824270248 1.000004649162292
-0.241805762052536 -0.412910133600235 1.000004053115845
-0.241805762052536 -0.403730720281601 1.000004529953003
-0.241805762052536 -0.394526511430740 1.000004649162292
-0.241805762052536 -0.385296761989594 1.000004172325134
-0.241805762052536 -0.376041084527969 1.000004529953003
-0.241805762052536 -0.366758316755295 1.000004172325134
-0.241805762052536 -0.357447952032089 1.000004053115845
-0.241805762052536 -0.348109453916550 1.000004887580872
-0.241805762052536 -0.338741391897202 1.000004172325134
-0.241805762052536 -0.329343616962433 1.000004291534424
-0.241805762052536 -0.319915115833282 1.000004410743713
-0.241805762052536 -0.310455083847046 1.000004410743713
-0.241805762052536 -0.300962686538696 1.000004291534424
-0.241805762052536 -0.291437298059464 1.000004529953003
-0.241805762052536 -0.281877875328064 1.000004529953003
-0.241805762052536 -0.272283762693405 1.000004768371582
-0.241805762052536 -0.262653797864914 1.000004410743713
-0.241805762052536 -0.252987444400787 1.000004172325134
-0.241805762052536 -0.243283808231354 1.000004291534424
-0.241805762052536 -0.233541905879974 1.000004172325134
-0.241805762052536 -0.223761141300201 1.000004649162292
-0.241805762052536 -0.213939964771271 1.000004172325134
-0.241805762052536 -0.204078257083893 1.000004768371582
-0.241805762052536 -0.194174468517303 1.000004529953003
-0.241805762052536 -0.184227943420410 1.000004649162292
-0.241805762052536 -0.174237549304962 1.000004410743713
-0.241805762052536 -0.164202511310577 1.000004291534424
-0.241805762052536 -0.154121637344360 1.000004053115845
-0.241805762052536 -0.143994331359863 1.000004410743713
-0.241805762052536 -0.133819162845612 1.000004410743713
-0.241805762052536 -0.123595118522644 1.000004172325134
-0.241805762052536 -0.113321602344513 1.000004649162292
-0.241805762052536 -0.102996952831745 1.000004291534424
-0.241805762052536 -0.092620313167572 1.000004291534424
-0.241805762052536 -0.082190811634064 1.000004291534424
-0.241805762052536 -0.071706950664520 1.000004172325134
-0.241805762052536 -0.061167836189270 1.000004172325134
-0.241805762052536 -0.050572335720062 1.000004172325134
-0.241805762052536 -0.039919137954712 1.000004172325134
-0.241805762052536 -0.029207229614258 1.000004410743713
-0.241805762052536 -0.018435239791870 1.000004649162292
-0.241805762052536 -0.007601619698107 1.000004172325134
-0.241805762052536 0.003294228576124 1.000004410743713
-0.241805762052536 0.014254151843488 1.000004291534424
-0.241805762052536 0.025279104709625 1.000004291534424
-0.241805762052536 0.036370575428009 1.000004410743713
-0.241805762052536 0.047529935836792 1.000004410743713
-0.241805762052536 0.058758556842804 1.000004410743713
-0.241805762052536 0.070057988166809 1.000004172325134
-0.241805762052536 0.081429421901703 1.000004172325134
-0.241805762052536 0.092874526977539 1.000003933906555
-0.241805762052536 0.104394607245922 1.000003933906555
-0.241805762052536 0.115990877151489 1.000004649162292
-0.241805762052536 0.127665996551514 1.000004172325134
-0.241805762052536 0.139420688152313 1.000003933906555
-0.241805762052536 0.151256799697876 1.000003814697266
-0.241805762052536 0.163175523281097 1.000004291534424
-0.241805762052536 0.175179004669189 1.000004768371582
-0.241805762052536 0.187269628047943 1.000004172325134
-0.241805762052536 0.199447870254517 1.000004410743713
-0.241805762052536 0.211716532707214 1.000004172325134
-0.241805762052536 0.224076747894287 1.000004291534424
-0.241805762052536 0.236530780792236 1.000004410743713
-0.241805762052536 0.249080538749695 1.000004410743713
-0.241805762052536 0.261728167533875 1.000004172325134
-0.241805762052536 0.274475097656250 1.000004410743713
-0.241805762052536 0.287323474884033 1.000004887580872
-0.241805762052536 0.300276279449463 1.000004649162292
