# This PCD file was generated using the MATLAB® pcwrite function
# from Computer Vision System Toolbox®.
# .PCD v.7 - Point Cloud Data file format
VERSION .7
FIELDS x y z
SIZE 4 4 4
TYPE F F F
COUNT 1 1 1
WIDTH 774
HEIGHT 1
VIEWPOINT 0 0 0 1 0 0 0
POINTS 774
DATA ascii
1.410218 1.622270 -0.045026
1.410493 1.622586 -0.015010
1.411071 1.594926 -0.044607
1.451102 1.640173 -0.015289
1.411556 1.567692 -0.044189
1.418522 1.575429 -0.014800
1.411674 1.540572 -0.043770
1.452484 1.585108 -0.015010
1.411427 1.513570 -0.043351
1.370783 1.469985 -0.014032
1.390171 1.464935 -0.042304
1.438626 1.515996 -0.014591
1.437627 1.488707 -0.043351
1.444854 1.496190 -0.014521
1.359466 1.383402 -0.040628
1.429820 1.454996 -0.014242
1.357347 1.357347 -0.040209
1.442463 1.442463 -0.014242
1.354879 1.331436 -0.039791
1.426466 1.401784 -0.013963
1.294528 1.250111 -0.037696
1.352326 1.305926 -0.013125
1.392413 1.321351 -0.040209
1.414446 1.342259 -0.013613
1.316148 1.227328 -0.037696
1.374911 1.282126 -0.013125
1.371035 1.256322 -0.038953
1.422911 1.303857 -0.013474
1.277929 1.150652 -0.036021
1.337628 1.204406 -0.012566
1.392752 1.232203 -0.038953
1.437960 1.272200 -0.013404
1.380816 1.200325 -0.038325
1.418819 1.233361 -0.013125
1.353226 1.155764 -0.037278
1.421924 1.214438 -0.013055
1.370919 1.150337 -0.037487
1.409487 1.182700 -0.012846
1.311474 1.081096 -0.035602
1.442903 1.189437 -0.013055
1.336398 1.082194 -0.036021
1.429914 1.157921 -0.012846
1.353615 1.076714 -0.036230
1.432138 1.139174 -0.012776
1.355081 1.058705 -0.036021
1.418385 1.108164 -0.012566
1.380132 1.059013 -0.036440
1.451801 1.114006 -0.012776
1.293506 0.974726 -0.033927
1.373620 1.035097 -0.012008
1.350183 0.999083 -0.035183
1.438869 1.064707 -0.012496
1.358850 0.987263 -0.035183
1.423835 1.034477 -0.012287
1.383693 0.986979 -0.035602
1.432808 1.022012 -0.012287
1.359494 0.951928 -0.034764
1.441672 1.009470 -0.012287
1.437847 0.997470 0.012217
1.453996 1.008673 0.037068
1.359510 0.934365 -0.034555
1.442186 0.991187 -0.012217
1.413158 0.962185 0.035812
1.326169 0.894512 -0.033508
1.425910 0.961788 -0.012008
1.421778 0.950002 0.011938
1.438127 0.960926 0.036230
1.342262 0.888424 -0.033717
1.459265 0.965866 -0.012217
1.396292 0.915449 0.034974
1.341579 0.871231 -0.033508
1.442478 0.936756 -0.012008
1.370860 0.881767 0.011379
1.362184 0.876186 0.033927
1.382859 0.880978 -0.034346
1.450598 0.924133 -0.012008
1.386960 0.875106 0.011449
1.420511 0.896276 0.035183
1.382015 0.863579 -0.034136
1.424686 0.890243 -0.011729
1.360530 0.841922 0.011170
1.377268 0.852280 0.033927
1.398023 0.856710 -0.034346
1.466505 0.898676 -0.012008
1.436217 0.871518 0.011729
1.410295 0.855788 0.034555
1.371167 0.823880 -0.033508
1.440006 0.865243 -0.011729
1.375017 0.818049 0.011170
1.391933 0.828113 0.033927
1.412762 0.832180 -0.034346
1.481966 0.872945 -0.012008
1.416656 0.826169 0.011449
1.416380 0.826008 0.034346
1.376678 0.794826 -0.033298
1.411587 0.814980 -0.011379
1.389084 0.793927 0.011170
1.449574 0.828500 0.034974
1.331352 0.753243 -0.032042
1.453459 0.822327 -0.011659
1.395960 0.781775 0.011170
1.395687 0.781623 0.033508
1.364107 0.756137 -0.032670
1.434341 0.795068 -0.011449
1.402729 0.769563 0.011170
1.428751 0.783840 0.034136
1.335509 0.725122 -0.031832
1.406073 0.763435 -0.011170
1.409391 0.757293 0.011170
1.417923 0.761878 0.033717
1.341786 0.713440 -0.031832
1.439170 0.765220 -0.011379
1.389397 0.730997 0.010961
1.442214 0.758785 0.034136
1.347961 0.701704 -0.031832
1.419183 0.738780 -0.011170
1.422393 0.732580 0.011170
1.386563 0.714127 0.032670
1.354033 0.689914 -0.031832
1.425576 0.726367 -0.011170
1.401943 0.706637 0.010961
1.455236 0.733500 0.034136
1.377897 0.686994 -0.032251
1.431860 0.713899 -0.011170
1.363213 0.672262 0.010612
1.398815 0.689819 0.032670
1.392825 0.679326 -0.032461
1.438035 0.701377 -0.011170
1.405055 0.677718 0.010891
1.467816 0.707990 0.034136
1.353581 0.645625 -0.031414
1.435076 0.684496 -0.011100
1.410916 0.665431 0.010891
1.419683 0.669566 0.032880
1.341041 0.625338 -0.030995
1.440994 0.671947 -0.011100
1.389425 0.640534 0.010681
1.389154 0.640409 0.032042
1.346447 0.613611 -0.030995
1.419505 0.646906 -0.010891
1.385845 0.624277 0.010612
1.394690 0.628262 0.032042
1.342617 0.597772 -0.030785
1.415961 0.630426 -0.010821
1.400392 0.616187 0.010681
1.372666 0.603988 0.031414
1.338614 0.582046 -0.030576
1.393897 0.606084 -0.010612
1.396529 0.599996 0.010612
1.405442 0.603826 0.032042
1.352845 0.574249 -0.030785
1.426748 0.605618 -0.010821
1.410933 0.591653 0.010681
1.419878 0.595404 0.032251
1.385515 0.573899 -0.031414
1.478171 0.612279 -0.011170
1.406787 0.575532 0.010612
1.415766 0.579205 0.032042
1.371931 0.554296 -0.030995
1.437100 0.580626 -0.010821
1.421044 0.566939 0.010681
1.420767 0.566829 0.032042
1.358112 0.534974 -0.030576
1.414200 0.557068 -0.010612
1.416617 0.550892 0.010612
1.425659 0.554409 0.032042
1.325393 0.508771 -0.029738
1.409672 0.541122 -0.010542
1.383966 0.524338 0.010332
1.402395 0.531320 0.031414
1.367242 0.511191 -0.030576
1.423707 0.532302 -0.010612
1.426016 0.526085 0.010612
1.435118 0.529443 0.032042
1.305886 0.475304 -0.029110
1.381315 0.502757 -0.010262
1.364672 0.489967 0.010123
1.373816 0.493250 0.030576
1.300560 0.460552 -0.028901
1.385649 0.490684 -0.010262
1.397218 0.487930 0.010332
1.406384 0.491131 0.031204
1.342342 0.462205 -0.029738
1.389878 0.478574 -0.010262
1.448768 0.491790 0.010681
1.448485 0.491695 0.032042
1.308400 0.437784 -0.028901
1.365553 0.456908 -0.010053
1.405520 0.463471 0.010332
1.414741 0.466512 0.031204
1.388238 0.451066 -0.030576
1.407529 0.457334 -0.010332
1.419035 0.454237 0.010402
1.456846 0.466340 0.032042
1.334911 0.420896 -0.029319
1.373319 0.433006 -0.010053
1.375195 0.427009 0.010053
1.413120 0.438785 0.030995
1.357655 0.415077 -0.029738
1.415297 0.432700 -0.010332
1.426747 0.429402 0.010402
1.464763 0.440844 0.032042
1.418742 0.420251 -0.030995
1.476546 0.437373 -0.010751
1.420839 0.414137 0.010332
1.430161 0.416854 0.031204
1.403134 0.402342 -0.030576
1.422633 0.407933 -0.010332
1.424399 0.401722 0.010332
1.414499 0.398930 0.030785
1.358421 0.376723 -0.029529
1.426138 0.395503 -0.010332
1.389260 0.378756 0.010053
1.388989 0.378682 0.030157
1.371314 0.367442 -0.029738
1.419876 0.380455 -0.010262
1.440863 0.379348 0.010402
1.421246 0.374183 0.030785
1.374468 0.355462 -0.029738
1.471549 0.380568 -0.010612
1.395658 0.354452 0.010053
1.405077 0.356844 0.030367
1.377518 0.343454 -0.029738
1.436003 0.358036 -0.010332
1.408412 0.344636 0.010123
1.446982 0.354074 0.031204
1.361019 0.326752 -0.029319
1.439072 0.345491 -0.010332
1.440566 0.339208 0.010332
1.450017 0.341434 0.031204
1.285886 0.296870 -0.027644
1.393315 0.321672 -0.009983
1.414212 0.320003 0.010123
1.452941 0.328767 0.031204
1.337232 0.296457 -0.028691
1.444883 0.320323 -0.010332
1.446267 0.314015 0.010332
1.455755 0.316075 0.031204
1.290872 0.274383 -0.027644
1.408498 0.299386 -0.010053
1.419581 0.295273 0.010123
1.429093 0.297252 0.030576
1.312811 0.267094 -0.028063
1.450253 0.295057 -0.010332
1.412296 0.280923 0.010053
1.421827 0.282819 0.030367
1.295464 0.251813 -0.027644
1.413509 0.274758 -0.010053
1.385221 0.262992 0.009844
1.434063 0.272265 0.030576
1.317273 0.244142 -0.028063
1.445349 0.267880 -0.010262
1.416984 0.256232 0.010053
1.426546 0.257962 0.030367
1.270123 0.223957 -0.027016
1.378697 0.243102 -0.009774
1.389600 0.238777 0.009844
1.438596 0.247196 0.030576
1.311472 0.219465 -0.027853
1.410354 0.236012 -0.009983
1.421240 0.231464 0.010053
1.430831 0.233026 0.030367
1.333087 0.211140 -0.028272
1.382730 0.219003 -0.009774
1.393556 0.214489 0.009844
1.442691 0.222051 0.030576
1.384319 0.206888 -0.029319
1.453818 0.217275 -0.010262
1.425063 0.206624 0.010053
1.424785 0.206584 0.030157
1.376171 0.193408 -0.029110
1.416049 0.199013 -0.009983
1.436720 0.195529 0.010123
1.446347 0.196839 0.030576
1.387718 0.182697 -0.029319
1.447474 0.190564 -0.010193
1.388773 0.176674 0.009774
1.438092 0.182948 0.030367
1.409106 0.173017 -0.029738
1.419306 0.174269 -0.009983
1.439914 0.170425 0.010123
1.459490 0.172742 0.030785
1.350961 0.153923 -0.028482
1.430709 0.163009 -0.010053
1.431406 0.156764 0.010053
1.401312 0.153469 0.029529
1.382082 0.145263 -0.029110
1.422132 0.149472 -0.009983
1.442669 0.145269 0.010123
1.452335 0.146242 0.030576
1.373345 0.132238 -0.028901
1.433336 0.138015 -0.010053
1.433924 0.131759 0.010053
1.363954 0.125330 0.028691
1.354528 0.118506 -0.028482
1.424524 0.124630 -0.009983
1.405123 0.116757 0.009844
1.414813 0.117562 0.029738
1.335576 0.105112 -0.028063
1.465433 0.115332 -0.010262
1.396116 0.103749 0.009774
1.405814 0.104470 0.029529
1.316496 0.092058 -0.027644
1.396556 0.097657 -0.009774
1.406947 0.092216 0.009844
1.456555 0.095468 0.030576
1.337207 0.081787 -0.028063
1.397355 0.085466 -0.009774
1.397714 0.079368 0.009774
1.407423 0.079919 0.029529
1.317902 0.069068 -0.027644
1.398047 0.073269 -0.009774
1.408342 0.067648 0.009844
1.457999 0.070033 0.030576
1.378384 0.060182 -0.028901
1.458575 0.063683 -0.010193
1.438855 0.056533 0.010053
1.408604 0.055344 0.029529
1.388849 0.048500 -0.029110
1.429094 0.049905 -0.009983
1.409308 0.043058 0.009844
1.458999 0.044576 0.030576
1.399213 0.036640 -0.029319
1.439471 0.037694 -0.010053
1.439622 0.031413 0.010053
1.419351 0.030970 0.029738
1.389483 0.024254 -0.029110
1.429747 0.024956 -0.009983
1.409845 0.018456 0.009844
1.449558 0.018976 0.030367
1.379645 0.012040 -0.028901
1.439910 0.012566 -0.010053
1.399953 0.006108 0.009774
1.369686 0.005976 0.028691
1.359702 0.000000 -0.028482
1.429965 0.000000 -0.009983
1.449951 -0.006327 0.010123
1.449668 -0.006325 0.030367
1.339655 -0.011691 -0.028063
1.399913 -0.012217 -0.009774
1.439842 -0.018849 0.010053
1.419567 -0.018583 0.029738
1.359495 -0.023730 -0.028482
1.429747 -0.024956 -0.009983
1.409630 -0.030758 0.009844
1.419351 -0.030970 0.029738
1.319258 -0.034546 -0.027644
1.399486 -0.036647 -0.009774
1.439293 -0.043974 0.010053
1.409033 -0.043050 0.029529
1.348882 -0.047104 -0.028272
1.399113 -0.048858 -0.009774
1.408879 -0.055355 0.009844
1.418594 -0.055737 0.029738
1.318454 -0.057565 -0.027644
1.388643 -0.060629 -0.009704
1.398354 -0.067168 0.009774
1.408067 -0.067634 0.029529
1.347854 -0.070638 -0.028272
1.428005 -0.074839 -0.009983
1.447633 -0.082203 0.010123
1.457332 -0.082753 0.030576
1.317249 -0.080566 -0.027644
1.387374 -0.084855 -0.009704
1.436882 -0.094178 0.010053
1.406672 -0.092198 0.029529
1.306522 -0.091361 -0.027435
1.386580 -0.096959 -0.009704
1.445978 -0.107455 0.010123
1.455666 -0.108175 0.030576
1.335576 -0.105112 -0.028063
1.435526 -0.112978 -0.010053
1.435019 -0.119241 0.010053
1.404849 -0.116734 0.029529
1.384407 -0.121120 -0.029110
1.464370 -0.128116 -0.010262
1.443882 -0.132674 0.010123
1.453556 -0.133563 0.030576
1.373345 -0.132238 -0.028901
1.433336 -0.138015 -0.010053
1.432720 -0.144267 0.010053
1.402598 -0.141234 0.029529
1.372139 -0.144218 -0.028901
1.422132 -0.149472 -0.009983
1.441347 -0.157853 0.010123
1.451004 -0.158911 0.030576
1.410563 -0.160713 -0.029738
1.500257 -0.170933 -0.010542
1.429984 -0.169250 0.010053
1.429705 -0.169217 0.030157
1.339643 -0.164488 -0.028272
1.419306 -0.174269 -0.009983
1.398693 -0.177936 0.009844
1.418256 -0.180425 0.029948
1.318332 -0.173562 -0.027853
1.417732 -0.186648 -0.009983
1.426812 -0.194181 0.010053
1.426534 -0.194143 0.030157
1.306867 -0.183668 -0.027644
1.386341 -0.194838 -0.009774
1.395374 -0.202320 0.009844
1.444574 -0.209453 0.030576
1.364543 -0.203932 -0.028901
1.453818 -0.217275 -0.010262
1.423206 -0.219052 0.010053
1.422928 -0.219010 0.030157
1.293588 -0.204884 -0.027435
1.372853 -0.217439 -0.009704
1.391631 -0.226641 0.009844
1.411095 -0.229811 0.029948
1.380497 -0.231016 -0.029319
1.439942 -0.240964 -0.010193
1.419166 -0.243857 0.010053
1.468156 -0.252275 0.031204
1.368583 -0.241318 -0.029110
1.447632 -0.255257 -0.010262
1.426824 -0.258012 0.010123
1.436384 -0.259741 0.030576
1.395916 -0.258718 -0.029738
1.484679 -0.275169 -0.010542
1.414694 -0.268588 0.010053
1.424241 -0.270401 0.030367
1.285650 -0.249905 -0.027435
1.364429 -0.265218 -0.009704
1.422104 -0.282874 0.010123
1.431633 -0.284769 0.030576
1.352000 -0.275067 -0.028901
1.411057 -0.287083 -0.010053
1.409791 -0.293237 0.010053
1.419305 -0.295216 0.030367
1.388665 -0.295170 -0.029738
1.437842 -0.305623 -0.010262
1.416951 -0.307650 0.010123
1.426445 -0.309711 0.030576
1.386036 -0.307277 -0.029738
1.444883 -0.320323 -0.010332
1.443471 -0.326624 0.010332
1.452941 -0.328767 0.031204
1.383302 -0.319360 -0.029738
1.432289 -0.330670 -0.010262
1.411366 -0.332332 0.010123
1.420822 -0.334559 0.030576
1.380462 -0.331420 -0.029738
1.477966 -0.354828 -0.010612
1.398698 -0.342259 0.010053
1.446982 -0.354074 0.031204
1.377518 -0.343454 -0.029738
1.397192 -0.348359 -0.010053
1.405351 -0.356914 0.010123
1.414767 -0.359305 0.030576
1.355109 -0.350455 -0.029319
1.471549 -0.380568 -0.010612
1.392512 -0.366618 0.010053
1.401909 -0.369092 0.030367
1.313371 -0.351917 -0.028482
1.419876 -0.380455 -0.010262
1.398908 -0.381386 0.010123
1.408281 -0.383941 0.030576
1.406592 -0.390082 -0.030576
1.464683 -0.406192 -0.010612
1.385902 -0.390865 0.010053
1.433744 -0.404358 0.031204
1.364692 -0.391319 -0.029738
1.422633 -0.407933 -0.010332
1.392038 -0.405742 0.010123
1.401365 -0.408461 0.030576
1.399570 -0.414571 -0.030576
1.457371 -0.431693 -0.010612
1.417171 -0.426520 0.010332
1.426468 -0.429318 0.031204
1.357655 -0.415077 -0.029738
1.415297 -0.432700 -0.010332
1.422945 -0.441836 0.010402
1.460860 -0.453609 0.032042
1.411191 -0.444947 -0.030995
1.449614 -0.457062 -0.010612
1.409511 -0.451188 0.010332
1.418759 -0.454148 0.031204
1.350204 -0.438708 -0.029738
1.407529 -0.457334 -0.010332
1.377030 -0.454076 0.010123
1.452721 -0.479036 0.032042
1.384249 -0.463163 -0.030576
1.441417 -0.482291 -0.010612
1.401422 -0.475719 0.010332
1.410616 -0.478840 0.031204
1.342342 -0.462205 -0.029738
1.437153 -0.494852 -0.010612
1.416099 -0.494524 0.010472
1.444139 -0.504316 0.032042
1.394803 -0.493926 -0.030995
1.470485 -0.520726 -0.010891
1.430553 -0.513621 0.010612
1.439683 -0.516899 0.032042
1.334071 -0.485562 -0.029738
1.428298 -0.519858 -0.010612
1.435398 -0.529546 0.010681
1.435118 -0.529443 0.032042
1.385971 -0.518193 -0.030995
1.423707 -0.532302 -0.010612
1.421371 -0.538509 0.010612
1.430443 -0.541946 0.032042
1.362728 -0.523102 -0.030576
1.419008 -0.544706 -0.010612
1.425937 -0.554517 0.010681
1.425659 -0.554409 0.032042
1.376716 -0.542303 -0.030995
1.451416 -0.571728 -0.010891
1.448908 -0.578056 0.010891
1.457911 -0.581648 0.032880
1.371931 -0.554296 -0.030995
1.437100 -0.580626 -0.010821
1.416042 -0.579318 0.010681
1.415766 -0.579205 0.032042
1.330095 -0.550943 -0.030157
1.404263 -0.581665 -0.010612
1.438599 -0.603254 0.010891
1.410658 -0.591538 0.032042
1.316033 -0.558623 -0.029948
1.389928 -0.589990 -0.010542
1.405716 -0.603943 0.010681
1.405442 -0.603826 0.032042
1.393626 -0.605966 -0.031832
1.458090 -0.633996 -0.011100
1.391240 -0.612160 0.010612
1.400119 -0.616067 0.032042
1.415685 -0.630304 -0.032461
1.489043 -0.662965 -0.011379
1.394962 -0.628385 0.010681
1.394690 -0.628262 0.032042
1.346447 -0.613611 -0.030995
1.383107 -0.630318 -0.010612
1.416669 -0.653093 0.010891
1.425472 -0.657152 0.032880
1.395408 -0.650689 -0.032251
1.440994 -0.671947 -0.011100
1.419960 -0.669697 0.010961
1.428726 -0.673831 0.033089
1.335533 -0.637017 -0.030995
1.389947 -0.662971 -0.010751
1.369028 -0.660341 0.010612
1.413786 -0.681929 0.032880
1.365867 -0.666178 -0.031832
1.438035 -0.701377 -0.011170
1.399087 -0.689954 0.010891
1.461582 -0.720772 0.034136
1.306318 -0.651306 -0.030576
1.396064 -0.696052 -0.010891
1.393013 -0.702136 0.010891
1.401670 -0.706500 0.032880
1.354033 -0.689914 -0.031832
1.425576 -0.726367 -0.011170
1.395723 -0.718845 0.010961
1.431004 -0.737015 0.033717
1.383433 -0.720170 -0.032670
1.481272 -0.771101 -0.011659
1.380547 -0.726341 0.010891
1.389126 -0.730854 0.032880
1.350614 -0.718134 -0.032042
1.447999 -0.769915 -0.011449
1.382965 -0.743094 0.010961
1.461958 -0.785538 0.034764
1.379440 -0.748975 -0.032880
1.476377 -0.801607 -0.011729
1.437797 -0.788802 0.011449
1.446282 -0.793457 0.034555
1.381596 -0.765831 -0.033089
1.425595 -0.790220 -0.011379
1.439583 -0.806205 0.011519
1.448026 -0.810933 0.034764
1.366159 -0.772935 -0.032880
1.488272 -0.842024 -0.011938
1.423811 -0.813775 0.011449
1.432214 -0.818578 0.034555
1.324728 -0.764832 -0.032042
1.420247 -0.819980 -0.011449
1.425294 -0.831207 0.011519
1.433652 -0.836081 0.034764
1.386919 -0.816958 -0.033717
1.481966 -0.872945 -0.012008
1.443768 -0.858951 0.011729
1.452078 -0.863896 0.035393
1.336888 -0.803283 -0.032670
1.440006 -0.865243 -0.011729
1.410570 -0.855955 0.011519
1.453031 -0.881721 0.035602
1.398023 -0.856710 -0.034346
1.492084 -0.914350 -0.012217
1.428557 -0.884018 0.011729
1.402773 -0.868063 0.034555
1.407451 -0.879473 -0.034764
1.450127 -0.906140 -0.011938
1.429245 -0.901787 0.011798
1.437422 -0.906946 0.035602
1.399723 -0.891722 -0.034764
1.484333 -0.945624 -0.012287
1.412911 -0.908815 0.011729
1.421044 -0.914046 0.035393
1.408658 -0.914793 -0.035183
1.442478 -0.936756 -0.012008
1.413289 -0.926593 0.011798
1.421375 -0.931894 0.035602
1.417295 -0.938087 -0.035602
1.459265 -0.965866 -0.012217
1.396835 -0.933335 0.011729
1.471378 -0.983144 0.037068
1.326169 -0.894512 -0.033508
1.359589 -0.917054 -0.011449
1.438231 -0.979257 0.012147
1.462743 -0.995946 0.037068
1.359510 -0.934365 -0.034555
1.417462 -0.974195 -0.012008
1.413198 -0.980371 0.012008
1.453996 -1.008673 0.037068
1.400443 -0.980601 -0.035812
1.441672 -1.009470 -0.012287
1.445420 -1.021522 0.012357
1.445139 -1.021323 0.037068
1.342996 -0.957950 -0.034555
1.457231 -1.039433 -0.012496
1.395873 -1.004885 0.012008
1.436171 -1.033895 0.037068
1.415469 -1.028399 -0.036649
1.480465 -1.075621 -0.012776
1.427372 -1.046593 0.012357
1.427094 -1.046389 0.037068
1.382331 -1.022871 -0.036021
1.438869 -1.064707 -0.012496
1.410172 -1.053026 0.012287
1.449951 -1.082730 0.037906
1.373352 -1.034895 -0.036021
1.469454 -1.107313 -0.012846
1.440729 -1.095555 0.012636
1.448406 -1.101393 0.038115
1.395996 -1.071185 -0.036859
1.459735 -1.120094 -0.012846
1.423207 -1.101964 0.012566
1.454550 -1.126233 0.038534
1.410230 -1.101792 -0.037487
1.449904 -1.132789 -0.012846
1.444948 -1.139105 0.012846
1.468221 -1.157452 0.039162
1.377088 -1.095385 -0.036859
1.463442 -1.164074 -0.013055
1.434952 -1.151671 0.012846
1.442470 -1.157704 0.038743
1.390786 -1.126236 -0.037487
1.429914 -1.157921 -0.012846
1.432591 -1.170476 0.012915
1.447797 -1.182899 0.039162
1.388620 -1.144690 -0.037696
1.450619 -1.195798 -0.013125
1.445387 -1.202116 0.013125
1.452792 -1.208275 0.039581
1.401554 -1.176043 -0.038325
1.440128 -1.208411 -0.013125
1.450106 -1.227606 0.013264
1.449824 -1.227366 0.039791
1.376033 -1.175243 -0.037906
1.490359 -1.272887 -0.013683
1.424187 -1.227158 0.013125
1.461780 -1.259550 0.040419
1.380816 -1.200325 -0.038325
1.449007 -1.259603 -0.013404
1.451015 -1.272506 0.013474
1.458249 -1.278850 0.040628
1.415216 -1.252077 -0.039581
1.445449 -1.278826 -0.013474
1.432395 -1.278462 0.013404
1.439575 -1.284870 0.040419
1.389376 -1.251000 -0.039162
1.449097 -1.304773 -0.013613
1.428586 -1.297636 0.013474
1.465310 -1.330994 0.041466
1.393149 -1.276585 -0.039581
1.467146 -1.344392 -0.013893
1.468609 -1.357568 0.013963
1.446298 -1.336944 0.041257
1.374643 -1.281876 -0.039372
1.404165 -1.309405 -0.013404
1.442139 -1.356629 0.013823
1.434576 -1.349514 0.041257
1.421422 -1.348879 -0.041047
1.501488 -1.424859 -0.014451
1.415799 -1.355333 0.013683
1.451633 -1.389636 0.042094
1.409597 -1.361232 -0.041047
1.467417 -1.417069 -0.014242
1.439732 -1.402525 0.014032
1.482420 -1.444109 0.043351
1.383402 -1.359466 -0.040628
1.476393 -1.450847 -0.014451
1.420336 -1.407995 0.013963
1.455561 -1.442914 0.042932
1.442181 -1.442181 -0.042723
1.470746 -1.470746 -0.014521
1.443195 -1.455845 0.014312
1.456991 -1.469761 0.043351
1.401511 -1.426188 -0.041885
1.513927 -1.540583 -0.015080
1.423458 -1.461220 0.014242
1.458062 -1.496743 0.043770
1.437627 -1.488707 -0.043351
1.500425 -1.553736 -0.015080
1.479802 -1.545821 0.014940
1.479513 -1.545520 0.044817
1.410817 -1.486691 -0.042932
1.486810 -1.566770 -0.015080
1.425146 -1.514975 0.014521
1.459120 -1.551090 0.044607
1.390972 -1.491634 -0.042723
1.445801 -1.550432 -0.014800
1.418659 -1.534697 0.014591
1.452315 -1.571105 0.044817
1.391411 -1.518458 -0.043141
1.465995 -1.599853 -0.015149
1.452277 -1.598832 0.015080
1.458716 -1.605921 0.045445
1.364727 -1.515683 -0.042723
1.445287 -1.605154 -0.015080
1.444928 -1.618905 0.015149
1.477933 -1.655884 0.046492
1.411071 -1.594926 -0.044607
1.484233 -1.677620 -0.015638
1.424152 -1.623934 0.015080
1.456835 -1.661202 0.046283
1.488927 -1.712815 -0.047539
1.469536 -1.690508 -0.015638
1.468674 -1.704480 0.015708
1.468387 -1.704147 0.047120
1.454445 -1.702936 -0.046911
1.461223 -1.710872 -0.015708
1.447282 -1.709599 0.015638
1.421161 -1.678743 0.046073
1.439528 -1.715563 -0.046911
1.439809 -1.715898 -0.015638
1.438703 -1.729852 0.015708
1.444815 -1.737201 0.047330
1.442533 -1.765572 0.015917
1.442252 -1.765228 0.047749
1.458366 -1.817087 0.016266
1.464340 -1.824529 0.049005
1.411500 -1.790479 0.015917
1.442173 -1.829387 0.048796
1.450920 -1.873889 0.016546
1.456758 -1.881428 0.049843
1.452670 -1.910358 0.016755
1.476593 -1.941819 0.051100
1.477826 -1.979049 0.017244
1.465574 -1.962641 0.051309
1.442760 -1.967677 0.017034
1.448391 -1.975356 0.051309
1.472273 -2.045117 0.017593
0.151872 -0.210963 0.005445
1.477827 -2.052832 0.052984
1.465913 -2.074219 0.017732
1.465627 -2.073815 0.053194
0.142496 -0.205407 0.001745
0.153865 -0.221796 0.005654
0.140670 -0.206602 0.005236
0.155556 -0.232806 0.001955
0.166635 -0.249386 0.006283
0.148007 -0.225748 0.005654
0.151469 -0.235485 0.001955
0.162257 -0.252256 0.006283
0.128064 -0.202970 0.001676
0.117369 -0.186019 0.004607
0.126288 -0.204080 0.001676
0.115742 -0.187036 0.004607
0.129690 -0.213723 0.001745
0.140038 -0.230776 0.005654
0.138046 -0.232034 0.001885
0.102236 -0.171844 0.004188
0.151099 -0.259094 0.006283