# This PCD file was generated using the MATLAB® pcwrite function
# from Computer Vision System Toolbox®.
# .PCD v.7 - Point Cloud Data file format
VERSION .7
FIELDS x y z
SIZE 4 4 4
TYPE F F F
COUNT 1 1 1
WIDTH 1005
HEIGHT 1
VIEWPOINT 0 0 0 1 0 0 0
POINTS 1005
DATA ascii
30.219276 32.978554 -0.936964
30.171808 32.355305 -0.926702
30.164053 32.346985 -0.308781
30.294724 31.923977 -0.921885
30.238680 31.864920 -0.306687
30.190176 31.262844 -0.910367
30.237741 31.312098 -0.303894
30.069420 30.598864 -0.898639
30.040239 30.569170 -0.299217
30.165628 30.165628 -0.893613
30.213936 30.213936 -0.298309
30.028389 29.508816 -0.881885
30.283876 29.759882 -0.296424
30.025850 28.995626 -0.874346
30.341013 29.299976 -0.294470
30.255981 28.711855 -0.873718
30.247374 28.703686 -0.291119
30.388393 28.337635 -0.870367
30.262678 28.220404 -0.288885
30.546072 27.990318 -0.867854
30.330851 27.793104 -0.287209
30.551413 27.508615 -0.861152
30.401314 27.373466 -0.285603
30.550692 27.028969 -0.854451
30.451797 26.941475 -0.283858
30.513762 26.525208 -0.846911
30.504618 26.517260 -0.282183
30.500797 26.050140 -0.840210
30.491537 26.042233 -0.279949
30.451246 25.551630 -0.832671
30.380583 25.492336 -0.276877
30.457058 25.106861 -0.826807
30.385836 25.048149 -0.274922
30.519598 24.714283 -0.822618
30.517778 24.712809 -0.274154
30.515024 24.272747 -0.816754
30.419237 24.196554 -0.271362
30.505085 23.833183 -0.810890
30.495274 23.825518 -0.270175
30.466019 23.377398 -0.804398
30.543360 23.436745 -0.268779
30.349478 22.869972 -0.796021
30.459215 22.952665 -0.266265
30.483604 22.556681 -0.794346
30.505625 22.572975 -0.264939
30.574135 22.213409 -0.791623
30.572008 22.211863 -0.263822
30.612169 21.835447 -0.787644
30.601856 21.828093 -0.262426
30.604998 21.429850 -0.782618
30.594584 21.422558 -0.260750
30.593094 21.026051 -0.777592
30.516649 20.973513 -0.258516
30.632669 20.857042 0.258725
30.601906 20.836096 0.775498
30.642797 20.668827 -0.774241
30.599031 20.639307 -0.257678
30.555763 20.416708 0.256561
30.583057 20.434946 0.770472
30.555212 20.224054 -0.767540
30.544493 20.216959 -0.255724
30.665867 20.105423 0.256003
30.576277 20.046686 0.765864
30.621532 19.885855 -0.764817
30.585569 19.862501 -0.254607
30.646715 19.712629 0.254397
30.438934 19.578981 0.758116
30.625259 19.510443 -0.760629
30.589062 19.487381 -0.253210
30.648430 19.337719 0.253001
30.583267 19.296604 0.757487
30.735001 19.205360 -0.759163
30.656191 19.156115 -0.252373
30.679960 18.985336 0.251884
30.554956 18.907980 0.752671
30.833231 18.894629 -0.757487
30.753981 18.846064 -0.251814
29.741659 18.047682 0.242878
30.724783 18.644257 0.250906
30.710247 18.635435 0.752461
30.791267 18.501259 -0.752461
30.745842 18.473965 -0.250418
30.628498 18.222042 0.248812
29.453991 17.523283 0.717906
30.648304 18.233824 0.747016
30.813715 18.150665 -0.749110
30.699099 18.083151 -0.248742
30.820900 17.974218 0.249091
30.443523 17.754139 0.738220
30.832401 17.801096 -0.745760
30.639233 17.689569 -0.246997
30.768217 17.585484 0.247416
30.571257 17.472912 0.737592
30.847343 17.452587 -0.742409
30.835951 17.446142 -0.247346
30.475542 17.067123 0.243855
30.513216 17.088223 0.732566
30.753630 17.047014 -0.736545
30.610943 16.967924 -0.244344
30.447979 16.704332 0.242459
30.450808 16.705885 0.727540
30.549770 16.587172 -0.728168
30.502998 16.561777 -0.242320
30.451651 16.362263 0.241342
30.524977 16.401661 0.725864
30.560942 16.249540 -0.725027
30.549242 16.243320 -0.241552
30.425133 16.007437 0.240016
30.489986 16.041557 0.721676
30.630634 15.945299 -0.723351
30.405991 15.828357 -0.239318
30.519215 15.718429 0.239667
30.415495 15.665009 0.716650
30.519188 15.550303 -0.717487
30.569689 15.576035 -0.239527
30.619501 15.433499 0.239387
30.551037 15.398991 0.716650
30.617937 15.265540 -0.716650
30.677603 15.295288 -0.239318
30.645395 15.112637 0.238550
30.612520 15.096424 0.714974
30.749987 14.997770 -0.716650
30.621166 14.934941 -0.237852
30.595974 14.757746 0.237153
30.599014 14.759212 0.711623
30.771408 14.677209 -0.714137
30.678125 14.632715 -0.237293
30.687416 14.473125 0.236874
30.581964 14.423390 0.708273
30.744280 14.336293 -0.710576
30.668709 14.301053 -0.236246
30.667248 14.137794 0.235757
30.561396 14.088996 0.704922
30.768141 14.021850 -0.708273
30.646749 13.966528 -0.235129
30.607105 13.787496 0.234361
30.582909 13.776595 0.702618
30.816263 13.720284 -0.706597
30.758326 13.694489 -0.235059
30.689646 13.503767 0.234082
30.701965 13.509188 0.702618
30.751450 13.371111 -0.702409
30.775785 13.381693 -0.234291
30.705254 13.192019 0.233314
30.625780 13.157874 0.698220
29.753395 12.629567 -0.677068
30.698090 13.030565 -0.232825
30.699322 12.873294 0.232406
30.665678 12.859186 0.696545
30.010263 12.430658 -0.680419
30.782915 12.750701 -0.232616
30.736450 12.574615 0.231848
30.739712 12.575949 0.695707
30.006359 12.123356 -0.677906
30.781754 12.436636 -0.231778
30.733559 12.261447 0.231010
30.736855 12.262761 0.693194
30.752859 12.113873 -0.692356
30.805374 12.134560 -0.231150
30.774149 11.967412 0.230521
30.768150 11.965079 0.691519
30.801397 11.823548 -0.691100
30.910095 11.865273 -0.231150
30.802603 11.670062 0.229963
30.768551 11.657161 0.689215
30.697380 11.477281 -0.686493
30.750198 11.497028 -0.229195
30.706255 11.328135 0.228497
30.747168 11.343229 0.686493
30.749393 11.191864 -0.685445
30.774183 11.200887 -0.228636
30.803940 11.059745 0.228497
30.732067 11.033939 0.683979
30.770494 10.896403 -0.683770
30.757643 10.891852 -0.227799
30.748230 10.737762 0.227380
30.204224 10.547787 0.670157
30.741520 10.585155 -0.681047
30.775879 10.596985 -0.227240
30.301025 10.285812 0.223400
29.215855 9.917446 0.646283
22.347086 7.477231 -0.493613
30.690504 10.268899 -0.677906
30.222338 10.112253 -0.222493
29.231028 9.638947 0.214883
29.044926 9.577579 0.640629
22.392469 7.275754 -0.493194
30.636320 9.954344 -0.674765
29.253786 9.505131 -0.214744
29.009270 9.285940 0.212649
29.289270 9.375569 0.644189
22.531389 7.104120 -0.494869
24.057001 7.585144 -0.528377
30.111776 9.494206 -0.661362
29.020899 9.150254 -0.212440
29.337498 9.109535 0.214464
29.770990 9.244139 0.652985
22.477795 6.872151 -0.492356
29.160898 8.915381 -0.638744
22.740374 6.952430 -0.166014
28.984890 8.861570 -0.211602
30.086159 9.054906 0.219351
29.649481 8.923481 0.648587
22.498564 6.664378 -0.491519
24.645849 7.300433 -0.538430
29.074625 8.612296 -0.635184
29.358345 8.696338 -0.213766
29.434412 8.579349 0.214045
29.207911 8.513330 0.637278
22.056118 6.324490 -0.480629
24.708618 7.085082 -0.538430
29.542704 8.471234 -0.643770
29.394667 8.428785 -0.213487
29.488911 8.316732 0.213906
29.271467 8.255407 0.637068
29.808187 8.266542 -0.647958
29.447828 8.166606 -0.213347
29.444592 8.027517 0.213068
29.708933 8.099585 0.645027
22.153479 5.936007 -0.480419
29.492905 7.902600 -0.639582
29.517975 7.909317 -0.213347
29.300777 7.714251 0.211532
29.556110 7.781475 0.640210
29.463951 7.619896 -0.637487
29.585871 7.651426 -0.213347
29.560822 7.507493 0.212928
29.622890 7.523256 0.640210
29.684538 7.401186 -0.640838
30.059029 7.494558 -0.216279
29.926319 7.322924 0.215093
29.930197 7.323873 0.645445
21.863804 5.249035 -0.470995
29.952147 7.190874 -0.645236
30.045498 7.213286 -0.215721
29.989084 7.061492 0.215093
30.070822 7.080739 0.647121
22.201023 5.125510 -0.477278
30.140398 6.958459 -0.647958
30.107302 6.950818 -0.215721
30.088577 6.808350 0.215372
30.092463 6.809229 0.646283
24.607025 5.455246 -0.527958
30.073084 6.667042 -0.645236
30.059422 6.664013 -0.214953
30.146845 6.545522 0.215372
30.062807 6.527275 0.644398
22.404448 4.762212 -0.479791
24.516783 5.211203 -0.525026
30.100780 6.398118 -0.644608
30.194681 6.418077 -0.215512
30.114704 6.263867 0.214744
30.079470 6.256538 0.643561
30.233845 6.151145 -0.646283
30.220142 6.148357 -0.215302
30.128990 5.993029 0.214464
30.132921 5.993811 0.643561
30.207859 5.871813 -0.644608
30.194117 5.869142 -0.214744
30.101547 5.714957 0.213906
30.115322 5.717573 0.642095
24.880724 4.611370 -0.530053
30.208797 5.598869 -0.643561
30.204855 5.598139 -0.214464
30.120752 5.446719 0.213696
30.085365 5.440320 0.640419
30.177738 5.321149 -0.641885
30.124535 5.311769 -0.213557
30.117859 5.175195 0.213347
30.082428 5.169106 0.639372
24.878529 4.163238 -0.528377
30.173721 5.049349 -0.640838
30.169741 5.048683 -0.213557
30.053307 4.894492 0.212579
30.086920 4.899966 0.638534
22.820471 3.614408 -0.483979
25.229902 3.996024 -0.535079
30.137636 4.773333 -0.639163
30.143513 4.774263 -0.213068
30.094875 4.632044 0.212579
30.059362 4.626578 0.637068
30.148479 4.505721 -0.638534
30.144468 4.505121 -0.212789
30.084669 4.362070 0.212230
30.098593 4.364088 0.637068
24.939383 3.505002 -0.527540
30.186651 4.242457 -0.638534
30.182634 4.241893 -0.212789
30.081955 4.093975 0.211951
30.095903 4.095873 0.636231
25.444807 3.349873 -0.537592
30.143227 3.968431 -0.636859
30.129274 3.966594 -0.212160
30.126455 3.832569 0.212021
30.080912 3.826775 0.635184
30.176708 3.705234 -0.636859
30.162743 3.703519 -0.212160
30.109102 3.563647 0.211672
30.073446 3.559427 0.634346
30.168159 3.437227 -0.636021
30.154171 3.435634 -0.211881
30.099293 3.296409 0.211393
30.103363 3.296854 0.634346
30.206949 3.174878 -0.636231
30.192949 3.173407 -0.211951
30.126913 3.033621 0.211393
30.091196 3.030024 0.633508
30.183746 2.906364 -0.635184
30.169724 2.905014 -0.211602
30.112408 2.766942 0.211113
30.116493 2.767317 0.633508
30.207958 2.642854 -0.635184
30.203888 2.642498 -0.211672
30.135406 2.504059 0.211113
30.149458 2.505227 0.633718
30.199970 2.376789 -0.634555
30.185921 2.375684 -0.211393
30.166082 2.241727 0.211183
30.160202 2.241290 0.633508
30.139774 2.107578 -0.632880
30.125700 2.106594 -0.210834
30.144583 1.975780 0.210904
30.148684 1.976049 0.632880
30.236851 1.849365 -0.634555
30.222786 1.848505 -0.211393
30.160677 1.712647 0.210904
30.164780 1.712880 0.632880
30.251839 1.585432 -0.634555
30.237766 1.584694 -0.211393
30.174475 1.449384 0.210904
30.218523 1.451500 0.633718
30.184616 1.317889 -0.632880
30.160530 1.316837 -0.210764
30.185974 1.186010 0.210904
30.150118 1.184601 0.632042
30.274900 1.057223 -0.634555
30.220842 1.055335 -0.211113
30.195173 0.922546 0.210904
30.199280 0.922671 0.632880
30.242996 0.791941 -0.633718
30.228901 0.791572 -0.211113
30.202074 0.659012 0.210904
30.166201 0.658229 0.632042
30.288740 0.528692 -0.634555
30.274651 0.528446 -0.211393
30.206676 0.395427 0.210904
30.210783 0.395481 0.632880
30.242214 0.263920 -0.633508
30.238111 0.263884 -0.211113
30.248976 0.131987 0.211183
30.253075 0.132005 0.633718
30.293354 0.000000 -0.634555
30.279263 0.000000 -0.211393
30.288973 -0.132161 0.211462
30.243078 -0.131961 0.633508
30.292202 -0.264356 -0.634555
30.308107 -0.264495 -0.211602
30.246672 -0.395951 0.211183
30.240774 -0.395873 0.633508
30.288740 -0.528692 -0.634555
30.304646 -0.528970 -0.211602
30.282053 -0.660757 0.211462
30.286146 -0.660846 0.634555
30.312958 -0.793773 -0.635184
30.298876 -0.793404 -0.211602
30.315115 -0.926211 0.211742
30.319199 -0.926335 0.635393
30.354834 -1.060014 -0.636231
30.330772 -1.059174 -0.211881
30.305878 -1.190721 0.211742
30.309959 -1.190882 0.635393
30.334440 -1.324430 -0.636021
30.320375 -1.323816 -0.211881
30.294333 -1.455141 0.211742
30.298414 -1.455337 0.635393
30.371649 -1.591711 -0.637068
30.357597 -1.590974 -0.212230
30.320415 -1.721718 0.212021
30.324488 -1.721949 0.636231
30.346622 -1.856079 -0.636859
30.382483 -1.858272 -0.212510
30.344151 -1.988861 0.212300
30.348211 -1.989127 0.637068
30.369164 -2.123619 -0.637697
30.405012 -2.126126 -0.212789
30.415390 -2.260254 0.212928
30.249935 -2.247958 0.635393
30.389343 -2.391693 -0.638534
30.385300 -2.391375 -0.212789
30.225096 -2.511512 0.211742
30.229166 -2.511850 0.635393
30.417114 -2.661153 -0.639582
30.353313 -2.655571 -0.212719
30.241859 -2.778836 0.212021
30.206095 -2.775550 0.635393
30.372829 -2.924571 -0.639163
30.299122 -2.917474 -0.212510
30.256256 -3.046645 0.212300
30.260303 -3.047052 0.637068
30.326265 -3.187419 -0.638744
30.312288 -3.185950 -0.212789
30.228518 -3.310561 0.212300
30.192808 -3.306650 0.636231
30.287361 -3.450809 -0.638534
30.283333 -3.450350 -0.212789
30.238197 -3.578927 0.212579
30.202517 -3.574703 0.637068
30.335482 -3.724729 -0.640210
30.321547 -3.723018 -0.213278
30.245493 -3.847713 0.212859
30.209845 -3.843178 0.637906
30.301823 -3.989311 -0.640210
30.287903 -3.987478 -0.213278
30.210766 -4.111505 0.212859
30.214783 -4.112051 0.638744
30.265856 -4.253589 -0.640210
30.251953 -4.251635 -0.213278
30.252905 -4.386463 0.213417
30.187641 -4.377000 0.638953
30.316576 -4.530843 -0.642095
30.302708 -4.528770 -0.213906
30.292542 -4.662468 0.213976
30.652250 -4.717833 0.649634
30.315382 -4.801485 -0.642932
30.291664 -4.797728 -0.214115
30.645491 -4.990935 0.216768
30.767797 -5.010854 0.652985
30.351213 -5.079051 -0.644608
30.426168 -5.091595 -0.215372
30.758455 -5.285269 0.217885
30.722898 -5.279160 0.652985
30.433731 -5.366288 -0.647330
30.794188 -5.429846 -0.218304
30.711163 -5.553483 0.217885
30.754366 -5.561296 0.654660
30.759298 -5.700899 -0.655288
30.716135 -5.692899 -0.218095
30.740124 -5.836195 0.218444
30.743954 -5.836922 0.655498
30.796705 -5.986273 -0.657173
30.783079 -5.983624 -0.218932
30.766485 -6.119834 0.219002
30.770292 -6.120592 0.657173
30.733496 -6.252800 -0.656964
30.719891 -6.250032 -0.218863
30.751068 -6.396232 0.219281
30.754862 -6.397020 0.658011
30.765774 -6.539467 -0.658849
30.752211 -6.536584 -0.219491
30.733170 -6.672825 0.219561
30.776030 -6.682131 0.659686
30.824667 -6.833664 -0.661362
30.840439 -6.837161 -0.220538
30.790806 -6.967248 0.220398
30.755550 -6.959270 0.660524
30.841791 -7.120389 -0.663037
30.857548 -7.124026 -0.221097
30.806704 -7.254015 0.220957
30.810429 -7.254893 0.663037
30.856253 -7.407931 -0.664712
30.871992 -7.411710 -0.221655
30.819933 -7.541590 0.221515
30.775080 -7.530614 0.663665
30.829235 -7.686592 -0.665550
30.815842 -7.683252 -0.221725
30.791716 -7.820099 0.221795
30.795403 -7.821036 0.665550
30.877136 -7.985371 -0.668063
30.863794 -7.981920 -0.222563
30.838343 -8.119059 0.222632
30.803326 -8.109839 0.667225
30.844904 -8.264867 -0.668901
30.821941 -8.258715 -0.222772
30.804909 -8.398382 0.222912
30.808548 -8.399374 0.668901
30.839046 -8.552424 -0.670367
30.825787 -8.548747 -0.223331
30.807442 -8.688597 0.223470
30.811058 -8.689617 0.670576
30.888176 -8.857041 -0.673089
30.874973 -8.853256 -0.224238
30.845650 -8.990687 0.224308
30.810841 -8.980541 0.672252
30.886396 -9.148968 -0.674765
30.863655 -9.142231 -0.224727
30.842623 -9.282576 0.224866
30.846182 -9.283648 0.674765
30.872309 -9.438612 -0.676231
30.907017 -9.449224 -0.225634
30.836842 -9.575094 0.225425
30.802187 -9.564333 0.675602
30.874582 -9.734718 -0.678116
30.861528 -9.730602 -0.225914
30.856873 -9.877362 0.226193
30.907988 -9.893724 0.679791
30.893049 -10.037760 -0.680419
30.927605 -10.048987 -0.227031
30.892960 -10.186971 0.227100
30.858452 -10.175591 0.680629
30.927534 -10.348207 -0.683142
30.914598 -10.343880 -0.227589
30.878639 -10.481886 0.227659
30.882086 -10.483056 0.683142
30.911676 -10.643744 -0.684817
30.898794 -10.639308 -0.228148
30.899281 -10.790512 0.228497
30.902695 -10.791704 0.685655
30.958982 -10.963150 -0.687958
30.955593 -10.961950 -0.229265
28.234592 -10.137255 0.209438
30.869822 -11.083398 0.228985
28.389053 -10.192712 0.631833
30.835573 -11.071102 0.686283
30.937292 -11.260253 -0.689634
25.042198 -9.114614 -0.186051
30.933928 -11.259028 -0.229823
28.126291 -10.376336 0.209298
30.968941 -11.425046 0.230451
30.934765 -11.412437 0.690681
27.513393 -10.286837 -0.615288
30.903402 -11.554309 -0.691100
24.961706 -9.332799 -0.186051
27.584324 -10.313356 -0.205598
30.900063 -11.553060 -0.230312
23.742504 -8.995231 0.177254
30.961573 -11.730290 0.231150
23.868767 -9.043066 0.534660
30.974236 -11.735087 0.693822
27.553249 -10.576702 -0.618220
30.913403 -11.866544 -0.693613
23.413626 -8.987649 -0.175090
30.928766 -11.872441 -0.231289
23.681744 -9.209326 0.177394
30.951227 -12.036274 0.231848
23.956667 -9.316238 0.538430
26.835939 -10.435926 0.603142
30.945192 -12.033927 0.695498
24.780888 -9.761452 -0.557906
27.562227 -10.857050 -0.620524
30.994715 -12.209143 -0.697801
23.445951 -9.235606 -0.175928
31.010061 -12.215188 -0.232685
23.739794 -9.471217 0.178441
30.956469 -12.350378 0.232685
23.735165 -9.469371 0.535288
26.836710 -10.706761 0.605236
30.913288 -12.333152 0.697173
24.620602 -9.947369 -0.556231
30.961149 -12.509116 -0.699477
23.494267 -9.492300 -0.176905
24.820107 -10.027974 -0.186888
30.939371 -12.500318 -0.232965
23.545177 -9.632586 0.177603
30.967831 -12.669274 0.233593
23.512827 -9.619351 0.532147
30.952539 -12.663018 0.700524
24.597517 -10.188624 -0.557697
30.961651 -12.824736 -0.701990
23.465969 -9.719922 -0.177324
26.200584 -10.852637 -0.197989
30.939972 -12.815756 -0.233802
23.561661 -9.880224 0.178371
26.152983 -10.966856 0.197989
30.975975 -12.989305 0.234501
23.289688 -9.766176 0.529006
25.815964 -10.825532 0.586388
26.654984 -11.177362 0.605445
24.443247 -10.375543 -0.556231
26.578350 -11.281840 -0.604817
30.986601 -13.153031 -0.705131
23.536736 -9.990751 -0.178511
25.782713 -10.944112 -0.195545
31.029463 -13.171226 -0.235338
23.152975 -9.947303 0.175928
25.890905 -11.123610 0.196732
30.953321 -13.298596 0.235199
23.130089 -9.937470 0.527330
23.709972 -10.309389 -0.541571
26.607246 -11.569160 -0.607749
31.054012 -13.502669 -0.709320
23.366121 -10.159879 -0.177883
30.986704 -13.473403 -0.235897
22.964605 -10.104669 0.175160
22.868618 -10.062432 0.523351
30.949045 -13.617906 0.708273
23.272034 -10.361377 -0.533613
31.008066 -13.805680 -0.710995
23.641981 -10.526088 -0.180675
31.004978 -13.804305 -0.236944
22.948492 -10.337542 0.175718
31.062975 -13.992850 0.237852
22.807283 -10.273932 0.523979
30.983995 -13.957273 0.711833
23.089752 -10.522606 -0.531519
26.192039 -11.936400 -0.602932
30.995581 -14.125500 -0.713508
23.021460 -10.491484 -0.176626
31.038023 -14.144842 -0.238131
22.748432 -10.487171 0.174881
24.355806 -11.228181 0.187237
22.753077 -10.489312 0.524817
24.351059 -11.225991 0.561676
23.377613 -10.901160 -0.540314
31.025173 -14.467276 -0.717068
23.228102 -10.831442 -0.178930
31.004034 -14.457418 -0.238829
22.746492 -10.727942 0.175579
24.392561 -11.504278 0.188285
31.022055 -14.630951 0.239457
23.167059 -10.926294 0.536545
30.970795 -14.606775 0.717278
23.579382 -11.246788 -0.547225
31.042124 -14.806334 -0.720419
22.807774 -10.878750 -0.176416
31.066229 -14.817831 -0.240295
22.931219 -11.060707 0.177743
25.678282 -12.385733 0.199036
31.001278 -14.953241 0.240295
22.818687 -11.006429 0.530681
30.959213 -14.932952 0.720000
22.617685 -11.031382 -0.527121
23.965580 -11.688794 -0.558534
31.091454 -15.164315 -0.724608
25.731846 -12.550261 -0.199873
31.052578 -15.145354 -0.241203
22.896603 -11.291355 0.178232
31.040009 -15.307239 0.241621
22.757637 -11.222825 0.531519
31.051891 -15.313098 0.725236
22.574242 -11.255102 -0.528377
23.862665 -11.897486 -0.558534
25.464247 -12.696005 -0.596021
24.699587 -12.314759 -0.192683
31.044516 -15.478225 -0.242180
22.752548 -11.468228 0.177883
23.949112 -12.071346 0.187237
31.101698 -15.676547 0.243157
23.167721 -11.677493 0.543456
23.953911 -12.205127 -0.563142
31.098215 -15.845332 -0.731100
23.023048 -11.730828 -0.180396
25.740551 -13.115466 -0.201689
31.113190 -15.852962 -0.243786
23.789518 -12.252407 0.186819
31.105951 -16.020618 0.244274
23.091600 -11.892956 0.544084
25.882502 -13.330364 0.609843
31.073223 -16.003761 0.732147
23.669127 -12.321367 -0.558953
25.495968 -13.272361 -0.602095
31.136120 -16.208439 -0.735288
23.833401 -12.406883 -0.187586
31.097841 -16.188513 -0.244763
25.779062 -13.563021 0.203364
31.044609 -16.333359 0.244903
23.225830 -12.219701 0.549739
31.003166 -16.311554 0.733822
23.375324 -12.428881 -0.554555
31.134731 -16.554630 -0.738639
22.541103 -11.985317 -0.178232
23.865492 -12.689507 -0.188703
31.105486 -16.539080 -0.245950
31.041834 -16.679379 0.246020
23.056662 -12.388791 0.548273
26.940538 -14.475673 0.640629
31.071009 -16.695055 0.738849
22.202837 -12.055158 -0.529215
25.190161 -13.677141 -0.600419
31.138449 -16.906797 -0.742199
22.409290 -12.167252 -0.178022
25.748714 -13.980411 -0.204551
31.118156 -16.895781 -0.247206
22.917078 -12.572740 0.182490
31.044138 -17.031397 0.247206
23.438532 -12.858819 0.560000
27.006027 -14.816014 0.645236
31.055616 -17.037695 0.741990
23.766951 -13.174235 -0.569215
25.104824 -13.915832 -0.601257
31.129633 -17.255438 -0.745550
22.739559 -12.604743 -0.181513
25.651972 -14.219120 -0.204760
22.771591 -12.752704 0.182211
31.112450 -17.423809 0.248952
22.932890 -12.843035 0.550576
31.062769 -17.395987 0.745760
22.563374 -12.765742 -0.543037
22.593884 -12.783004 -0.181234
31.097052 -17.593864 -0.249440
23.136934 -13.223847 0.186051
31.150215 -17.803814 0.250488
23.123743 -13.216309 0.557906
31.109421 -17.780499 0.750576
23.386215 -13.502038 -0.565655
25.412271 -14.671782 -0.614660
31.222027 -18.026045 -0.755184
22.620031 -13.059682 -0.182351
31.167494 -17.994562 -0.251256
22.986103 -13.405099 0.185771
31.131872 -18.155571 0.251605
22.748438 -13.266497 0.551623
31.091257 -18.131886 0.753927
21.570463 -12.705974 -0.524398
23.069368 -13.588897 -0.560838
31.175520 -18.363785 -0.757906
22.987705 -13.540793 -0.186260
31.138519 -18.341990 -0.252303
22.782309 -13.554049 0.185073
31.101160 -18.503246 0.252652
22.640392 -13.469618 0.551833
31.060728 -18.479191 0.757068
21.467331 -12.898874 -0.524608
22.649963 -13.609471 -0.553508
22.371521 -13.442166 -0.182211
31.191559 -18.741779 -0.254048
22.586222 -13.705655 0.184445
31.169327 -18.914013 0.254537
22.120266 -13.422908 0.541990
31.154703 -18.905138 0.763351
21.379526 -13.101390 -0.525236
22.760500 -13.947652 -0.559163
23.953934 -14.678989 -0.588482
22.952515 -14.065319 -0.187936
31.205870 -19.122982 -0.255514
22.202156 -13.739111 0.182281
31.156147 -19.280008 0.255793
21.942778 -13.578603 0.540524
31.167076 -19.286772 0.767749
22.951628 -14.341768 -0.566911
31.252197 -19.528540 -0.771938
25.983561 -16.236330 -0.213906
21.979931 -13.868303 0.181443
25.937840 -16.365559 0.214115
31.181225 -19.673887 0.257399
22.051744 -13.913614 0.546178
31.158236 -19.659382 0.771728
21.923368 -13.966726 -0.544503
31.215504 -19.886469 -0.775288
31.204723 -19.879601 -0.258307
21.992634 -14.146137 0.182560
31.184967 -20.058846 0.258865
31.162069 -20.044117 0.776126
22.144432 -14.380762 -0.553089
22.643553 -14.704896 -0.188494
31.139080 -20.221954 -0.259214
31.242889 -20.483736 0.260820
22.457720 -14.723927 0.562513
31.186632 -20.446852 0.781152
21.592907 -14.292033 -0.542409
31.280535 -20.704134 -0.785760
21.738874 -14.388646 -0.182001
31.236601 -20.675056 -0.261518
22.282843 -14.888920 0.187098
26.922331 -17.988926 0.226053
31.187666 -20.838932 0.261867
22.245247 -14.863799 0.560419
26.401684 -17.641041 0.665131
31.156647 -20.818205 0.784922
21.417633 -14.446376 -0.541152
31.239573 -21.071358 -0.789320
22.035282 -14.862986 -0.185562
31.229084 -21.064283 -0.262984
26.384102 -17.964296 0.222842
31.269129 -21.290392 0.264101
21.850241 -14.877298 0.553718
25.990545 -17.696333 0.658639
22.180611 -15.244312 -0.563770
31.301687 -21.513054 -0.795603
21.978910 -15.105686 -0.186190
31.283068 -21.500257 -0.265009
26.094872 -18.102655 0.221725
31.271120 -21.693548 0.265707
21.826372 -15.141493 0.556440
22.194151 -15.540512 -0.567540
31.325693 -21.934486 -0.801048
21.780722 -15.251026 -0.185632
23.820854 -16.834915 0.203643
31.276609 -22.104122 0.267382
21.824041 -15.423708 0.559791
22.342569 -15.936800 -0.574869
27.079683 -19.315750 -0.696754
22.314363 -15.916680 -0.191356
22.398895 -16.124897 0.192683
22.337732 -16.080866 0.576545
22.356325 -16.242821 -0.578848
23.901209 -17.365246 -0.618849
31.310179 -22.748177 -0.810681
22.215065 -16.140190 -0.191705
22.458935 -16.467573 0.194428
25.308744 -18.557138 0.657383
31.291250 -22.943695 0.812775
22.342319 -16.532446 -0.582199
31.343542 -23.193001 -0.816754
22.121601 -16.369123 -0.192124
31.325539 -23.179680 -0.272060
22.242264 -16.609087 0.193800
26.649052 -19.899792 0.232197
25.962940 -19.387447 0.678744
31.274088 -23.353470 0.817592
22.277044 -16.786957 -0.584294
31.355537 -23.628094 -0.822409
22.185555 -16.718014 -0.193939
31.321722 -23.602610 -0.273805
22.168116 -16.857027 0.194428
31.321915 -23.817738 0.274713
22.498041 -17.107908 0.592042
31.291935 -23.794939 0.823456
19.163214 -14.704451 -0.505969
22.050386 -16.919857 -0.582199
19.428749 -14.908204 -0.170971
23.316086 -17.891062 -0.205179
25.926155 -19.893839 -0.228148
25.080063 -19.419060 0.221446
31.350077 -24.273823 0.276807
25.027742 -19.378548 0.663037
31.296535 -24.232367 0.829110
19.128704 -14.944983 -0.508482
21.980679 -17.173187 -0.584294
25.746544 -20.115404 -0.684398
19.494911 -15.231093 -0.172716
25.633366 -20.026979 -0.227100
31.369944 -24.508886 -0.277924
19.569620 -15.427445 0.173973
22.734371 -17.922333 0.202107
22.784899 -17.962166 0.607749
24.708504 -19.478613 0.659058
18.567219 -14.769032 -0.496964
23.465271 -18.665119 -0.628063
19.126478 -15.213887 -0.170622
25.551533 -20.324608 -0.227938
25.080473 -20.129208 0.224517
31.358391 -25.167770 0.280716
22.502529 -18.060190 0.604398
25.457644 -20.431919 0.683770
31.328886 -25.144089 0.841466
18.600794 -15.062626 -0.501362
18.643278 -15.097029 -0.167480
23.414837 -18.960960 -0.210345
24.906921 -20.169228 -0.223749
31.377625 -25.636595 0.282881
21.925989 -17.914286 0.593089
25.324827 -20.691252 0.685027
31.363766 -25.625271 0.848377
18.561216 -15.300686 -0.503875
23.213091 -19.135397 -0.630157
18.472242 -15.227342 -0.167131
23.279346 -19.190012 -0.210625
24.683668 -20.347647 -0.223331
22.080599 -18.364241 0.200502
21.638151 -17.996260 0.589529
23.267738 -19.351574 0.633927
19.238815 -16.143284 -0.526074
23.267326 -19.523605 -0.636231
31.454546 -26.393497 -0.860105
19.280869 -16.178570 -0.175718
22.291349 -18.704664 -0.203155
31.391737 -26.340794 -0.286092
21.820284 -18.472235 0.199594
31.429148 -26.606737 0.287488
21.716833 -18.384655 0.596021
19.408907 -16.576773 -0.534660
22.525887 -19.238926 -0.620524
31.434416 -26.847528 -0.288605
18.908361 -16.292486 0.174252
21.813087 -18.795359 0.603142
17.958149 -15.610781 -0.498430
22.326960 -19.408529 -0.619686
18.912561 -16.440439 -0.174950
22.255842 -19.346710 -0.205877
31.417793 -27.311071 -0.290630
21.329176 -18.705185 0.198058
23.073400 -20.234831 0.214255
21.783539 -19.103651 0.606911
22.865952 -20.052900 0.637068
17.753845 -15.707275 -0.496545
18.749739 -16.588367 -0.524398
22.493696 -19.900742 -0.629110
18.760883 -16.598228 -0.174881
22.632891 -20.023890 -0.210974
18.464470 -16.480169 0.172786
20.874176 -18.630915 0.195336
22.503614 -20.085243 0.631833
18.715714 -16.851704 -0.527540
22.274595 -20.056135 -0.627854
18.399818 -16.567270 -0.172856
20.792221 -18.886324 0.196104
20.721561 -18.822142 0.586388
21.683634 -19.696028 0.613613
18.678511 -17.115702 -0.530681
22.961153 -21.040020 -0.652356
18.453602 -16.909611 -0.174741
21.063499 -19.301142 -0.199455
20.817535 -19.243532 0.197919
21.863329 -20.210253 0.623665
24.219986 -22.388725 0.690890
18.389511 -17.148497 -0.526702
31.580238 -29.449049 -0.904503
18.627125 -17.370075 -0.177813
21.077101 -19.654715 -0.201200
18.551157 -17.451185 0.177813
20.889170 -19.650570 0.200223
21.103561 -19.852247 0.606911
24.963081 -23.482922 0.717906
18.224661 -17.294558 -0.526283
18.540117 -17.593914 -0.178441
22.776199 -21.613808 -0.219212
18.571526 -17.778368 0.179488
20.890257 -19.998070 0.201898
20.062870 -19.206020 0.581780
18.892912 -18.244673 -0.550157
22.869989 -22.085291 -0.665969
18.098148 -17.477179 -0.175649
24.061331 -23.235756 -0.233523
20.621830 -20.088898 0.200990
21.047497 -20.503563 0.615498
18.055540 -17.743130 -0.530262
21.093321 -20.728350 -0.619477
18.501266 -18.181143 -0.181094
20.374722 -20.197691 0.200292
21.712706 -21.524048 0.640419
18.225214 -18.225214 -0.539896
17.960075 -17.960075 -0.177324
21.269253 -21.269253 -0.209996
21.056568 -21.241127 0.208809
21.531088 -21.719807 0.640629
22.488337 -22.685446 0.669110
17.820213 -18.133982 -0.532566
21.632324 -22.013212 -0.646492
21.286095 -21.660889 -0.212021
31.595182 -32.433361 0.316111
19.680351 -20.202446 0.590786
17.730740 -18.360718 -0.534660
22.022785 -22.805262 -0.664084
18.157927 -18.803083 -0.182490
19.894531 -20.601389 -0.199943
19.804451 -20.688000 0.199943
19.586267 -20.460083 0.593299
18.264923 -19.247213 -0.555812
18.027567 -18.997091 -0.182839
20.003096 -21.078865 -0.202875
19.856119 -21.107676 0.202317
20.345472 -21.627872 0.621990
22.003260 -23.595608 -0.675812
19.709272 -21.135607 -0.201758
22.365940 -24.195337 0.230033
20.162746 -21.811937 0.622199
21.100809 -23.027493 -0.654241
22.152063 -24.174734 -0.228916
20.304983 -22.354042 0.210834
19.776693 -21.772442 0.616126
20.912436 -23.225613 -0.654660
19.986444 -22.197195 -0.208530
22.756577 -25.273739 -0.237433
19.649689 -22.015617 0.206017
19.825607 -22.212715 0.623665
20.881203 -23.601908 -0.660105
22.987873 -25.983065 -0.726702
21.150316 -23.906084 -0.222842
19.938131 -22.735083 0.211113
19.947428 -22.745684 0.633718
21.776382 -25.050863 -0.695288
20.107719 -23.131285 -0.213976
21.426365 -24.648214 -0.228008
19.941324 -23.143045 0.213278
19.454500 -22.578060 0.624294
20.660904 -24.190811 -0.666388
19.495955 -22.826830 -0.209577
21.320860 -24.963520 -0.229195
19.590002 -23.140644 0.211672
19.469906 -22.998781 0.631205
19.986311 -23.818758 -0.651309
19.353863 -23.065037 -0.210206
20.138044 -23.999588 -0.218723
19.444866 -23.379910 0.212300
19.389931 -23.313858 0.635184
19.594406 -23.982355 0.216210
19.539982 -23.915743 0.646911
19.903881 -24.799723 0.222004
20.742598 -25.844742 0.231359
19.587109 -24.405031 0.655498
20.305786 -25.757767 0.228985
19.218651 -24.378742 0.650262
31.754936 -41.012070 0.362118
20.241585 -26.142370 0.692566
31.793978 -42.577301 1.113090
0.157744 -0.219120 0.001885
0.181078 -0.251533 0.006492
0.193794 -0.279353 0.002374
0.136769 -0.197152 0.005026
0.163209 -0.239705 0.002025
0.151924 -0.223130 0.005654
0.133334 -0.199548 0.001676
0.122199 -0.182883 0.004607
0.148007 -0.225748 0.005654
0.129831 -0.201844 0.001676
0.140623 -0.218622 0.005445
0.128064 -0.202970 0.001676
0.117369 -0.186019 0.004607
0.126288 -0.204080 0.001676
0.115742 -0.187036 0.004607
0.114127 -0.188076 0.001536
0.140038 -0.230776 0.005654
0.117595 -0.197659 0.001606
0.102236 -0.171844 0.004188
0.130953 -0.224548 0.005445