# This PCD file was generated using the MATLAB® pcwrite function
# from Computer Vision System Toolbox®.
# .PCD v.7 - Point Cloud Data file format
VERSION .7
FIELDS x y z
SIZE 4 4 4
TYPE F F F
COUNT 1 1 1
WIDTH 759
HEIGHT 1
VIEWPOINT 0 0 0 1 0 0 0
POINTS 759
DATA ascii
0.059032 0.067909 -0.001885
0.190252 0.218860 -0.002025
0.132495 0.149758 -0.004188
0.258416 0.292086 -0.002723
0.100348 0.111447 -0.003141
0.194043 0.215507 -0.002025
0.135088 0.147423 -0.004188
0.209428 0.228550 -0.002164
0.136370 0.146239 -0.004188
0.218234 0.234027 -0.002234
0.144523 0.152295 -0.004398
0.227151 0.239368 -0.002304
0.111121 0.115069 -0.003351
0.173660 0.179831 -0.001745
0.119128 0.121226 -0.003560
0.252321 0.256764 -0.002513
0.084834 0.084834 -0.002513
0.197985 0.197985 -0.001955
0.149750 0.147159 -0.004398
0.235367 0.231294 -0.002304
0.143836 0.138901 -0.004188
0.230183 0.222285 -0.002234
0.123287 0.116995 -0.003560
0.239368 0.227151 -0.002304
0.146239 0.136370 -0.004188
0.212087 0.197775 -0.002025
0.125310 0.114825 -0.003560
0.243296 0.222939 -0.002304
0.148596 0.133797 -0.004188
0.237801 0.214117 -0.002234
0.157246 0.139120 -0.004398
0.247149 0.218659 -0.002304
0.150909 0.131183 -0.004188
0.218860 0.190252 -0.002025
0.129241 0.110382 -0.003560
0.182493 0.155864 -0.001676
0.153175 0.128529 -0.004188
0.222147 0.186404 -0.002025
0.162006 0.133547 -0.004398
0.239198 0.197179 -0.002164
0.155395 0.125836 -0.004188
0.202053 0.163619 -0.001815
0.164312 0.130699 -0.004398
0.242603 0.192975 -0.002164
0.126054 0.098484 -0.003351
0.228518 0.178537 -0.002025
0.095182 0.073035 -0.002513
0.245934 0.188711 -0.002164
0.095815 0.072202 -0.002513
0.143751 0.108324 -0.001257
0.096442 0.071363 -0.002513
0.249190 0.184391 -0.002164
0.129414 0.094025 -0.003351
0.234609 0.170454 -0.002025
0.138369 0.098698 -0.003560
0.252370 0.180014 -0.002164
0.131036 0.091752 -0.003351
0.212974 0.149126 -0.001815
0.221796 0.153865 0.005654
0.140071 0.096268 -0.003560
0.255473 0.175582 -0.002164
0.132617 0.089451 -0.003351
0.240415 0.162162 -0.002025
0.257749 0.172223 0.002164
0.224448 0.149971 0.005654
0.175078 0.115881 -0.004398
0.258498 0.171096 -0.002164
0.092234 0.059897 -0.002304
0.218049 0.141603 -0.001815
0.252306 0.162288 0.002094
0.235439 0.151440 0.005864
0.134913 0.085949 -0.003351
0.236144 0.150440 -0.001955
0.093265 0.058278 -0.002304
0.220487 0.137776 -0.001815
0.255099 0.157860 0.002094
0.229545 0.142047 0.005654
0.179015 0.109701 -0.004398
0.238733 0.146296 -0.001955
0.137117 0.082388 -0.003351
0.222858 0.133907 -0.001815
0.266409 0.158497 0.002164
0.206212 0.122683 0.005026
0.180902 0.106560 -0.004398
0.241250 0.142107 -0.001955
0.241821 0.141026 0.005864
0.103900 0.059987 -0.002513
0.225161 0.129997 -0.001815
0.269135 0.153823 0.002164
0.243042 0.138910 0.005864
0.147928 0.083694 -0.003560
0.269804 0.152648 -0.002164
0.218076 0.122129 0.005236
0.104931 0.058164 -0.002513
0.183666 0.101808 -0.001466
0.271779 0.149103 0.002164
0.210368 0.115412 0.005026
0.158152 0.085870 -0.003770
0.272427 0.147916 -0.002164
0.150068 0.079793 -0.003560
0.167756 0.089197 -0.001326
0.274339 0.144337 0.002164
0.247742 0.130343 0.005864
0.186231 0.096946 -0.004398
0.274967 0.143139 -0.002164
0.239982 0.123599 0.005654
0.151438 0.077161 -0.003560
0.222746 0.113495 -0.001745
0.276817 0.139527 0.002164
0.249979 0.126000 0.005864
0.187895 0.093681 -0.004398
0.178983 0.089237 -0.001396
0.251069 0.123814 0.005864
0.197691 0.096421 -0.004607
0.197730 0.096439 -0.001536
0.243183 0.117297 0.001885
0.216120 0.104244 0.005026
0.189501 0.090388 -0.004398
0.216615 0.103320 -0.001676
0.271277 0.127943 0.006283
0.199344 0.092956 -0.004607
0.226571 0.105652 -0.001745
0.281518 0.129781 0.002164
0.308701 0.142313 0.007120
0.191050 0.087066 -0.004398
0.245684 0.111964 -0.001885
0.255287 0.114998 0.001955
0.209659 0.094445 0.004817
0.200936 0.089462 -0.004607
0.173569 0.077278 -0.001326
0.256281 0.112766 0.001955
0.274533 0.120798 0.006283
0.192540 0.083719 -0.004398
0.174237 0.075760 -0.001326
0.257255 0.110526 0.001955
0.238833 0.102611 0.005445
0.193264 0.082036 -0.004398
0.266940 0.113309 -0.002025
0.258210 0.108276 0.001955
0.276600 0.115988 0.006283
0.193972 0.080346 -0.004398
0.221726 0.091842 -0.001676
0.222124 0.090873 0.001676
0.222081 0.090856 0.005026
0.129777 0.052433 -0.002932
0.166889 0.067428 -0.001257
0.260060 0.103754 0.001955
0.241438 0.096324 0.005445
0.195345 0.076948 -0.004398
0.223295 0.087958 -0.001676
0.260956 0.101480 0.001955
0.242269 0.094213 0.005445
0.158674 0.060909 -0.003560
0.205383 0.078839 -0.001536
0.261831 0.099199 0.001955
0.280479 0.106264 0.006283
0.168564 0.063024 -0.003770
0.252895 0.094554 -0.001885
0.300214 0.110755 0.002234
0.243876 0.089971 0.005445
0.159713 0.058131 -0.003560
0.206727 0.075243 -0.001536
0.301169 0.108131 0.002234
0.282291 0.101353 0.006283
0.169638 0.060072 -0.003770
0.179098 0.063422 -0.001326
0.264338 0.092311 0.001955
0.245409 0.085701 0.005445
0.160703 0.055334 -0.003560
0.179644 0.061856 -0.001326
0.265134 0.090001 0.001955
0.284017 0.096411 0.006283
0.199104 0.066619 -0.004398
0.180177 0.060286 -0.001326
0.265909 0.087684 0.001955
0.208888 0.068881 0.004607
0.161644 0.052521 -0.003560
0.209227 0.067982 -0.001536
0.266664 0.085360 0.001955
0.285656 0.091439 0.006283
0.171631 0.054115 -0.003770
0.181202 0.057133 -0.001326
0.267399 0.083030 0.001955
0.248251 0.077084 0.005445
0.162536 0.049692 -0.003560
0.210382 0.064320 -0.001536
0.268113 0.080693 0.001955
0.287208 0.086440 0.006283
0.172550 0.051112 -0.003770
0.239699 0.071002 -0.001745
0.268807 0.078350 0.001955
0.249558 0.072740 0.005445
0.163379 0.046848 -0.003560
0.182635 0.052370 -0.001326
0.269481 0.076001 0.001955
0.288673 0.081414 0.006283
0.173415 0.048092 -0.003770
0.231266 0.064136 -0.001676
0.231543 0.063126 0.001676
0.212207 0.057854 0.004607
0.164171 0.043990 -0.003560
0.241476 0.064703 -0.001745
0.203075 0.053465 0.001466
0.261045 0.068727 0.005654
0.125832 0.032542 -0.002723
0.261393 0.067601 -0.001885
0.271378 0.068921 0.001955
0.271325 0.068908 0.005864
0.164914 0.041118 -0.003560
0.252271 0.062898 -0.001815
0.242830 0.059420 0.001745
0.262205 0.064161 0.005654
0.126380 0.030341 -0.002723
0.233363 0.056026 -0.001676
0.272540 0.064175 0.001955
0.272486 0.064162 0.005864
0.165607 0.038233 -0.003560
0.185126 0.042740 -0.001326
0.243830 0.055173 0.001745
0.263285 0.059575 0.005654
0.126891 0.028131 -0.002723
0.234305 0.051944 -0.001676
0.234530 0.050921 0.001676
0.273565 0.059397 0.005864
0.166249 0.035337 -0.003560
0.215187 0.045739 -0.001536
0.244755 0.050909 0.001745
0.264284 0.054971 0.005654
0.176348 0.035878 -0.003770
0.235176 0.047847 -0.001676
0.274613 0.054624 0.001955
0.274560 0.054613 0.005864
0.166840 0.032430 -0.003560
0.176689 0.034345 -0.001257
0.245607 0.046630 0.001745
0.225914 0.042891 0.004817
0.176947 0.032795 -0.003770
0.265472 0.049202 -0.001885
0.275525 0.049823 0.001955
0.275471 0.049813 0.005864
0.167381 0.029514 -0.003560
0.187109 0.032992 -0.001326
0.246383 0.042336 0.001745
0.266042 0.045714 0.005654
0.177492 0.029702 -0.003770
0.187390 0.031358 -0.001326
0.276352 0.045007 0.001955
0.276298 0.044998 0.005864
0.167870 0.026588 -0.003560
0.187656 0.029722 -0.001326
0.247084 0.038030 0.001745
0.266799 0.041064 0.005654
0.168096 0.025122 -0.003560
0.148349 0.022171 -0.001047
0.277096 0.040177 0.001955
0.277042 0.040169 0.005864
0.168309 0.023654 -0.003560
0.217854 0.030617 -0.001536
0.247710 0.033712 0.001745
0.257569 0.035054 0.005445
0.128860 0.016965 -0.002723
0.267684 0.035241 -0.001885
0.238075 0.030287 0.001676
0.247947 0.031543 0.005236
0.079386 0.009747 -0.001675
0.178654 0.021936 -0.001257
0.278052 0.032910 0.001955
0.297855 0.035253 0.006283
0.049668 0.005659 -0.001047
0.198710 0.022640 -0.001396
0.278329 0.030482 0.001955
0.278275 0.030476 0.005864
0.169032 0.017766 -0.003560
0.218789 0.022996 -0.001536
0.298483 0.030056 0.002094
0.268583 0.027045 0.005654
0.129373 0.012457 -0.002723
0.238889 0.023002 -0.001676
0.238987 0.021960 0.001676
0.238941 0.021956 0.005026
0.169316 0.014813 -0.003560
0.219157 0.019174 -0.001536
0.249135 0.020702 0.001745
0.269014 0.022353 0.005654
0.179406 0.014120 -0.003770
0.239254 0.018830 -0.001676
0.239334 0.017786 0.001676
0.279169 0.020746 0.005864
0.219416 0.015343 -0.004607
0.149631 0.010463 -0.001047
0.249459 0.016350 0.001745
0.269363 0.017655 0.005654
0.209562 0.012817 -0.004398
0.229565 0.014041 -0.001606
0.279543 0.015874 0.001955
0.279488 0.015870 0.005864
0.169730 0.008895 -0.003560
0.219693 0.011514 -0.001536
0.249706 0.011994 0.001745
0.269630 0.012951 0.005654
0.179789 0.007850 -0.003770
0.269736 0.011777 -0.001885
0.279777 0.010992 0.001955
0.279723 0.010990 0.005864
0.169859 0.005932 -0.003560
0.249842 0.008725 -0.001745
0.249877 0.007634 0.001745
0.309787 0.009465 0.006492
0.179899 0.004711 -0.003770
0.199927 0.005235 -0.001396
0.239937 0.005235 0.001676
0.279872 0.006107 0.005864
0.169937 0.002966 -0.003560
0.179968 0.003141 -0.001257
0.249972 0.003272 0.001745
0.269918 0.003533 0.005654
0.209946 0.001832 -0.004398
0.199988 0.001745 -0.001396
0.239992 0.001047 0.001676
0.219950 0.000960 0.004607
0.219952 0.000000 -0.004607
0.249994 0.000000 -0.001745
0.279991 -0.001222 0.001955
0.299931 -0.001309 0.006283
0.179954 -0.001570 -0.003770
0.269983 -0.002356 -0.001885
0.239974 -0.003141 0.001676
0.219933 -0.002879 0.004607
0.169937 -0.002966 -0.003560
0.249956 -0.004363 -0.001745
0.249934 -0.005454 0.001745
0.269877 -0.005889 0.005654
0.209882 -0.005496 -0.004398
0.269901 -0.007068 -0.001885
0.239882 -0.007329 0.001676
0.249829 -0.007633 0.005236
0.219818 -0.007676 -0.004607
0.219861 -0.007678 -0.001536
0.239809 -0.009422 0.001676
0.259743 -0.010205 0.005445
0.209754 -0.009158 -0.004398
0.189815 -0.008287 -0.001326
0.279671 -0.013434 0.001955
0.259644 -0.012472 0.005445
0.219650 -0.011511 -0.004607
0.189735 -0.009944 -0.001326
0.279543 -0.015874 0.001955
0.299452 -0.017004 0.006283
0.209562 -0.012817 -0.004398
0.189641 -0.011599 -0.001326
0.239480 -0.015696 0.001676
0.219481 -0.014386 0.004607
0.219416 -0.015343 -0.004607
0.189533 -0.013253 -0.001326
0.289196 -0.021491 0.002025
0.269199 -0.020005 0.005654
0.169439 -0.013335 -0.003560
0.199379 -0.015691 -0.001396
0.239170 -0.019873 0.001676
0.278977 -0.023181 0.005864
0.219115 -0.019170 -0.004607
0.219157 -0.019174 -0.001536
0.248945 -0.022875 0.001745
0.268808 -0.024700 0.005654
0.208987 -0.020123 -0.004398
0.268750 -0.025878 -0.001885
0.238787 -0.024045 0.001676
0.238740 -0.024040 0.005026
0.218747 -0.022991 -0.004607
0.188955 -0.019860 -0.001326
0.278329 -0.030482 0.001955
0.258398 -0.028299 0.005445
0.168870 -0.019240 -0.003560
0.198710 -0.022640 -0.001396
0.238331 -0.028208 0.001676
0.218427 -0.025853 0.004607
0.178619 -0.021932 -0.003770
0.198504 -0.024373 -0.001396
0.208316 -0.026501 0.001466
0.267783 -0.034066 0.005654
0.128860 -0.016965 -0.002723
0.198284 -0.026105 -0.001396
0.277436 -0.037757 0.001955
0.247662 -0.033705 0.005236
0.178209 -0.025046 -0.003770
0.207951 -0.029226 -0.001466
0.286992 -0.041612 0.002025
0.306725 -0.044473 0.006492
0.207648 -0.031033 -0.004398
0.187908 -0.028083 -0.001326
0.237201 -0.036509 0.001676
0.207510 -0.031939 0.004398
0.167870 -0.026588 -0.003560
0.217286 -0.034415 -0.001536
0.246743 -0.040185 0.001745
0.266431 -0.043391 0.005654
0.207075 -0.034652 -0.004398
0.187390 -0.031358 -0.001326
0.275949 -0.047417 0.001955
0.246335 -0.042328 0.005236
0.137843 -0.024305 -0.002932
0.137870 -0.024310 -0.000977
0.246004 -0.044485 0.001745
0.265633 -0.048034 0.005654
0.206438 -0.038261 -0.004398
0.235975 -0.043735 -0.001676
0.275079 -0.052225 0.001955
0.275026 -0.052215 0.005864
0.166840 -0.032430 -0.003560
0.176689 -0.034345 -0.001257
0.245190 -0.048771 0.001745
0.303977 -0.060465 0.006492
0.205739 -0.041858 -0.004398
0.264573 -0.053828 -0.001885
0.274126 -0.057018 0.001955
0.274073 -0.057007 0.005864
0.215145 -0.045731 -0.004607
0.205406 -0.043660 -0.001466
0.244302 -0.053043 0.001745
0.302875 -0.065761 0.006492
0.165934 -0.036787 -0.003560
0.244068 -0.054109 -0.001745
0.273089 -0.061794 0.001955
0.273036 -0.061782 0.005864
0.214314 -0.049478 -0.004607
0.175382 -0.040490 -0.001257
0.243339 -0.057299 0.001745
0.253023 -0.059579 0.005445
0.204153 -0.049013 -0.004398
0.184746 -0.044354 -0.001326
0.271969 -0.066550 0.001955
0.271916 -0.066537 0.005864
0.164914 -0.041118 -0.003560
0.213460 -0.053222 -0.001536
0.281070 -0.071383 0.002025
0.251945 -0.063986 0.005445
0.203266 -0.052568 -0.004398
0.261393 -0.067601 -0.001885
0.232085 -0.061103 0.001676
0.241708 -0.063637 0.005236
0.164171 -0.043990 -0.003560
0.202839 -0.054351 -0.001466
0.241191 -0.065756 0.001745
0.250790 -0.068373 0.005445
0.202318 -0.056108 -0.004398
0.240902 -0.066808 -0.001745
0.269481 -0.076001 0.001955
0.269428 -0.075987 0.005864
0.163379 -0.046848 -0.003560
0.230697 -0.066151 -0.001676
0.240007 -0.069956 0.001745
0.259157 -0.075537 0.005654
0.172550 -0.051112 -0.003770
0.239699 -0.071002 -0.001745
0.268113 -0.080693 0.001955
0.268061 -0.080677 0.005864
0.162536 -0.049692 -0.003560
0.229508 -0.070167 -0.001676
0.238749 -0.074134 0.001745
0.257799 -0.080049 0.005654
0.171631 -0.054115 -0.003770
0.238423 -0.075175 -0.001745
0.266664 -0.085360 0.001955
0.266612 -0.085343 0.005864
0.161644 -0.052521 -0.003560
0.209227 -0.067982 -0.001536
0.237419 -0.078289 0.001745
0.256363 -0.084536 0.005654
0.170661 -0.057102 -0.003770
0.256041 -0.085670 -0.001885
0.265134 -0.090001 0.001955
0.265082 -0.089983 0.005864
0.160703 -0.055334 -0.003560
0.236374 -0.081390 -0.001745
0.236016 -0.082421 0.001745
0.254848 -0.088997 0.005654
0.169638 -0.060072 -0.003770
0.254507 -0.090126 -0.001885
0.301169 -0.108131 0.002234
0.263471 -0.094596 0.005864
0.197292 -0.071808 -0.004398
0.272504 -0.099183 -0.002025
0.234542 -0.086527 0.001745
0.253256 -0.093431 0.005654
0.168564 -0.063024 -0.003770
0.290361 -0.108562 -0.002164
0.299236 -0.113370 0.002234
0.261780 -0.099180 0.005864
0.205343 -0.078824 -0.004607
0.177376 -0.068088 -0.001326
0.279596 -0.108729 0.002094
0.251587 -0.097837 0.005654
0.195345 -0.076948 -0.004398
0.269815 -0.106283 -0.002025
0.222909 -0.088932 0.001676
0.260010 -0.103733 0.005864
0.203936 -0.082395 -0.004607
0.203975 -0.082411 -0.001536
0.277655 -0.113592 0.002094
0.249841 -0.102213 0.005654
0.193972 -0.080346 -0.004398
0.212487 -0.088015 -0.001606
0.295097 -0.123744 0.002234
0.258160 -0.108255 0.005864
0.202467 -0.085942 -0.004607
0.174892 -0.074237 -0.001326
0.275631 -0.118420 0.002094
0.248019 -0.106557 0.005654
0.192540 -0.083719 -0.004398
0.174237 -0.075760 -0.001326
0.292893 -0.128876 0.002234
0.256231 -0.112744 0.005864
0.200936 -0.089462 -0.004607
0.200975 -0.089480 -0.001536
0.273522 -0.123213 0.002094
0.246122 -0.110870 0.005654
0.191050 -0.087066 -0.004398
0.263882 -0.120258 -0.002025
0.290599 -0.133968 0.002234
0.254224 -0.117199 0.005864
0.199344 -0.092956 -0.004607
0.253760 -0.118330 -0.001955
0.271330 -0.127968 0.002094
0.244149 -0.115148 0.005654
0.189501 -0.090388 -0.004398
0.288820 -0.137760 -0.002234
0.288216 -0.139019 0.002234
0.252140 -0.121618 0.005864
0.197691 -0.096421 -0.004607
0.251656 -0.122741 -0.001955
0.295961 -0.145952 0.002304
0.277970 -0.137079 0.006492
0.187895 -0.093681 -0.004398
0.277423 -0.138318 -0.002164
0.285746 -0.144028 0.002234
0.249979 -0.126000 0.005864
0.195978 -0.099856 -0.004607
0.249476 -0.127114 -0.001955
0.222249 -0.114466 0.001745
0.239982 -0.123599 0.005654
0.186231 -0.096946 -0.004398
0.283837 -0.147756 -0.002234
0.283189 -0.148993 0.002234
0.283134 -0.148964 0.006702
0.194206 -0.103261 -0.004607
0.247219 -0.131449 -0.001955
0.290687 -0.156192 0.002304
0.273016 -0.146697 0.006492
0.184511 -0.100181 -0.004398
0.272427 -0.147916 -0.002164
0.245478 -0.134674 0.001955
0.280491 -0.153883 0.006702
0.183630 -0.101788 -0.004398
0.227396 -0.126047 -0.001815
0.287917 -0.161241 0.002304
0.261691 -0.146554 0.006283
0.182735 -0.103386 -0.004398
0.234990 -0.132951 -0.001885
0.243090 -0.138937 0.001955
0.243042 -0.138910 0.005864
0.181825 -0.104977 -0.004398
0.251141 -0.144996 -0.002025
0.285059 -0.166241 0.002304
0.293640 -0.171246 0.007120
0.155059 -0.091337 -0.003770
0.232634 -0.137032 -0.001885
0.240628 -0.143159 0.001955
0.240581 -0.143131 0.005864
0.179966 -0.108134 -0.004398
0.197144 -0.118456 -0.001606
0.239369 -0.145253 0.001955
0.222228 -0.134851 0.005445
0.221638 -0.135820 -0.005445
0.281364 -0.172420 -0.002304
0.306119 -0.189432 0.002513
0.272053 -0.168352 0.006702
0.178051 -0.111259 -0.004398
0.245928 -0.153673 -0.002025
0.236798 -0.149408 0.001955
0.287484 -0.181389 0.007120
0.143345 -0.091321 -0.003560
0.210843 -0.134322 -0.001745
0.302767 -0.194746 0.002513
0.269073 -0.173074 0.006702
0.176082 -0.114349 -0.004398
0.218049 -0.141603 -0.001815
0.275968 -0.180932 0.002304
0.284275 -0.186379 0.007120
0.175078 -0.115881 -0.004398
0.225144 -0.149019 -0.001885
0.266064 -0.177778 0.002234
0.266012 -0.177743 0.006702
0.165771 -0.111814 -0.004188
0.240415 -0.162162 -0.002025
0.272768 -0.185721 0.002304
0.280979 -0.191312 0.007120
0.205986 -0.141571 -0.005236
0.271955 -0.186909 -0.002304
0.262921 -0.182395 0.002234
0.262869 -0.182359 0.006702
0.171984 -0.120425 -0.004398
0.262122 -0.183540 -0.002234
0.302150 -0.213539 0.002583
0.277597 -0.196186 0.007120
0.146509 -0.104504 -0.003770
0.252370 -0.180014 -0.002164
0.259697 -0.186955 0.002234
0.259647 -0.186919 0.006702
0.161768 -0.117531 -0.004188
0.234609 -0.170454 -0.002025
0.258056 -0.189214 0.002234
0.274131 -0.201001 0.007120
0.136626 -0.101098 -0.003560
0.184883 -0.136806 -0.001606
0.256395 -0.191459 0.002234
0.256345 -0.191422 0.006702
0.167677 -0.126353 -0.004398
0.255557 -0.192576 -0.002234
0.254714 -0.193689 0.002234
0.270581 -0.205755 0.007120
0.166568 -0.127812 -0.004398
0.285600 -0.219149 -0.002513
0.284641 -0.220393 0.002513
0.252965 -0.195867 0.006702
0.196959 -0.153882 -0.005236
0.228518 -0.178537 -0.002025
0.290560 -0.229059 0.002583
0.266949 -0.210446 0.007120
0.164312 -0.130699 -0.004398
0.258254 -0.205425 -0.002304
0.249557 -0.200291 0.002234
0.249508 -0.200252 0.006702
0.124316 -0.100669 -0.003351
0.217596 -0.176205 -0.001955
0.286518 -0.234095 0.002583
0.263236 -0.215073 0.007120
0.131147 -0.108110 -0.003560
0.239198 -0.197179 -0.002164
0.246023 -0.204615 0.002234
0.245975 -0.204576 0.006702
0.153175 -0.128529 -0.004188
0.245128 -0.205687 -0.002234
0.274757 -0.232599 0.002513
0.259442 -0.219634 0.007120
0.159650 -0.136354 -0.004398
0.235720 -0.201324 -0.002164
0.272717 -0.234988 0.002513
0.280238 -0.241468 0.007749
0.150909 -0.131183 -0.004188
0.241501 -0.209934 -0.002234
0.240583 -0.210986 0.002234
0.255569 -0.224128 0.007120
0.157246 -0.139120 -0.004398
0.247149 -0.218659 -0.002304
0.268574 -0.239712 0.002513
0.275981 -0.246322 0.007749
0.148596 -0.133797 -0.004188
0.193213 -0.173970 -0.001815
0.266472 -0.242046 0.002513
0.281221 -0.255443 0.007958
0.184279 -0.168861 -0.005236
0.287531 -0.263474 -0.002723
0.264350 -0.244362 0.002513
0.308348 -0.285034 0.008796
0.175486 -0.163644 -0.005026
0.219401 -0.204595 -0.002094
0.320475 -0.301473 0.003072
0.269438 -0.253462 0.007749
0.145043 -0.137641 -0.004188
0.282889 -0.268452 -0.002723
0.274492 -0.262769 0.002653
0.303326 -0.290372 0.008796
0.165412 -0.159736 -0.004817
0.258956 -0.250071 -0.002513
0.257862 -0.251198 0.002513
0.272135 -0.265102 0.007958
0.142619 -0.140151 -0.004188
0.263896 -0.259330 -0.002583
0.262762 -0.260479 0.002583
0.269811 -0.267467 0.007958
0.197946 -0.197946 -0.005864
0.254552 -0.254552 -0.002513
0.281599 -0.284067 0.002793
0.267467 -0.269811 0.007958
0.203219 -0.206797 -0.006073
0.280357 -0.285293 -0.002793
0.258176 -0.265025 0.002583
0.265102 -0.272135 0.007958
0.166681 -0.172604 -0.005026
0.250071 -0.258956 -0.002513
0.276598 -0.288939 0.002793
0.262717 -0.274438 0.007958
0.172051 -0.181304 -0.005236
0.213385 -0.224861 -0.002164
0.246660 -0.262207 0.002513
0.226061 -0.240310 0.006911
0.190918 -0.204734 -0.005864
0.245513 -0.263281 -0.002513
0.271514 -0.293722 0.002793
0.257888 -0.278981 0.007958
0.141843 -0.154794 -0.004398
0.263474 -0.287531 -0.002723
0.268940 -0.296080 0.002793
0.248721 -0.273821 0.007749
0.187315 -0.208035 -0.005864
0.220808 -0.245232 -0.002304
0.266346 -0.298416 0.002793
0.306238 -0.343111 0.009634
0.158994 -0.179710 -0.005026
0.311424 -0.352001 -0.003281
0.263732 -0.300729 0.002793
0.243904 -0.278120 0.007749
0.150860 -0.173545 -0.004817
0.236175 -0.271689 -0.002513
0.287207 -0.333320 0.003072
0.247994 -0.287812 0.007958
0.181806 -0.212867 -0.005864
0.285750 -0.334570 -0.003072
0.264904 -0.312918 0.002862
0.271313 -0.320487 0.008796
0.122103 -0.145517 -0.003979
0.212115 -0.252789 -0.002304
0.281346 -0.338282 0.003072
0.268505 -0.322843 0.008796
0.253076 -0.309750 0.002793
0.259352 -0.317431 0.008586
0.275400 -0.343141 0.003072
0.231541 -0.288494 0.007749
0.247632 -0.314119 0.002793
0.253773 -0.321909 0.008586
0.244881 -0.316268 0.002793
0.281558 -0.363637 0.009634
0.242112 -0.318393 0.002793
0.254168 -0.334248 0.008796
0.257273 -0.344531 0.003002
0.251241 -0.336453 0.008796
0.266083 -0.362891 0.003142
0.248296 -0.338632 0.008796
0.257064 -0.357084 0.003072
0.245331 -0.340786 0.008796
0.196186 -0.277597 0.007120
0.170995 -0.246488 0.002094
0.159564 -0.230011 0.005864
0.146297 -0.214866 0.005445
0.133334 -0.199548 0.001676
0.144417 -0.216135 0.005445
0.164484 -0.250880 0.002094
0.148007 -0.225748 0.005654
0.151469 -0.235485 0.001955
0.162257 -0.252256 0.006283
0.128064 -0.202970 0.001676
0.117369 -0.186019 0.004607
0.147336 -0.238093 0.001955
0.157830 -0.255050 0.006283
0.114127 -0.188076 0.001536
0.119292 -0.196587 0.004817
0.117595 -0.197659 0.001606
0.102236 -0.171844 0.004188
0.130953 -0.224548 0.005445