# This PCD file was generated using the MATLAB® pcwrite function
# from Computer Vision System Toolbox®.
# .PCD v.7 - Point Cloud Data file format
VERSION .7
FIELDS x y z
SIZE 4 4 4
TYPE F F F
COUNT 1 1 1
WIDTH 792
HEIGHT 1
VIEWPOINT 0 0 0 1 0 0 0
POINTS 792
DATA ascii
38.286453 41.057198 -0.391928
38.504993 40.575794 -1.171728
38.388599 40.453144 -0.389345
38.565918 39.936180 -1.162933
38.427563 39.792908 -0.386203
38.632652 39.312874 -1.154556
38.577106 39.256348 -0.384249
38.726814 38.726814 -1.147226
38.642445 38.642445 -0.381526
38.813709 38.142124 -1.139896
38.692894 38.023399 -0.378733
38.907749 37.572777 -1.132985
38.879368 37.545368 -0.377337
38.980320 36.990944 -1.125655
38.915386 36.929321 -0.374545
39.067657 36.431179 -1.118953
39.002144 36.370087 -0.372311
39.170326 35.892990 -1.112880
39.023140 35.758118 -0.369518
39.251732 35.342419 -1.106388
39.214798 35.309162 -0.368401
39.161793 34.647427 -1.095289
39.251812 34.727070 -0.365888
39.228745 34.101028 -1.088796
39.160927 34.042072 -0.362258
39.334778 33.595074 -1.083561
35.789406 30.030878 -0.978639
35.719784 29.972456 -0.325536
35.841816 29.545713 -0.972985
35.779362 29.494228 -0.323721
35.942886 29.105976 -0.968796
35.848869 29.029842 -0.322046
35.976433 28.616945 -0.962932
35.944317 28.591400 -0.320649
36.067219 28.178801 -0.958744
36.034855 28.153513 -0.319253
36.121387 27.716915 -0.953718
36.049099 27.661446 -0.317228
36.178238 27.262259 -0.948901
36.105431 27.207394 -0.315623
36.286179 26.850359 -0.945550
36.245022 26.819906 -0.314785
36.389690 26.438660 -0.942199
36.315887 26.385036 -0.313389
36.415539 25.974953 -0.936964
36.349373 25.927755 -0.311713
36.517979 25.570164 -0.933823
36.410419 25.494852 -0.310317
36.574940 25.137259 -0.929634
36.466694 25.062864 -0.308921
36.627136 24.705315 -0.925446
36.551376 24.654215 -0.307804
36.899693 24.423374 -0.926912
36.831841 24.378462 -0.308362
36.561539 23.970797 0.305221
36.717331 23.844513 -0.917069
36.682556 23.821930 -0.305360
36.651588 23.575092 0.304243
36.543541 23.505594 0.910158
36.822826 23.458729 -0.914555
36.711933 23.388083 -0.303894
36.720608 23.168978 0.303126
28.714619 18.117575 0.711205
36.856567 23.030539 -0.910367
36.821350 23.008533 -0.303126
36.785339 22.763460 0.302009
28.863127 17.861044 0.710995
36.919746 22.624451 -0.907016
36.841682 22.576612 -0.301660
36.785961 22.322269 0.300404
28.693098 17.411398 0.703037
36.978657 22.219019 -0.903665
36.900154 22.171848 -0.300543
30.877720 18.370314 0.250837
36.824669 21.908375 0.299147
28.637733 17.037661 0.698011
37.067772 21.834585 -0.901152
29.630705 17.453819 -0.240086
30.475080 17.951195 -0.246927
37.040535 21.818542 -0.300124
36.928066 21.535812 0.298449
29.070326 16.953314 0.704922
30.122416 17.391186 -0.728587
29.496107 17.029585 -0.237782
30.646671 17.516016 0.246438
29.182442 16.679140 0.704084
27.462402 15.537479 -0.660943
29.359362 16.610727 -0.706597
29.373789 16.618891 -0.235618
30.885607 17.296770 0.247137
37.071453 20.761011 0.296634
29.710697 16.638790 0.713299
27.631922 15.316624 -0.661780
29.438982 16.318295 -0.234989
30.807428 16.901533 0.245321
37.128475 20.369377 0.295656
30.056368 16.489489 0.718116
27.755743 15.070139 -0.661571
29.442703 15.986083 -0.701780
29.817537 16.189602 -0.236874
32.231007 17.318344 0.255444
30.542591 16.411125 0.726283
27.877369 14.822660 -0.661362
29.378052 15.620587 -0.696964
28.712755 15.266843 -0.227031
28.177320 14.824805 0.222283
28.224915 14.849846 0.668063
29.516712 15.529493 0.698639
29.043234 15.118951 -0.685864
28.161907 14.660161 -0.221655
28.198936 14.523407 0.221446
29.491119 15.188925 0.694870
28.345610 14.442809 -0.666388
28.449144 14.495564 -0.222912
28.869307 14.551328 0.225704
29.515409 14.876991 0.692356
28.613724 14.266276 -0.669739
28.708796 14.313677 -0.223959
28.950346 14.276731 0.225355
27.653490 13.637192 0.645864
28.467550 13.884552 -0.663456
28.616905 13.957397 -0.222283
28.245209 13.623871 0.218932
28.194677 13.599498 0.655707
28.596655 13.639905 -0.663665
28.557102 13.621039 -0.220887
28.552954 13.466447 0.220398
28.737280 13.553381 0.665550
28.596800 13.334908 -0.660943
28.511747 13.295246 -0.219630
28.669382 13.216765 0.220398
29.108685 13.419288 0.671414
28.830349 13.138746 -0.663665
28.863268 13.153749 -0.221446
28.847448 12.994828 0.220887
41.365635 18.633860 0.316740
28.349581 12.770555 0.651309
29.647182 13.199776 -0.679791
29.104849 12.958314 -0.222423
41.501358 18.477596 -0.317159
28.538717 12.557336 0.217676
41.435143 18.231899 0.316042
28.542303 12.558914 0.653194
28.972742 12.597707 -0.661780
31.252645 13.589037 -0.237921
41.569321 18.074854 -0.316461
28.867716 12.402550 0.219351
28.687557 12.325147 0.654032
28.879107 12.258453 -0.657173
28.820305 12.233494 -0.218583
28.624420 12.003216 0.216698
41.627136 17.455708 0.315134
28.720261 12.043405 0.652356
28.901850 11.971539 -0.655288
28.889009 11.966219 -0.218304
28.774353 11.771898 0.217047
28.333836 11.591678 0.641257
28.819824 11.643965 -0.651100
28.964518 11.702425 -0.218095
28.875986 11.520350 0.217047
28.257477 11.273590 0.637278
29.050568 11.443323 -0.654032
29.056232 11.445555 -0.218025
28.639904 11.137449 0.214534
28.606367 11.124408 0.642932
28.953314 11.114136 -0.649634
29.845839 11.456744 -0.223191
42.010094 16.126165 -0.314157
28.548983 10.816242 0.213138
28.552765 10.817676 0.639582
29.423786 11.001102 -0.658011
28.830067 10.779120 -0.214883
28.492176 10.511319 0.212021
28.674219 10.578478 0.640210
33.060532 12.033050 -0.736964
28.829067 10.492922 -0.214185
29.119276 10.454888 0.216000
28.906586 10.378525 0.643351
29.281448 10.369104 -0.650681
29.183470 10.334409 -0.216140
29.284927 10.226754 0.216559
29.052687 10.145653 0.644608
41.936676 14.644943 0.930472
29.436991 10.135969 -0.652147
29.196901 10.053300 -0.215581
29.373056 9.970809 0.216559
29.405199 9.981720 0.650472
29.600172 9.904078 -0.653822
29.596460 9.902837 -0.217885
29.449451 9.710973 0.216489
29.272802 9.652722 0.645655
29.799574 9.682468 -0.656335
29.948040 9.730708 -0.219840
29.571169 9.465806 0.216768
29.422575 9.418241 0.647121
30.474110 9.608450 -0.669320
30.136721 9.502071 -0.220608
29.814997 9.257802 0.217955
29.923761 9.291574 0.656335
30.499432 9.324612 -0.668063
30.294996 9.262110 -0.221166
29.990404 9.026087 0.218653
30.271767 9.110767 0.662199
31.164392 9.231314 -0.680838
30.873243 9.145071 -0.224797
30.663244 8.937521 0.222981
30.897226 9.005720 0.674137
30.965059 8.879087 -0.674765
30.490479 8.743004 -0.221446
31.076921 8.764599 0.225425
33.040283 9.318323 0.239667
31.003506 8.743894 0.674765
31.012461 8.600516 -0.674137
31.220865 8.658313 -0.226193
31.094337 8.477289 0.225006
33.226467 9.058575 0.240435
31.290836 8.530861 0.679372
33.219990 9.056808 0.721257
31.231190 8.368372 -0.677278
31.034441 8.315653 -0.224308
32.724770 8.768576 -0.236525
33.391281 8.791191 0.241063
42.761730 11.258224 0.308711
31.509115 8.295658 0.682513
32.803329 8.483518 -0.709739
32.790363 8.480165 -0.236455
33.505497 8.509312 0.241342
32.772202 8.323078 0.708273
32.604488 8.129211 -0.703875
33.066872 8.244497 -0.237921
33.656181 8.235616 0.241901
33.115501 8.103312 0.714137
32.518639 7.807035 -0.700524
34.394901 8.257485 -0.740943
32.661110 7.841238 -0.234501
33.843571 7.969103 0.242738
33.184952 7.814019 0.714137
33.364857 7.702884 -0.717278
32.660088 7.540175 -0.234012
34.277504 7.913585 -0.245601
31.746618 7.183527 0.227240
33.765530 7.640359 0.241691
32.715557 7.402775 0.702618
32.337593 7.169072 -0.693822
32.451290 7.194277 -0.232057
32.189209 6.988962 0.229963
32.847305 7.131849 0.704084
31.929516 6.786828 -0.683770
32.512833 6.910816 -0.232057
32.092327 6.675214 0.228846
31.537928 6.559898 0.674765
31.977728 6.505942 -0.683561
31.533209 6.415504 -0.224657
33.453815 6.806255 -0.238340
33.630306 6.689484 0.239387
33.172688 6.598458 0.708482
32.043098 6.228548 -0.683770
32.432171 6.304175 -0.230661
31.987806 6.073075 0.227310
34.319290 6.515720 0.731728
32.253517 5.977836 -0.687121
31.945173 5.920688 -0.226821
32.206867 5.823950 0.228497
33.066353 5.979371 0.703875
31.831852 5.612814 -0.677068
32.488014 5.728514 -0.230312
32.226898 5.537594 0.228287
33.205956 5.705827 0.705760
35.058395 6.024134 0.745131
31.958506 5.348020 -0.678744
32.309929 5.406828 -0.228706
32.273994 5.256154 0.228287
32.820301 5.345125 0.696545
32.655689 5.172153 -0.692566
32.266991 5.110590 -0.228078
33.346504 5.132518 0.235548
32.539608 5.008325 0.689634
35.405228 5.449386 0.750367
32.284286 4.824919 -0.683770
32.181793 4.809601 -0.227170
33.882858 5.063827 -0.239178
33.706703 4.887239 0.237782
32.423763 4.701222 0.686283
35.164497 5.098609 0.744294
32.137051 4.516568 -0.679791
35.711136 5.018873 -0.755393
32.341366 4.545283 -0.228008
33.856441 4.758213 -0.238689
34.451569 4.688653 0.242738
32.552711 4.430230 0.688168
35.138306 4.782114 0.742828
32.125679 4.229426 -0.678744
35.991467 4.738367 -0.760419
33.946243 4.469108 -0.239038
34.044781 4.331043 0.239597
32.738903 4.164914 0.691309
35.277878 4.487913 0.744922
32.220905 3.956230 -0.680000
36.210068 4.446037 -0.764189
33.934326 4.166611 -0.238689
34.031628 4.027908 0.239248
36.097160 4.272380 0.253769
35.583767 4.211617 0.750576
36.297153 4.135538 -0.765236
33.979328 3.871456 -0.238759
34.105244 3.735132 0.239527
36.182770 3.962658 0.254118
35.827873 3.923790 0.754974
36.361691 3.821768 -0.765864
34.170940 3.591511 -0.239876
36.289219 3.814151 -0.254746
36.215973 3.646757 0.254118
36.179070 3.643041 0.761676
36.363800 3.501436 -0.765236
34.310471 3.303723 -0.240644
36.301216 3.495409 -0.254607
36.296204 3.335153 0.254467
36.209480 3.327184 0.761676
36.462688 3.190072 -0.766702
36.370182 3.181979 -0.254886
36.393684 3.024082 0.254956
36.316845 3.017697 0.763351
36.489140 2.871758 -0.766702
36.476315 2.870748 -0.255444
36.418690 2.706376 0.254956
36.341797 2.700662 0.763351
36.552704 2.556014 -0.767540
36.499981 2.552327 -0.255444
36.480835 2.391080 0.255235
36.403885 2.386037 0.764189
36.533699 2.234497 -0.766702
36.480938 2.231270 -0.255165
36.500309 2.072638 0.255235
36.463249 2.070533 0.765027
36.641666 1.920308 -0.768587
36.578907 1.917019 -0.255724
36.556961 1.755957 0.255514
36.479931 1.752257 0.765027
36.686993 1.601789 -0.769215
36.634205 1.599484 -0.256003
36.610859 1.438445 0.255793
36.533791 1.435417 0.765864
36.789501 1.284718 -0.771100
36.686745 1.281129 -0.256282
36.622017 1.118904 0.255793
36.584900 1.117770 0.766702
36.829292 0.964409 -0.771728
36.786491 0.963288 -0.256910
36.760353 0.802114 0.256701
36.683220 0.800431 0.768587
36.846302 0.643155 -0.771938
36.783501 0.642058 -0.256841
36.795952 0.481685 0.256910
36.718800 0.480675 0.769215
36.960484 0.322549 -0.774241
36.917694 0.322176 -0.257748
36.848751 0.160784 0.257259
36.761585 0.160404 0.770053
37.011883 0.000000 -0.775288
36.959099 0.000000 -0.258027
36.928749 -0.161133 0.257818
36.841568 -0.160753 0.771728
37.080452 -0.323596 -0.776754
36.997688 -0.322874 -0.258307
36.925938 -0.483387 0.257818
36.888748 -0.482900 0.772775
37.116203 -0.647866 -0.777592
37.073448 -0.647119 -0.258865
36.990295 -0.807131 0.258307
36.953094 -0.806319 0.774241
37.189091 -0.973831 -0.779267
37.096378 -0.971403 -0.259075
37.061802 -1.132340 0.258865
36.984627 -1.129982 0.775079
37.179176 -1.298325 -0.779267
37.126465 -1.296485 -0.259354
37.330288 -1.466711 0.260820
37.293037 -1.465248 0.781781
37.516022 -1.637985 -0.786597
37.473385 -1.636123 -0.261867
37.236160 -1.788581 0.260261
37.039162 -1.779119 0.776754
37.390472 -1.959552 -0.784294
37.257961 -1.952607 -0.260471
37.219135 -2.113456 0.260261
37.102081 -2.106809 0.778430
37.371948 -2.285766 -0.784294
37.319351 -2.282549 -0.261029
37.279102 -2.443401 0.260820
37.202000 -2.438348 0.780943
37.470261 -2.620176 -0.786807
37.417717 -2.616502 -0.261867
37.336136 -2.774554 0.261378
37.259068 -2.768827 0.782618
37.485836 -2.950199 -0.787644
37.433334 -2.946067 -0.262146
37.390228 -3.106888 0.261937
37.313194 -3.100487 0.784294
37.458664 -3.277209 -0.787644
37.446045 -3.276104 -0.262426
37.361691 -3.433057 0.261937
37.324539 -3.429643 0.785131
37.508255 -3.611634 -0.789320
37.455845 -3.606588 -0.262705
37.409904 -3.766979 0.262495
37.372768 -3.763240 0.786807
37.584682 -3.950309 -0.791623
37.542286 -3.945853 -0.263543
37.494892 -4.106359 0.263333
37.418015 -4.097939 0.788482
37.677914 -4.292856 -0.794346
37.625648 -4.286901 -0.264380
37.576794 -4.447507 0.264171
37.499969 -4.438414 0.790995
37.748177 -4.634893 -0.796650
37.666210 -4.624829 -0.264939
37.615910 -4.785348 0.264729
37.539154 -4.775583 0.792671
37.706291 -4.964128 -0.796650
37.664074 -4.958569 -0.265218
37.612354 -5.118816 0.265009
37.575302 -5.113774 0.794346
37.740738 -5.304115 -0.798325
37.698586 -5.298191 -0.265777
37.685005 -5.464066 0.265846
37.608398 -5.452959 0.796021
37.851223 -5.656903 -0.801676
37.769596 -5.644704 -0.266614
37.705074 -5.803366 0.266335
37.628551 -5.791588 0.797487
37.879414 -5.999510 -0.803351
37.827541 -5.991294 -0.267382
37.781300 -6.153076 0.267243
37.704861 -6.140626 0.800210
37.943947 -6.349639 -0.805864
37.832993 -6.331072 -0.267801
37.529060 -6.448672 0.265846
37.492184 -6.442336 0.796859
37.778786 -6.661419 -0.803561
37.687675 -6.645354 -0.267173
37.628799 -6.804395 0.266963
37.591949 -6.797732 0.800210
37.758537 -6.998131 -0.804398
37.716740 -6.990385 -0.267801
37.646584 -7.147427 0.267522
37.609776 -7.140439 0.801885
37.853058 -7.357889 -0.807749
37.801540 -7.347875 -0.268848
37.739697 -7.506893 0.268639
37.702923 -7.499578 0.805236
37.914768 -7.713847 -0.810472
37.814373 -7.693421 -0.269407
37.790234 -7.860380 0.269477
37.714348 -7.844596 0.806911
38.031818 -8.083912 -0.814451
37.990326 -8.075093 -0.271152
37.915642 -8.232293 0.270873
37.800781 -8.207354 0.810262
38.115997 -8.450113 -0.817801
37.986752 -8.421460 -0.271641
37.959396 -8.589334 0.271711
37.844734 -8.563389 0.812775
38.118740 -8.800405 -0.819477
38.067711 -8.788624 -0.272758
37.999802 -8.947765 0.272548
37.885345 -8.920815 0.815288
38.205757 -9.172391 -0.823037
38.106247 -9.148500 -0.273596
38.075680 -9.317060 0.273665
38.000278 -9.298609 0.819477
38.269772 -9.541726 -0.826178
38.228722 -9.531490 -0.275062
38.303074 -9.727741 0.275899
38.266533 -9.718462 0.827016
38.523827 -9.962938 -0.833508
38.482929 -9.952363 -0.277505
38.410130 -10.112543 0.277296
38.334961 -10.092753 0.830367
38.589931 -10.340140 -0.836859
38.539501 -10.326629 -0.278552
38.513371 -10.499950 0.278692
38.438343 -10.479495 0.834555
38.652374 -10.719253 -0.840210
38.563549 -10.694619 -0.279390
38.526146 -10.865497 0.279460
38.460899 -10.847095 0.837068
38.711128 -11.100238 -0.843561
38.670616 -11.088620 -0.280856
38.669865 -11.271238 0.281205
38.518353 -11.227076 0.840419
38.814098 -11.497259 -0.847959
38.754551 -11.479621 -0.282183
38.684940 -11.642845 0.282043
38.610382 -11.620406 0.844608
38.903507 -11.893995 -0.852147
38.777214 -11.855384 -0.283090
38.772865 -12.039294 0.283439
38.698471 -12.016194 0.848796
38.912651 -12.269113 -0.854660
38.901165 -12.265491 -0.284766
38.856800 -12.438160 0.284835
38.744488 -12.402207 0.852147
38.984764 -12.666918 -0.858639
38.944817 -12.653937 -0.285883
38.898727 -12.826877 0.285952
38.824680 -12.802460 0.856336
39.062366 -13.070085 -0.862828
39.013084 -13.053596 -0.287209
38.974693 -13.230126 0.287349
38.900826 -13.205050 0.860524
39.135883 -13.475566 -0.867016
44.174393 -15.210464 -0.978639
39.096241 -13.461915 -0.288675
39.046570 -13.635673 0.288745
38.925694 -13.593460 0.863665
39.205284 -13.883320 -0.871205
44.209614 -15.655445 -0.982409
39.128094 -13.855985 -0.289792
39.340199 -14.124575 0.291817
39.229023 -14.084659 0.873089
39.373882 -14.330920 -0.877697
44.278000 -16.115873 -0.987016
39.409748 -14.343975 -0.292794
39.168533 -14.450035 0.291468
39.132759 -14.436836 0.873718
44.248055 -16.543669 -0.989529
39.245609 -14.673331 -0.292515
39.190563 -14.847976 0.292585
39.117477 -14.820286 0.876231
44.298008 -17.004414 -0.993927
39.349457 -15.104841 -0.294260
39.283173 -15.276391 0.294260
39.219608 -15.251672 0.881466
44.287464 -17.445297 -0.997069
39.392921 -15.517283 -0.295587
39.343414 -15.696430 0.295726
39.233597 -15.652618 0.884817
44.254051 -17.879797 -0.999791
39.478527 -15.950360 -0.297262
44.550098 -17.999409 -0.335450
39.427063 -16.130037 0.297402
39.354603 -16.100393 0.890681
44.484280 -18.425993 -1.008587
39.522602 -16.370798 -0.298658
44.511433 -18.437239 -0.336357
39.506126 -16.566294 0.299077
39.470764 -16.551466 0.896545
47.966190 -20.360439 -1.091519
39.553131 -16.789307 -0.299985
47.947929 -20.352688 -0.363654
39.580563 -17.005152 0.300753
39.471798 -16.958424 0.899896
48.080082 -20.905815 -1.098220
37.314266 -16.224705 -0.284067
48.034435 -20.885967 -0.365678
37.124130 -16.335007 0.283160
39.659481 -17.450588 0.302498
37.071136 -16.311689 0.848377
39.496178 -17.378735 0.903875
36.004063 -16.030043 -0.825550
48.023914 -21.381624 -0.367005
36.907227 -16.625494 0.282601
39.624214 -17.849407 0.303406
36.845341 -16.597614 0.846493
35.890099 -16.356060 -0.826178
48.135777 -21.936737 -0.369309
36.724415 -16.930187 0.282322
36.826210 -16.977116 0.849425
39.686234 -18.295603 0.915393
35.302006 -16.461596 -0.815917
36.561501 -17.048906 -0.845027
48.349976 -22.545965 -1.117488
34.810432 -16.232372 -0.268150
48.232525 -22.491196 -0.371543
35.064873 -16.537666 0.270663
36.484833 -17.207363 0.281624
34.434097 -16.240175 0.797487
39.669746 -18.709467 0.918744
34.173409 -16.299879 -0.793089
34.712585 -16.557053 -0.268499
48.314213 -23.044697 -0.373707
34.594975 -16.686636 0.268150
34.561218 -16.670353 0.803770
37.523865 -18.099363 0.872671
34.002907 -16.584326 -0.792461
34.431961 -16.793589 -0.267452
34.026524 -16.780024 0.264869
34.046791 -16.790018 0.795184
34.000046 -16.951797 -0.795812
34.579422 -17.240664 -0.269756
33.762711 -17.017807 0.263961
34.577488 -17.428490 0.811100
33.147083 -16.889282 -0.779267
32.422935 -16.520311 -0.254048
34.294006 -17.473669 -0.268709
33.426231 -17.215639 0.262495
35.152916 -18.104942 0.828273
32.359928 -16.845512 -0.764189
32.428326 -16.881119 -0.255235
33.823402 -17.795353 0.266824
37.301319 -19.625174 0.294260
34.807777 -18.313257 0.823875
32.308796 -17.178890 -0.766493
32.306267 -17.177546 -0.255444
31.684868 -17.024893 0.251116
31.625849 -16.993181 0.752042
34.329590 -18.445953 0.816335
31.876492 -17.307524 -0.759791
32.146347 -17.454042 -0.255374
31.841940 -17.469086 0.253559
31.230923 -17.133871 0.746178
31.453171 -17.434778 -0.753299
32.036541 -17.758144 -0.255724
32.595657 -18.254444 0.260820
30.879585 -17.293398 0.741362
32.528240 -18.216690 0.780943
32.378834 -18.319061 -0.779267
32.654949 -18.475283 -0.261937
32.556664 -18.607666 0.261797
32.237831 -18.425440 0.777801
31.239344 -18.036043 -0.755603
31.773697 -18.344553 -0.256142
33.609627 -19.404528 -0.270943
36.588680 -21.124485 -0.294958
32.626270 -19.027079 0.263682
31.453989 -18.343424 0.762723
31.700998 -18.673315 -0.770681
31.801958 -18.732784 -0.257678
32.381645 -19.265055 0.263054
30.820147 -18.336061 0.751205
32.882271 -19.562895 0.801466
31.605396 -18.990438 -0.772356
31.534416 -18.947788 -0.256841
30.853018 -18.722071 0.251954
31.094873 -18.868832 0.761885
31.591915 -19.359550 -0.776126
31.470182 -19.284952 -0.257678
31.368729 -19.411558 0.257539
30.588963 -18.929024 0.753508
31.014795 -19.380196 -0.766074
31.037804 -19.394573 -0.255514
30.834484 -19.455111 0.254537
30.617088 -19.317944 0.758325
30.928814 -19.703827 -0.768168
32.455017 -20.676126 -0.806074
31.027615 -19.766771 -0.256841
30.486921 -19.609846 0.253071
30.724825 -19.762873 0.765236
33.698776 -21.884243 -0.841676
49.864799 -32.382580 -1.245446
30.786846 -19.993212 -0.256282
30.615690 -20.072525 0.255584
30.467585 -19.975424 0.763142
31.947485 -20.945690 0.800210
32.047543 -21.211805 -0.805027
30.711266 -20.327343 -0.257120
32.028774 -21.199383 -0.268150
32.069000 -21.427822 0.269267
31.879866 -21.301445 0.803142
31.106956 -20.981907 -0.785969
30.458097 -20.544247 -0.256492
32.244480 -21.954485 0.272339
31.122543 -21.190584 0.788692
30.724926 -21.116657 -0.780943
34.548031 -23.744205 -0.878116
30.821568 -21.183077 -0.261099
31.139660 -21.602350 0.264590
30.936438 -21.461370 0.788692
31.399401 -21.986097 -0.802932
31.077871 -21.760960 -0.264869
30.884630 -21.827099 0.264031
30.870445 -21.817074 0.791833
31.564476 -22.514721 -0.812147
31.603195 -22.542339 -0.271013
30.676748 -22.084099 0.263892
30.678883 -22.085634 0.791833
31.701241 -22.821629 0.818220
31.488125 -22.877460 -0.815288
31.639883 -22.987720 -0.273037
30.466734 -22.339134 0.263752
31.910234 -23.397552 0.276248
30.742989 -22.541693 0.798534
31.960453 -23.434374 0.830158
31.287285 -23.151373 -0.815288
31.413961 -23.245108 -0.272828
31.800989 -23.746925 0.277086
31.290110 -23.365433 0.818011
31.235769 -23.537840 -0.819267
31.337694 -23.614647 -0.273945
30.963724 -23.545362 0.271571
31.188477 -23.716269 0.820733
31.314720 -24.028629 -0.826807
31.273226 -23.996790 -0.275201
31.223570 -24.175871 0.275690
31.193768 -24.152796 0.826388
31.080206 -24.282518 -0.826178
30.952309 -24.182594 -0.274224
30.194700 -23.803583 0.268429
29.859053 -23.538979 0.796440
31.305285 -24.901348 -0.837906
29.855774 -23.748354 -0.266335
31.123568 -24.756804 -0.277645
29.923439 -24.016098 0.267871
29.356211 -23.560850 0.788482
31.646214 -25.626598 -0.852985
35.266918 -28.558588 -0.950576
29.647396 -24.007988 -0.266335
33.292122 -26.959429 -0.299077
35.289337 -28.576742 -0.317019
30.789101 -25.155750 0.277575
30.883747 -25.233080 0.835393
34.808067 -28.693556 -0.944922
39.791668 -32.801720 -1.080210
30.601885 -25.226248 -0.276877
34.521641 -28.457445 -0.312342
30.207060 -25.122946 0.274294
33.328480 -27.719006 0.302638
29.924448 -24.887901 0.815288
32.948006 -27.646658 -0.900943
34.334240 -28.809849 -0.938849
30.296320 -25.421631 -0.276109
33.038692 -27.722754 -0.301102
29.612698 -25.069000 0.270873
31.001747 -26.244917 0.283579
30.408144 -25.742393 0.834555
33.518948 -28.627884 -0.923351
30.970581 -26.451374 -0.284347
33.145287 -28.308750 -0.304313
30.430643 -26.220720 0.280437
30.038439 -25.882774 0.830576
33.433846 -29.063601 -0.927959
36.316204 -31.569197 -1.007959
30.746119 -26.727194 -0.284417
30.072859 -26.373190 0.279250
29.375456 -25.761583 0.818430
30.420284 -26.677874 0.847540
33.545856 -29.678867 -0.938220
36.151653 -31.984280 -1.011100
47.855263 -42.338760 -1.338430
30.564138 -27.040865 -0.284905
33.499973 -29.638273 -0.312272
30.028078 -26.801085 0.280996
33.087849 -29.532032 0.929006
33.226147 -29.916958 -0.936545
47.060471 -42.373436 -1.326493
46.779827 -42.120747 -0.439470
33.117496 -30.081816 0.937173
45.811737 -41.978722 -1.301571
45.651100 -41.831528 -0.432280
32.883091 -30.396818 0.938011
45.736141 -42.649643 -1.309948
45.584164 -42.507923 -0.435142
45.681313 -43.349945 -1.319163
45.472610 -43.151897 -0.437655
45.524223 -43.962231 -1.325655
45.410816 -43.852715 -0.440727
45.445480 -44.659149 -1.334660
45.276035 -44.492638 -0.443170
48.637028 -48.214432 1.434556
45.343884 -45.343884 -1.343247
45.147667 -45.147667 -0.445753
45.233768 -46.030220 -1.351833
45.053349 -45.846622 -0.448755
45.108166 -46.710873 -1.360210
44.929409 -46.525764 -0.451548
45.063572 -47.487099 -1.371310
44.872742 -47.286003 -0.455108
44.947472 -48.200264 -1.380524
44.785740 -48.026829 -0.458459
44.689201 -48.769707 -0.461810
48.154976 -57.900066 0.525759
47.813156 -57.489071 1.566284
46.654552 -57.102322 0.514798
46.571011 -58.026276 1.558535
0.151872 -0.210963 0.005445
0.153895 -0.221839 0.001885
0.153865 -0.221796 0.005654
0.129417 -0.190074 0.004817
0.133334 -0.199548 0.001676
0.144417 -0.216135 0.005445
0.148007 -0.225748 0.005654
0.151469 -0.235485 0.001955
0.140623 -0.218622 0.005445
0.128064 -0.202970 0.001676
0.138709 -0.219841 0.005445
0.147336 -0.238093 0.001955
0.136786 -0.221043 0.005445
0.134878 -0.222272 0.001815
0.140038 -0.230776 0.005654
0.138046 -0.232034 0.001885
0.127795 -0.214804 0.005236
0.115843 -0.198639 0.004817