# This PCD file was generated using the MATLAB® pcwrite function
# from Computer Vision System Toolbox®.
# .PCD v.7 - Point Cloud Data file format
VERSION .7
FIELDS x y z
SIZE 4 4 4
TYPE F F F
COUNT 1 1 1
WIDTH 1073
HEIGHT 1
VIEWPOINT 0 0 0 1 0 0 0
POINTS 1073
DATA ascii
29.725245 32.439411 -0.307175
29.939980 32.106697 -0.919582
30.034475 32.208031 -0.307455
29.847391 31.452587 -0.908273
30.101011 31.719849 -0.305291
29.967936 31.032705 -0.903665
30.126600 31.197006 -0.302777
30.181541 30.712959 -0.901990
30.145372 30.676155 -0.300264
30.307020 30.307020 -0.897802
30.270504 30.270504 -0.298868
30.320757 29.796125 -0.890472
30.169758 29.647739 -0.295307
30.313522 29.273428 -0.882723
30.132410 29.098530 -0.292445
30.401024 28.849495 -0.877906
30.305403 28.758753 -0.291677
30.417641 28.364910 -0.871205
30.350439 28.302242 -0.289722
30.339680 27.801195 -0.861990
30.301359 27.766081 -0.286930
30.343378 27.321301 -0.855288
30.185806 27.179422 -0.283579
30.311079 26.816977 -0.847749
30.242096 26.755945 -0.281903
30.453398 26.472734 -0.845236
30.406507 26.431974 -0.281275
30.500797 26.050140 -0.840210
30.400290 25.964300 -0.279111
30.543152 25.628748 -0.835184
30.441864 25.543756 -0.277435
30.457058 25.106861 -0.826807
30.455280 25.105396 -0.275550
30.426361 24.638783 -0.820105
30.300182 24.536604 -0.272199
30.515024 24.272747 -0.816754
30.387934 24.171654 -0.271082
30.575991 23.888582 -0.812775
30.566193 23.880926 -0.270803
30.592928 23.474779 -0.807749
30.519560 23.418482 -0.268569
30.668861 23.110645 -0.804398
30.555050 23.024881 -0.267103
30.676487 22.699406 -0.799372
30.602085 22.644352 -0.265777
30.679285 22.289804 -0.794346
30.596277 22.229496 -0.264031
30.677284 21.881895 -0.789320
30.601856 21.828093 -0.262426
30.727844 21.515867 -0.785760
30.660114 21.468443 -0.261309
30.593094 21.026051 -0.777592
30.640265 21.058470 -0.259563
30.640936 20.862671 0.258795
30.709106 20.713552 -0.775917
30.673643 20.689632 -0.258307
30.688795 20.505598 0.257678
30.583057 20.434946 0.770472
30.721952 20.334417 -0.771728
30.652895 20.288710 -0.256631
30.532064 20.017698 0.254886
30.434139 19.953497 0.762304
30.696995 19.934862 -0.766702
30.719755 19.949642 -0.255724
30.537382 19.642303 0.253490
30.346441 19.519487 0.755812
30.768604 19.601763 -0.764189
30.724001 19.573347 -0.254327
30.606144 19.311039 0.252652
30.549444 19.275265 0.756650
30.768915 19.226553 -0.760000
30.724033 19.198507 -0.252931
30.679960 18.985336 0.251884
30.648474 18.965851 0.754974
30.833231 18.894629 -0.757487
29.432421 18.036211 -0.240993
30.779560 18.861738 -0.252023
30.776077 18.675383 0.251325
29.701672 18.023417 0.727749
30.735889 18.650995 0.753089
30.859825 18.542454 -0.754137
30.480127 18.314308 -0.248254
30.757406 18.298733 0.249859
30.596750 18.203154 0.745760
30.917088 18.211557 -0.751623
30.707714 18.088226 -0.248812
30.786346 17.954067 0.248812
30.547161 17.814577 0.740733
30.875692 17.826090 -0.746807
30.795113 17.779566 -0.248254
30.837671 17.625181 0.247974
30.458414 17.408419 0.734870
30.916956 17.491972 -0.744084
30.905577 17.485535 -0.247905
30.475542 17.067123 0.243855
30.548109 17.107763 0.733404
30.928514 17.143955 -0.740733
30.645927 16.987314 -0.244623
30.518114 16.742811 0.243018
30.485868 16.725121 0.728377
30.769426 16.706434 -0.733404
30.608454 16.619034 -0.243157
30.522120 16.400127 0.241901
30.524977 16.401661 0.725864
30.622734 16.282396 -0.726493
30.584558 16.262098 -0.241831
30.451683 16.021404 0.240225
30.560768 16.078798 0.723351
30.701580 15.982231 -0.725027
30.503559 15.879148 -0.240086
30.563665 15.741322 0.240016
30.486601 15.701631 0.718325
30.697351 15.641082 -0.721676
30.569689 15.576035 -0.239527
30.655220 15.451503 0.239667
30.622459 15.434991 0.718325
30.608990 15.261080 -0.716440
30.677603 15.295288 -0.239318
30.681269 15.130327 0.238829
30.648388 15.114112 0.715812
30.678099 14.962708 -0.714974
30.693069 14.970010 -0.238410
30.740082 14.827255 0.238270
30.671055 14.793961 0.713299
30.834576 14.707338 -0.715603
30.605921 14.598275 -0.236735
30.687416 14.473125 0.236874
30.581964 14.423390 0.708273
30.934563 14.425023 -0.714974
30.768400 14.347540 -0.237014
30.739897 14.171287 0.236316
30.597713 14.105739 0.705760
30.877312 14.071602 -0.710786
30.783239 14.028730 -0.236176
30.680044 13.820353 0.234919
30.610254 13.788915 0.703246
30.816263 13.720284 -0.706597
30.804003 13.714826 -0.235408
30.762869 13.535986 0.234640
30.692814 13.505161 0.702409
30.888977 13.430910 -0.705550
30.812468 13.397642 -0.234570
30.843069 13.251228 0.234361
30.699268 13.189446 0.699896
30.121517 12.785825 -0.685445
30.891390 13.112617 -0.234291
30.736210 12.888762 0.232685
30.739437 12.890116 0.698220
29.705450 12.304400 -0.673508
30.228601 12.521097 -0.228427
30.810493 12.604905 0.232406
30.776726 12.591091 0.696545
29.700455 11.999763 -0.670995
30.040026 12.136958 -0.226193
30.770710 12.276269 0.231289
30.736855 12.262761 0.693194
29.897062 11.776766 -0.673089
30.219227 11.903669 -0.226751
30.876669 12.007279 0.231289
30.805422 11.979573 0.692356
30.670725 11.773388 -0.688168
30.826075 11.833021 -0.230521
30.868061 11.694862 0.230451
30.833996 11.681956 0.690681
30.772297 11.505291 -0.688168
30.825130 11.525044 -0.229753
30.818834 11.369668 0.229334
30.794067 11.360531 0.687540
30.871527 11.236317 -0.688168
30.736597 11.187206 -0.228357
30.803940 11.059745 0.228497
30.807344 11.060966 0.685655
25.549406 9.047520 -0.567749
30.845890 10.923102 -0.685445
30.833052 10.918556 -0.228357
30.823755 10.764137 0.227938
30.789431 10.752151 0.683142
22.517313 7.753333 -0.498848
24.729342 8.514995 -0.547854
30.864410 10.627469 -0.683770
30.813700 10.610007 -0.227519
30.840763 10.469028 0.227380
30.664341 10.409141 0.678325
23.219353 7.769087 -0.512880
30.955976 10.357725 -0.683770
23.479921 7.856272 -0.172856
30.876665 10.331188 -0.227310
30.741011 10.136866 0.225983
29.567144 9.749783 0.652147
30.978626 10.065566 -0.682304
30.803970 10.008817 -0.226123
22.390280 7.167185 0.164129
30.666397 9.816391 0.224797
24.385508 7.805862 0.536335
29.155964 9.332897 0.641257
30.950863 9.758770 -0.679791
22.507172 7.096484 -0.164758
30.737549 9.691512 -0.225006
22.614321 7.021934 0.165316
29.347048 9.112500 0.214534
22.676748 7.041318 0.497382
28.968950 8.995098 0.635393
21.559942 6.591536 -0.472252
30.834064 9.426920 -0.675393
22.348297 6.832560 -0.163152
24.404303 7.461144 -0.178162
30.055925 9.189019 -0.219421
22.598133 6.801266 0.164758
29.071157 8.749426 0.211951
29.448435 8.862973 0.644189
21.463266 6.357709 -0.468901
30.445436 9.018349 -0.665131
21.304455 6.310667 -0.155124
24.631479 7.296176 -0.179349
29.367933 8.699178 -0.213836
24.730282 7.208220 0.179837
29.367208 8.559761 0.213557
29.313492 8.544104 0.639582
21.652475 6.208748 -0.471833
29.609978 8.490524 -0.645236
22.243053 6.378093 -0.161546
29.106295 8.346096 -0.211393
29.652523 8.362877 0.215093
29.348446 8.277118 0.638744
20.992903 5.821847 -0.456335
24.730968 6.858505 -0.537592
29.018183 8.047455 -0.630786
22.240049 6.167711 -0.161127
29.274380 8.118504 -0.212091
29.840145 8.135357 0.215930
29.718578 8.102215 0.645236
21.236050 5.690183 -0.460524
24.152506 6.471645 -0.523770
29.164562 7.814621 -0.632461
21.201555 5.680940 -0.153239
29.595245 7.930022 -0.213906
22.115801 5.822605 0.159661
29.300777 7.714251 0.211532
29.614120 7.796747 0.641466
21.323614 5.514662 -0.461361
23.065899 5.965247 -0.499058
30.141506 7.795124 -0.652147
24.561308 6.351986 -0.177115
29.430971 7.611367 -0.212230
21.933161 5.570313 0.157986
24.453100 6.210296 0.176137
29.551130 7.505031 0.212859
29.797314 7.567554 0.643979
21.225414 5.292090 -0.458220
29.616632 7.384255 -0.639372
22.180420 5.530200 -0.159592
29.767948 7.421983 -0.214185
29.770908 7.284895 0.213976
30.017599 7.345260 0.647330
22.466541 5.393739 -0.483979
29.845209 7.165201 -0.642932
22.111153 5.308418 -0.158754
24.182251 5.805645 -0.173624
29.899647 7.178270 -0.214674
21.881033 5.152299 0.156939
29.872282 7.033988 0.214255
30.158407 7.101362 0.649006
21.791878 5.031052 -0.468482
24.470808 5.649531 -0.526074
30.042982 6.935969 -0.645864
30.039097 6.935072 -0.215232
22.344547 5.056055 0.159941
30.088577 6.808350 0.215372
24.768261 5.604486 0.531937
30.180223 6.829088 0.648168
21.688540 4.808233 -0.465341
30.141409 6.682189 -0.646702
30.186337 6.692150 -0.215861
22.338959 4.850264 0.159592
24.596308 5.340382 0.175718
30.264111 6.570982 0.216210
30.072577 6.529397 0.644608
21.729673 4.618784 -0.465341
30.169235 6.412669 -0.646074
21.900190 4.655029 -0.156310
24.502001 5.208061 -0.174881
30.282711 6.436789 -0.216140
22.351063 4.649028 0.159382
30.153866 6.272013 0.215023
24.764418 5.151006 0.529843
30.157776 6.272826 0.645236
21.436050 4.361214 -0.458220
24.453556 4.975132 -0.522723
30.253439 6.155132 -0.646702
21.499023 4.374026 -0.153169
24.311340 4.946198 -0.173205
30.298534 6.164306 -0.215861
30.217258 6.010586 0.215093
30.211367 6.009415 0.645236
23.612770 4.589858 -0.503875
24.800278 4.820686 -0.529215
30.364883 5.902336 -0.647958
21.771961 4.232040 -0.154844
23.705719 4.607925 -0.168597
30.194117 5.869142 -0.214744
24.423122 4.636875 0.173554
30.258736 5.744800 0.215023
25.017523 4.749725 0.533403
30.223370 5.738086 0.644398
21.872623 4.053851 -0.465969
30.257948 5.607979 -0.644608
21.906385 4.060109 -0.155542
23.440226 4.344389 -0.166433
30.273682 5.610895 -0.214953
21.559807 3.898648 0.152959
30.268354 5.473410 0.214744
30.232939 5.467006 0.643561
22.054855 3.888866 -0.469110
30.266352 5.336774 -0.643770
21.901590 3.861841 -0.155263
30.341187 5.349970 -0.215093
24.352497 4.184524 0.172507
30.226267 5.193823 0.214115
24.209801 4.160005 0.514555
30.190815 5.187731 0.641676
21.989346 3.679754 -0.467016
23.931902 4.004827 -0.508273
30.410378 5.088952 -0.645864
22.210611 3.716782 -0.157218
30.357132 5.080041 -0.214883
21.861437 3.560361 0.154635
30.240831 4.925032 0.213906
30.165861 4.912823 0.640210
22.366234 3.542464 -0.474346
24.904037 3.944412 -0.528168
30.414129 4.817125 -0.645027
24.474321 3.876352 -0.172996
30.331169 4.803985 -0.214395
22.959078 3.533740 0.162175
30.282660 4.660947 0.213906
22.984247 3.537614 0.487121
30.227348 4.652434 0.640629
23.909159 3.573248 -0.506388
30.306688 4.529365 -0.641885
23.696243 3.541427 -0.167271
30.273037 4.524336 -0.213696
22.989042 3.333252 0.162175
24.473482 3.548486 0.172647
30.233112 4.383593 0.213278
22.747095 3.298172 0.481466
24.844696 3.602309 0.525864
30.197536 4.378434 0.639163
24.038435 3.378382 -0.508482
30.374762 4.268894 -0.642513
23.468781 3.298322 -0.165456
30.321270 4.261376 -0.213766
23.185698 3.155435 0.163361
25.464634 3.465585 0.179418
30.270216 4.119596 0.213278
25.241726 3.435248 0.533613
30.204876 4.110703 0.638534
21.836740 2.874861 -0.461361
24.255335 3.193275 -0.512461
30.381121 3.999750 -0.641885
23.357872 3.075122 -0.164478
30.307732 3.990088 -0.213417
23.867058 3.036273 0.167969
30.185974 3.840141 0.212440
23.485525 2.987736 0.495917
30.120583 3.831822 0.636021
23.865499 2.930315 -0.503665
30.365252 3.728384 -0.640838
23.999182 2.946729 -0.168807
30.311621 3.721799 -0.213208
30.188545 3.573050 0.212230
25.188622 2.981270 0.531309
30.192589 3.573528 0.636859
24.585510 2.801165 -0.518325
30.337030 3.456468 -0.639582
24.272369 2.765487 -0.170552
30.323074 3.454878 -0.213068
30.218576 3.309472 0.212230
30.192808 3.306650 0.636231
24.459873 2.570836 -0.515184
30.366037 3.191599 -0.639582
24.444752 2.569247 -0.171599
30.302343 3.184905 -0.212719
30.246305 3.045643 0.212230
30.220514 3.043046 0.636231
24.441568 2.353455 -0.514346
30.342974 2.921696 -0.638534
24.555826 2.364457 -0.172228
30.328983 2.920349 -0.212719
24.565908 2.257290 0.172228
30.231901 2.777921 0.211951
30.206095 2.775550 0.635393
30.367315 2.656796 -0.638534
30.313465 2.652085 -0.212440
30.264957 2.514824 0.212021
30.229166 2.511850 0.635393
30.269739 2.382280 -0.636021
30.265673 2.381960 -0.211951
30.235889 2.246915 0.211672
30.200083 2.244254 0.634346
30.379137 2.124316 -0.637906
30.365110 2.123335 -0.212510
30.304237 1.986245 0.212021
30.218517 1.980626 0.634346
30.396519 1.859131 -0.637906
30.342558 1.855830 -0.212230
30.270498 1.718883 0.211672
30.234652 1.716848 0.634346
30.361664 1.591187 -0.636859
30.347612 1.590451 -0.212160
30.284346 1.454661 0.211672
30.248482 1.452939 0.634346
30.374393 1.326175 -0.636859
30.320375 1.323816 -0.211881
30.295887 1.190329 0.211672
30.260010 1.188919 0.634346
30.434769 1.062806 -0.637906
30.370747 1.060570 -0.212160
30.305120 0.925905 0.211672
30.269232 0.924809 0.634346
30.312958 0.793773 -0.635184
30.298876 0.793404 -0.211602
30.272057 0.660539 0.211393
30.236168 0.659756 0.633508
30.448681 0.531484 -0.637906
30.384630 0.530366 -0.212160
30.326662 0.396998 0.211742
30.290760 0.396528 0.634555
30.402172 0.265316 -0.636859
30.388102 0.265193 -0.212160
30.318972 0.132292 0.211672
30.283068 0.132136 0.634346
30.403330 0.000000 -0.636859
30.389259 0.000000 -0.212160
30.328972 -0.132336 0.211742
30.283068 -0.132136 0.634346
30.452160 -0.265752 -0.637906
30.438099 -0.265629 -0.212510
30.366657 -0.397521 0.212021
30.280762 -0.396397 0.634346
30.448681 -0.531484 -0.637906
30.384630 -0.530366 -0.212160
30.362032 -0.662502 0.212021
30.326128 -0.661718 0.635393
30.432890 -0.796913 -0.637697
30.428827 -0.796807 -0.212510
30.345100 -0.927127 0.211951
30.359171 -0.927557 0.636231
30.464743 -1.063852 -0.638534
30.420715 -1.062315 -0.212510
30.375822 -1.193469 0.212230
30.349920 -1.192452 0.636231
30.414347 -1.327919 -0.637697
30.400297 -1.327306 -0.212440
30.374239 -1.458979 0.212300
30.328373 -1.456776 0.636021
30.491457 -1.597990 -0.639582
30.427500 -1.594638 -0.212719
30.400286 -1.726253 0.212579
30.364414 -1.724216 0.637068
30.476351 -1.864014 -0.639582
30.462332 -1.863156 -0.213068
30.423977 -1.994093 0.212859
30.388117 -1.991742 0.637906
30.478872 -2.131290 -0.640000
30.474838 -2.131008 -0.213278
30.485195 -2.265441 0.213417
30.449341 -2.262777 0.639582
30.508947 -2.401106 -0.641047
30.494959 -2.400005 -0.213557
30.464266 -2.531385 0.213417
30.428436 -2.528408 0.639582
30.566509 -2.674223 -0.642723
30.522661 -2.670387 -0.213906
30.480846 -2.800796 0.213696
30.445036 -2.797506 0.640419
30.551962 -2.941819 -0.642932
30.538012 -2.940476 -0.214185
30.534840 -3.074697 0.214255
30.499044 -3.071092 0.642095
30.554955 -3.211455 -0.643561
30.550968 -3.211036 -0.214464
30.506845 -3.341043 0.214255
30.510836 -3.341480 0.642932
30.575434 -3.483631 -0.644608
30.561525 -3.482046 -0.214744
30.555971 -3.616538 0.214813
30.480515 -3.607607 0.642932
30.623257 -3.760063 -0.646283
30.609377 -3.758359 -0.215302
30.523249 -3.883048 0.214813
30.408201 -3.868412 0.642095
30.628927 -4.032375 -0.647121
30.615070 -4.030550 -0.215581
30.498110 -4.150610 0.214883
30.412912 -4.139016 0.642932
30.622274 -4.303680 -0.647749
30.618343 -4.303127 -0.215861
30.411245 -4.409421 0.214534
30.415211 -4.409996 0.643770
30.652767 -4.581087 -0.649215
30.530176 -4.562765 -0.215512
30.401258 -4.679201 0.214744
30.375570 -4.675247 0.643770
30.611624 -4.848405 -0.649215
30.538580 -4.836836 -0.215861
30.408617 -4.952358 0.215093
30.363218 -4.944964 0.644398
30.508984 -5.105453 -0.647958
30.495207 -5.103148 -0.215861
30.393808 -5.222611 0.215302
30.368176 -5.218207 0.645445
30.542036 -5.385385 -0.649634
30.488905 -5.376017 -0.216140
30.396276 -5.496542 0.215651
30.360836 -5.490133 0.646283
30.562691 -5.664460 -0.651100
30.509657 -5.654631 -0.216629
30.425747 -5.776509 0.216210
30.390348 -5.769788 0.647958
30.551352 -5.938581 -0.651938
30.459148 -5.920659 -0.216629
30.452641 -6.057407 0.216768
30.456511 -6.058177 0.650472
30.498365 -6.204963 -0.651938
30.455318 -6.196204 -0.216978
30.427992 -6.329031 0.216978
30.441637 -6.331870 0.651309
30.570189 -6.497894 -0.654660
30.517462 -6.486687 -0.217815
30.498640 -6.621904 0.217885
31.049593 -6.741528 0.665550
30.541603 -6.770910 -0.655288
30.528032 -6.767902 -0.218304
30.907845 -6.993731 0.221236
31.233362 -7.067389 0.670786
30.530060 -7.048420 -0.656335
30.506783 -7.043046 -0.218583
31.273914 -7.364029 0.224308
30.888283 -7.273225 0.664712
30.545162 -7.333245 -0.658011
31.037291 -7.451395 -0.222842
30.985058 -7.581995 0.222702
30.862480 -7.552001 0.665550
30.771030 -7.672080 -0.664294
31.271870 -7.796953 -0.225006
30.946789 -7.859483 0.222912
30.882614 -7.843185 0.667435
31.332066 -8.103024 -0.677906
31.154232 -8.057033 -0.224657
30.954386 -8.149610 0.223470
30.890341 -8.132749 0.669110
31.173248 -8.352846 -0.676021
31.005463 -8.307889 -0.224098
30.997862 -8.450987 0.224308
30.972527 -8.444080 0.672461
31.070267 -8.616548 -0.675393
31.018509 -8.602194 -0.224727
30.961430 -8.732026 0.224587
30.888037 -8.711328 0.672252
31.032333 -8.898378 -0.676231
30.836523 -8.842231 -0.223959
30.999254 -9.035459 0.225425
30.926022 -9.014113 0.674765
31.030188 -9.191561 -0.677906
31.017063 -9.187673 -0.225844
31.110735 -9.363269 0.226821
30.970640 -9.321105 0.677487
31.063528 -9.497073 -0.680419
31.050459 -9.493078 -0.226682
31.113792 -9.661089 0.227449
30.964504 -9.614734 0.679163
31.065283 -9.794847 -0.682304
31.004583 -9.775707 -0.226961
31.171154 -9.977965 0.228497
30.984163 -9.918109 0.681466
31.083220 -10.099550 -0.684608
31.032217 -10.082979 -0.227799
31.234842 -10.299706 0.229614
25.484335 -8.403473 0.562095
30.972391 -10.213163 0.683142
31.107676 -10.408483 -0.687121
31.104258 -10.407339 -0.228985
31.153242 -10.575101 0.229683
25.220686 -8.561270 0.557906
30.957825 -10.508765 0.684817
31.166910 -10.731627 -0.690472
31.144623 -10.723953 -0.229963
31.201382 -10.896010 0.230731
25.060066 -8.751367 0.556021
30.978207 -10.818074 0.687330
31.100348 -11.013210 -0.691100
31.087559 -11.008682 -0.230242
31.189814 -11.198287 0.231359
25.048611 -8.993370 0.557487
31.033178 -11.142049 0.690681
31.172163 -11.345739 -0.694870
31.112465 -11.324011 -0.231150
31.128429 -11.483884 0.231638
24.228167 -8.938243 0.540943
31.009804 -11.440121 0.692356
31.184343 -11.659348 -0.697383
31.134224 -11.640610 -0.232057
31.129892 -11.794062 0.232406
24.813046 -9.400822 0.555812
31.049028 -11.763425 0.695498
31.146746 -11.956116 -0.698849
31.134148 -11.951280 -0.232825
31.146944 -12.112384 0.233314
24.879152 -9.674973 0.559163
31.094282 -12.091905 0.698849
31.152851 -12.271434 -0.701362
31.103102 -12.251838 -0.233384
31.142225 -12.424488 0.234082
23.846598 -9.513828 0.537801
31.182585 -12.440590 0.703246
31.128006 -12.576530 -0.703246
31.115532 -12.571491 -0.234291
25.970034 -10.624621 0.195894
31.106659 -12.726069 0.234640
23.522079 -9.623137 0.532356
31.174622 -12.753874 0.705550
26.417160 -10.942346 -0.598953
31.164860 -12.908907 -0.706597
26.071245 -10.799064 -0.197011
31.143221 -12.899944 -0.235338
31.105082 -13.043443 0.235478
23.658487 -9.920827 0.537382
31.181997 -13.075696 0.708273
31.152256 -13.223348 -0.708901
25.939194 -11.010535 -0.196732
31.139921 -13.218112 -0.236176
23.612358 -10.144670 0.179418
25.909281 -11.131505 0.196872
31.164639 -13.389385 0.236804
23.938448 -10.284769 0.545759
31.121819 -13.370989 0.709529
31.182373 -13.558481 -0.712252
25.915485 -11.268374 -0.197290
31.170113 -13.553150 -0.237293
25.692167 -11.304824 0.195964
31.165596 -13.713191 0.237712
31.132067 -13.698438 0.712461
25.573664 -11.386128 -0.586388
26.843212 -11.951368 -0.615498
31.163336 -13.874810 -0.714555
25.843571 -11.506299 -0.197500
31.123735 -13.857180 -0.237852
31.190619 -14.050349 0.238829
31.120729 -14.018867 0.714974
25.436937 -11.592280 -0.585550
31.195728 -14.216713 -0.718116
25.541990 -11.640156 -0.195964
31.201811 -14.219484 -0.239387
25.490957 -11.751493 0.195964
31.130390 -14.351306 0.239318
31.142479 -14.356879 0.718325
25.552275 -11.915221 -0.590576
31.152027 -14.526429 -0.720000
25.375999 -11.833023 -0.195475
31.158102 -14.529262 -0.240016
25.694944 -12.118523 0.198338
31.184853 -14.707732 0.240714
25.536211 -12.043659 0.591414
31.115477 -14.675012 0.720629
23.579382 -11.246788 -0.547225
25.284893 -12.060275 -0.586807
31.186506 -14.875200 -0.723770
25.289824 -12.062627 -0.195615
31.156485 -14.860881 -0.240993
25.399071 -12.251058 0.196872
31.199427 -15.048817 0.241831
25.412130 -12.257357 0.590995
31.157324 -15.028509 0.724608
23.444393 -11.434595 -0.546388
25.385363 -12.381269 -0.591623
31.253201 -15.243205 -0.728377
25.462215 -12.418752 -0.197779
31.196381 -15.215491 -0.242320
24.663399 -12.162642 0.191985
31.165567 -15.369158 0.242599
24.784126 -12.222178 0.578848
31.105692 -15.339630 0.726493
23.692665 -11.812727 -0.554555
25.088455 -12.508643 -0.587225
31.280043 -15.595654 -0.732147
23.070847 -11.502699 -0.179977
25.719788 -12.823413 -0.200641
31.232449 -15.571924 -0.243646
23.413338 -11.801293 0.183049
24.256916 -12.226493 0.569006
31.184914 -15.718491 0.731519
23.241262 -11.842014 -0.546388
25.067425 -12.772491 -0.589320
31.312010 -15.954267 -0.736126
23.121056 -11.780766 -0.181164
31.273567 -15.934678 -0.245042
24.189568 -12.458446 0.189960
31.239302 -16.089296 0.245321
24.504827 -12.620815 0.577383
31.224323 -16.081583 0.735707
23.092697 -12.021297 -0.545341
23.381035 -12.171397 -0.184026
24.062227 -12.659750 0.189820
31.257002 -16.445105 0.246578
22.261406 -11.712292 0.526911
31.188972 -16.409311 0.738220
23.066360 -12.264602 -0.547225
24.646490 -13.104772 -0.584712
31.293627 -16.639116 -0.742409
23.309248 -12.393747 -0.184305
31.264412 -16.623583 -0.247206
23.950836 -12.869248 0.189820
31.218006 -16.774040 0.247416
24.087078 -12.942453 0.572775
31.220728 -16.775503 0.742409
24.627842 -13.371827 -0.587016
31.252668 -16.968815 -0.744922
23.604452 -12.816172 -0.187517
31.241186 -16.962580 -0.248184
31.210712 -17.122784 0.248533
23.850504 -13.084834 0.569843
31.213392 -17.124254 0.745760
24.510214 -13.586233 -0.587016
31.269541 -17.332991 -0.748901
23.334286 -12.934405 -0.186260
31.231909 -17.312130 -0.249301
31.234596 -17.492214 0.249929
23.848810 -13.355975 0.572566
31.219784 -17.483919 0.749529
24.286301 -13.740527 -0.584503
31.334635 -17.728283 -0.754137
31.297228 -17.707119 -0.251046
31.254396 -17.863359 0.251325
23.748711 -13.573506 0.572985
31.256983 -17.864838 0.754137
24.113518 -13.921946 -0.583246
31.308611 -18.076035 -0.757278
23.598618 -13.624668 -0.190239
31.306055 -18.074560 -0.252373
23.659878 -13.798033 0.191217
31.270082 -18.236174 0.252722
31.203531 -18.197361 0.756650
21.217272 -12.497929 -0.515812
23.913580 -14.086175 -0.581362
31.313351 -18.444973 -0.761257
23.478823 -13.830083 -0.190239
31.284992 -18.428268 -0.253490
23.366692 -13.901720 0.189820
31.273037 -18.605501 0.254048
31.249756 -18.591652 0.761676
21.013132 -12.625964 -0.513508
23.849733 -14.330366 -0.582828
31.399721 -18.866856 -0.767330
20.922943 -12.571773 -0.170413
23.648670 -14.209555 -0.192613
31.354416 -18.839634 -0.255374
23.723227 -14.395607 0.193730
31.289013 -18.986639 0.255514
21.778378 -13.215444 0.533613
31.223082 -18.946630 0.765027
21.098215 -12.929004 -0.518325
22.317225 -13.676012 -0.548273
31.395849 -19.239401 -0.771309
23.839237 -14.608704 -0.195196
31.359341 -19.217030 -0.256771
31.326212 -19.385248 0.257190
21.747240 -13.457600 0.535707
20.738707 -12.958982 -0.512252
31.328505 -19.576223 -0.773822
24.601276 -15.372583 -0.202526
31.334614 -19.580040 -0.257958
21.176508 -13.361382 0.174811
23.696716 -14.951514 0.195615
31.282709 -19.737921 0.258237
23.049484 -14.543141 0.570890
31.285067 -19.739407 0.774870
21.113890 -13.451032 -0.524398
22.420860 -14.283663 -0.556859
31.358849 -19.977791 -0.778849
20.662586 -13.163520 -0.171041
24.550528 -15.640410 -0.203224
31.297493 -19.938702 -0.259075
20.991821 -13.502394 0.174252
31.311119 -20.139988 0.259912
22.425591 -14.424624 0.558534
23.636421 -15.203457 0.588691
31.254564 -20.103611 0.778430
21.272406 -13.814462 -0.531309
31.451633 -20.424931 -0.785550
20.756590 -13.479487 -0.172786
31.390675 -20.385342 -0.261309
21.124073 -13.849549 0.176347
31.267977 -20.500185 0.261029
22.240334 -14.581401 0.557068
23.611542 -15.480405 0.591414
31.178272 -20.441370 0.780943
20.775877 -13.751253 -0.521885
24.502529 -16.217871 -0.615498
31.472286 -20.831051 -0.790576
21.055103 -13.936069 -0.176277
31.461746 -20.824076 -0.263403
21.301733 -14.233362 0.178860
31.021376 -20.727819 0.260471
30.541494 -20.407173 0.769424
21.044647 -14.194794 -0.531728
23.655542 -15.955865 -0.597697
19.465328 -13.129529 -0.163920
21.471550 -14.482743 -0.180815
24.397982 -16.456646 -0.205458
20.813023 -14.171082 0.175788
29.971415 -20.406809 0.253141
31.368317 -21.357927 0.264939
19.313166 -13.149866 0.489424
29.940779 -20.385950 0.758744
21.125961 -14.519471 -0.536964
31.474716 -21.631973 -0.800000
19.547796 -13.434829 -0.165596
25.176441 -17.303289 -0.213278
31.398443 -21.579552 -0.265986
19.784777 -13.725187 0.168109
21.107595 -14.642860 0.179349
19.279825 -13.374890 0.491519
26.377296 -18.298582 0.672461
20.932934 -14.657398 -0.535288
31.448540 -22.020504 -0.804189
19.741083 -13.822855 -0.168248
31.372759 -21.967442 -0.267382
19.574421 -13.833833 0.167341
21.248495 -15.016952 0.181652
19.448135 -13.744583 0.498848
25.008245 -17.674080 0.641466
21.634445 -15.431700 -0.556650
31.531918 -22.491499 -0.811309
21.418858 -15.277923 -0.183677
26.734901 -19.069820 -0.229265
31.497362 -22.466850 -0.270105
19.306875 -13.898961 0.166084
21.092295 -15.184278 0.181443
25.726269 -18.520264 0.221306
18.929869 -13.627555 0.488587
25.104591 -18.072720 0.647958
20.859972 -15.155657 -0.540105
22.243088 -16.160549 -0.575917
23.307211 -16.933680 -0.201130
26.963879 -19.590405 -0.232685
19.475163 -14.279780 0.168597
20.967049 -15.373676 0.181513
18.729599 -13.733110 0.486492
20.831400 -15.414425 -0.542828
24.801582 -18.352205 -0.646283
31.560535 -23.353567 -0.822409
19.412670 -14.364620 -0.168597
20.650579 -15.280625 -0.179349
24.669765 -18.254667 -0.214255
24.004980 -17.925367 0.209159
18.857378 -14.081472 0.492985
21.805346 -16.282824 0.570053
31.394251 -23.443199 0.820733
20.576323 -15.505372 -0.539686
31.547169 -23.772497 -0.827435
26.985237 -20.334833 -0.235897
21.101500 -16.045952 0.185073
31.481112 -23.938793 0.276109
21.081469 -16.030722 0.554765
31.506807 -23.958334 0.829110
20.583004 -15.793895 -0.543456
31.592333 -24.241650 -0.834137
26.648088 -20.447798 -0.234501
19.339796 -14.974470 0.170762
20.604868 -15.953994 0.181932
19.098871 -14.787926 0.505969
31.430923 -24.336420 0.832671
18.592976 -14.526424 -0.494241
20.775286 -16.231432 -0.552252
26.116827 -20.404701 -0.694241
18.312923 -14.307624 -0.162244
20.802977 -16.253067 -0.184305
18.635117 -14.690742 0.165665
31.490442 -24.825062 0.279949
18.812067 -14.830237 0.501780
31.468599 -24.807844 0.839372
18.363785 -14.607214 -0.491519
22.346388 -17.775118 -0.598116
31.571314 -25.112957 -0.845027
18.664749 -14.846612 -0.166503
20.676004 -16.446436 -0.184445
22.194227 -17.654085 -0.197989
18.701174 -15.009279 0.167411
18.674137 -14.987579 0.501571
18.530867 -15.006000 -0.499477
20.597622 -16.679625 -0.555184
18.480082 -14.964874 -0.166014
21.681845 -17.557611 -0.194777
18.561739 -15.165577 0.167341
18.604574 -15.200575 0.503246
21.724691 -17.749817 0.587644
18.545786 -15.287967 -0.503456
31.645098 -26.086206 -0.859058
18.263908 -15.055605 -0.165246
21.766998 -17.943329 -0.196941
18.813101 -15.646691 0.170831
21.796135 -18.127653 0.197919
18.694132 -15.547746 0.509320
21.576656 -17.945116 0.587854
31.507915 -26.204857 0.858430
18.120636 -15.205019 -0.495498
31.577085 -26.496321 -0.863456
18.285036 -15.342966 -0.166643
18.874279 -15.978256 0.172647
31.581789 -26.735958 0.288885
18.511959 -15.671530 0.508063
24.168005 -20.641426 -0.665760
31.648758 -27.030592 -0.871833
18.553453 -15.846147 -0.170343
31.624514 -27.009886 -0.290351
31.566963 -27.199837 0.290909
21.563145 -18.579994 0.596231
31.530514 -27.168428 0.871833
20.101053 -17.473579 -0.557906
22.394867 -19.467562 -0.621571
31.675760 -27.535318 -0.879163
18.648418 -16.210823 -0.172507
22.323765 -19.405754 -0.206506
18.306852 -16.054680 0.169994
22.389244 -19.634840 0.207902
31.621613 -27.731409 0.293632
31.540279 -27.660082 0.878744
18.285488 -16.177633 -0.511414
18.446329 -16.319935 -0.171948
22.393230 -19.811857 -0.208740
18.076530 -16.133919 0.169156
20.120678 -17.958391 0.188285
31.579840 -28.186085 0.295517
20.340523 -18.154610 0.571100
18.195625 -16.383415 -0.512880
31.747614 -28.585680 -0.894870
18.095135 -16.292933 -0.169994
20.703396 -18.805641 0.195266
18.175770 -16.509706 0.514346
20.810369 -18.902807 0.588901
18.169901 -16.649647 -0.516231
22.405312 -20.530685 -0.212160
31.685244 -29.289539 0.301241
18.596310 -17.190252 0.530472
18.133595 -16.909849 -0.519372
22.294085 -20.789570 -0.638534
31.726477 -29.585419 -0.908692
17.661762 -16.469858 -0.168597
22.100969 -20.609488 -0.210974
31.718037 -29.577549 -0.302777
18.179697 -17.101751 0.174252
31.697931 -29.818438 0.303824
18.001381 -16.934010 0.517697
18.007095 -17.088095 -0.520000
20.233507 -19.200880 -0.584294
31.749926 -30.129555 -0.916859
17.807507 -16.898693 -0.171390
22.333733 -21.193920 -0.214953
31.777876 -30.156078 -0.305849
17.834732 -17.073042 0.172367
17.600149 -16.848476 0.510367
20.252167 -19.557289 -0.589739
31.665585 -30.579100 -0.922095
17.889545 -17.275732 -0.173624
31.743692 -30.654528 -0.308083
17.477341 -17.025673 0.170343
31.616796 -30.799721 0.308153
17.473934 -17.022352 0.510995
20.331352 -19.805927 0.594555
18.055540 -17.743130 -0.530262
31.739815 -31.190630 -0.932147
17.887886 -17.578377 -0.175090
31.760269 -31.210730 -0.310876
17.818117 -17.663300 0.175160
20.186142 -20.010750 0.595393
23.580084 -23.375202 0.695498
17.709141 -17.709141 -0.524608
31.826965 -31.826965 -0.942828
17.755018 -17.755018 -0.175299
31.769533 -31.769533 -0.313668
18.944574 -19.110622 0.187866
18.926804 -19.092697 0.563142
17.750137 -18.062672 -0.530472
21.183840 -21.556831 -0.633089
31.835325 -32.395863 -0.951414
17.466232 -17.773767 -0.173973
31.750416 -32.309460 -0.316251
20.060987 -20.593180 0.200711
31.829210 -32.960114 -0.959791
19.012337 -19.687851 -0.191077
21.165724 -21.917749 -0.212719
19.216679 -20.074005 0.194009
21.208189 -22.154364 0.214115
19.206020 -20.062870 0.581780
31.822535 -33.533955 -0.968377
21.221455 -22.362747 -0.215232
31.787439 -33.496971 -0.322395
19.815010 -21.063974 0.201898
19.201468 -20.411760 0.587016
21.539602 -23.098396 -0.661571
31.849157 -34.154037 -0.978220
19.975245 -21.420828 -0.204481
21.502884 -23.059021 -0.220119
31.800808 -34.102192 -0.325536
20.058073 -21.698702 0.206296
21.123764 -22.851559 0.217257
19.925219 -21.554981 0.614869
31.720188 -34.314705 0.978849
31.799810 -34.703403 -0.985969
19.895647 -21.712288 -0.205598
31.758722 -34.658562 -0.328189
19.854507 -21.858109 0.206157
19.958193 -21.972256 0.621780
31.695143 -34.893631 0.987435
20.123034 -22.348894 -0.629948
31.783422 -35.299068 -0.994974
19.973063 -22.182333 -0.208391
21.344746 -23.705742 -0.222702
19.969305 -22.373716 0.209368
21.214474 -23.768808 0.222423
31.735147 -35.556229 0.332727
19.845579 -22.235092 0.624294
31.629099 -35.437412 0.994974
19.927240 -22.523647 -0.629948
19.758848 -22.333315 -0.208181
31.758604 -35.896572 -0.334612
31.693981 -36.140060 0.335589
31.641659 -36.080395 1.005236
31.746292 -36.519932 -1.013613
31.713121 -36.481773 -0.337474
31.664604 -36.748581 0.338661
31.664957 -36.748993 1.016126
31.809483 -37.244118 -1.025969
31.679304 -37.091698 -0.340546
31.601154 -37.328789 0.341453
31.478716 -37.184162 1.020524
31.586082 -37.642826 -1.029320
31.630808 -37.696129 -0.343548
31.581123 -37.972172 0.344804
31.434320 -37.795662 1.029739
31.451015 -38.494122 0.347038
31.375301 -38.401451 1.038744
30.957420 -38.572147 0.345293
31.245504 -38.931091 1.045655
30.966324 -39.280594 0.349203
30.861254 -39.147316 1.044189
30.677460 -39.620487 0.349831
30.842863 -39.834110 1.055289
30.227646 -39.751369 0.348644
30.330681 -39.886871 1.049634
29.843704 -39.965565 0.348225
29.760120 -39.853634 1.041885
29.476068 -40.200283 0.348016
29.251585 -39.894127 1.036231
29.042343 -40.342358 0.347038
0.151872 -0.210963 0.005445
0.199494 -0.287569 0.002443
0.131071 -0.188937 0.004817
0.129417 -0.190074 0.004817
0.155556 -0.232806 0.001955
0.166635 -0.249386 0.006283
0.148007 -0.225748 0.005654
0.173108 -0.269126 0.002234
0.162257 -0.252256 0.006283
0.149408 -0.236798 0.001955
0.138709 -0.219841 0.005445
0.147336 -0.238093 0.001955
0.157830 -0.255050 0.006283
0.114127 -0.188076 0.001536
0.140038 -0.230776 0.005654
0.117595 -0.197659 0.001606
0.081789 -0.137475 0.003351
0.110806 -0.190002 0.004607