# This PCD file was generated using the MATLAB® pcwrite function
# from Computer Vision System Toolbox®.
# .PCD v.7 - Point Cloud Data file format
VERSION .7
FIELDS x y z
SIZE 4 4 4
TYPE F F F
COUNT 1 1 1
WIDTH 771
HEIGHT 1
VIEWPOINT 0 0 0 1 0 0 0
POINTS 771
DATA ascii
1.311830 1.509088 -0.041885
1.331767 1.532023 -0.014172
1.358073 1.535022 -0.042932
1.404720 1.587747 -0.014800
1.364727 1.515683 -0.042723
1.391758 1.545704 -0.014521
1.350884 1.474231 -0.041885
1.425461 1.555617 -0.014730
1.363698 1.462387 -0.041885
1.391243 1.491925 -0.014242
1.355761 1.428674 -0.041257
1.369792 1.443460 -0.013893
1.333452 1.380829 -0.040209
1.361497 1.409872 -0.013683
1.275375 1.297831 -0.038115
1.352722 1.376540 -0.013474
1.300791 1.300791 -0.038534
1.357612 1.357612 -0.013404
1.319224 1.296398 -0.038743
1.397937 1.373749 -0.013683
1.344870 1.298726 -0.039162
1.323553 1.278140 -0.012846
1.254622 1.190592 -0.036230
1.392685 1.321609 -0.013404
1.316148 1.227328 -0.037696
1.345658 1.254846 -0.012846
1.297324 1.188778 -0.036859
1.386048 1.270079 -0.013125
1.277929 1.150652 -0.036021
1.367353 1.231170 -0.012846
1.295409 1.146081 -0.036230
1.370556 1.212565 -0.012776
1.327998 1.154411 -0.036859
1.305616 1.134954 -0.012078
1.292407 1.103819 -0.035602
1.391509 1.188461 -0.012776
1.347942 1.131058 -0.036859
1.348205 1.131279 -0.012287
1.326903 1.093815 -0.036021
1.381174 1.138552 -0.012496
1.266470 1.025567 -0.034136
1.336658 1.082405 -0.012008
1.251898 0.995805 -0.033508
1.338227 1.064474 -0.011938
1.323568 1.034084 -0.035183
1.355345 1.058912 -0.012008
1.308746 1.004236 -0.034555
1.388335 1.065307 -0.012217
1.301490 0.980743 -0.034136
1.341675 1.011025 -0.011729
1.285889 0.951508 -0.033508
1.278101 0.945745 -0.011100
1.261790 0.916744 -0.032670
1.326756 0.963944 -0.011449
1.286020 0.917309 -0.033089
1.400245 0.998785 -0.012008
1.277597 0.894583 -0.032670
1.343377 0.940642 -0.011449
1.372117 0.951871 0.011659
1.388279 0.963083 0.035393
1.318313 0.906051 -0.033508
1.384498 0.951539 -0.011729
1.380102 0.939678 0.034974
1.268149 0.855377 -0.032042
1.359589 0.917054 -0.011449
1.388520 0.927780 0.011659
1.346685 0.899826 0.033927
1.317251 0.871869 -0.033089
1.392555 0.921712 -0.011659
1.379839 0.904662 0.011519
1.354486 0.888040 0.033927
1.249345 0.811334 -0.031204
1.367000 0.887740 -0.011379
1.370860 0.881767 0.011379
1.328550 0.854552 0.033089
1.281674 0.816516 -0.031832
1.349393 0.859658 -0.011170
1.361589 0.859098 0.011240
1.369779 0.864266 0.033927
1.220921 0.762916 -0.030157
1.314443 0.821355 -0.010821
1.326517 0.820874 0.010891
1.343262 0.831236 0.033089
1.312778 0.804471 -0.032251
1.364191 0.835977 -0.011170
1.367826 0.830017 0.011170
1.350464 0.819482 0.033089
1.294039 0.777537 -0.031623
1.362863 0.818891 -0.011100
1.340641 0.797598 0.010891
1.357564 0.807666 0.033089
1.326618 0.781438 -0.032251
1.378573 0.812042 -0.011170
1.347551 0.785868 0.010891
1.347288 0.785715 0.032670
1.281436 0.739838 -0.030995
1.385607 0.799981 -0.011170
1.319630 0.754231 0.010612
1.371453 0.783850 0.033089
1.270441 0.718781 -0.030576
1.383832 0.782934 -0.011100
1.291263 0.723142 0.010332
1.334626 0.747427 0.032042
1.311642 0.727055 -0.031414
1.355628 0.751437 -0.010821
1.332592 0.731085 0.010612
1.349863 0.740560 0.032251
1.300364 0.706040 -0.030995
1.370921 0.744350 -0.010891
1.303686 0.700496 0.010332
1.303432 0.700359 0.030995
1.288821 0.685278 -0.030576
1.333218 0.708885 -0.010542
1.309750 0.689093 0.010332
1.327190 0.698269 0.031414
1.312488 0.683238 -0.030995
1.383703 0.720310 -0.010891
1.351273 0.695951 0.010612
1.359898 0.700393 0.032042
1.282768 0.653603 -0.030157
1.318658 0.671890 -0.010332
1.357295 0.684133 0.010612
1.339175 0.675000 0.031414
1.306318 0.651306 -0.030576
1.396064 0.696052 -0.010891
1.363213 0.672262 0.010612
1.327080 0.654444 0.030995
1.293980 0.631116 -0.030157
1.357146 0.661924 -0.010542
1.333001 0.642963 0.010332
1.377766 0.664555 0.032042
1.317485 0.628408 -0.030576
1.371896 0.654361 -0.010612
1.338561 0.631306 0.010332
1.383513 0.652507 0.032042
1.259492 0.587311 -0.029110
1.332240 0.621234 -0.010262
1.353100 0.623788 0.010402
1.361916 0.627852 0.031414
1.310057 0.597027 -0.030157
1.383107 0.630318 -0.010612
1.349375 0.607849 0.010332
1.349112 0.607731 0.030995
1.296950 0.577439 -0.029738
1.315473 0.585687 -0.010053
1.318016 0.579941 0.010053
1.345213 0.591908 0.030785
1.301940 0.566100 -0.029738
1.393897 0.606084 -0.010612
1.323027 0.568417 0.010053
1.331955 0.572253 0.030367
1.306830 0.554717 -0.029738
1.353109 0.574361 -0.010262
1.337159 0.560717 0.010123
1.346118 0.564474 0.030576
1.293148 0.535639 -0.029319
1.348831 0.558704 -0.010193
1.332746 0.545241 0.010053
1.378753 0.564063 0.031204
1.316312 0.531825 -0.029738
1.325841 0.535674 -0.009983
1.309590 0.522473 0.009844
1.355765 0.540895 0.030576
1.320903 0.520318 -0.029738
1.404896 0.553403 -0.010542
1.342059 0.521898 0.010053
1.341797 0.521796 0.030157
1.297392 0.498022 -0.029110
1.372330 0.526788 -0.010262
1.318509 0.499538 0.009844
1.336950 0.506525 0.029948
1.292324 0.483180 -0.028901
1.348775 0.504286 -0.010053
1.350963 0.498396 0.010053
1.350699 0.498299 0.030157
1.268307 0.461626 -0.028272
1.315538 0.478817 -0.009774
1.327026 0.476451 0.009844
1.345587 0.483115 0.029948
1.244014 0.440528 -0.027644
1.300814 0.460642 -0.009634
1.321692 0.461556 0.009774
1.330874 0.464762 0.029529
1.228905 0.423146 -0.027225
1.285874 0.442762 -0.009495
1.335139 0.453219 0.009844
1.344346 0.456344 0.029738
1.270475 0.425095 -0.028063
1.308655 0.437870 -0.009634
1.329546 0.438419 0.009774
1.338782 0.441464 0.029529
1.274136 0.413992 -0.028063
1.321936 0.429523 -0.009704
1.342845 0.429848 0.009844
1.352105 0.432812 0.029738
1.277700 0.402857 -0.028063
1.316097 0.414964 -0.009634
1.336995 0.415148 0.009774
1.346283 0.418032 0.029529
1.281167 0.391692 -0.028063
1.338794 0.409310 -0.009774
1.350143 0.406347 0.009844
1.407321 0.423556 0.030785
1.284537 0.380497 -0.028063
1.303963 0.386251 -0.009495
1.382438 0.402944 0.010053
1.353373 0.394472 0.029529
1.287808 0.369273 -0.028063
1.307284 0.374858 -0.009495
1.357029 0.382722 0.009844
1.376009 0.388075 0.029948
1.252445 0.347334 -0.027225
1.300869 0.360763 -0.009425
1.312079 0.357714 0.009495
1.360052 0.370793 0.029529
1.294057 0.346741 -0.028063
1.342604 0.359750 -0.009704
1.324821 0.348796 0.009564
1.334231 0.351274 0.028901
1.277675 0.330429 -0.027644
1.316649 0.340509 -0.009495
1.318122 0.334760 0.009495
1.327555 0.337156 0.028691
1.299911 0.324104 -0.028063
1.358381 0.338682 -0.009774
1.330706 0.325622 0.009564
1.291602 0.316053 0.027853
1.205474 0.289409 -0.025969
1.264050 0.303472 -0.009076
1.372431 0.323165 0.009844
1.333237 0.313936 0.028691
1.305369 0.301368 -0.028063
1.364085 0.314924 -0.009774
1.336186 0.302348 0.009564
1.296921 0.293463 0.027853
1.288428 0.285638 -0.027644
1.347256 0.298679 -0.009634
1.329002 0.288555 0.009495
1.348283 0.292741 0.028901
1.310430 0.278541 -0.028063
1.359592 0.288990 -0.009704
1.331469 0.276946 0.009495
1.350786 0.280964 0.028901
1.254029 0.255135 -0.026806
1.332665 0.271134 -0.009495
1.333835 0.265316 0.009495
1.343381 0.267215 0.028691
1.216951 0.236551 -0.025969
1.364429 0.265218 -0.009704
1.306627 0.248071 0.009285
1.306372 0.248023 0.027853
1.258290 0.233210 -0.026806
1.337194 0.247834 -0.009495
1.298902 0.234880 0.009215
1.357678 0.245508 0.028901
1.260278 0.222221 -0.026806
1.339306 0.236156 -0.009495
1.310758 0.225229 0.009285
1.271088 0.218413 0.027016
1.203004 0.201314 -0.025550
1.262415 0.211256 -0.008936
1.342282 0.218605 0.009495
1.351888 0.220169 0.028691
1.263964 0.200192 -0.026806
1.343223 0.212746 -0.009495
1.354022 0.208404 0.009564
1.363640 0.209884 0.028901
1.206335 0.180288 -0.025550
1.265909 0.189191 -0.008936
1.306308 0.189406 0.009215
1.315948 0.190803 0.027853
1.296967 0.182277 -0.027435
1.346732 0.189271 -0.009495
1.357453 0.184741 0.009564
1.367095 0.186053 0.028901
1.248947 0.164427 -0.026387
1.348332 0.177511 -0.009495
1.349094 0.171626 0.009495
1.368667 0.174116 0.028901
1.270180 0.155959 -0.026806
1.349830 0.165738 -0.009495
1.360471 0.161022 0.009564
1.280777 0.151590 0.027016
1.271493 0.144868 -0.026806
1.331354 0.151689 -0.009355
1.312122 0.143701 0.009215
1.371497 0.150203 0.028901
1.292595 0.135857 -0.027225
1.342572 0.141110 -0.009425
1.323276 0.133247 0.009285
1.283228 0.129214 0.027016
1.234021 0.118823 -0.025969
1.274076 0.122680 -0.008936
1.354262 0.124439 0.009495
1.373909 0.126245 0.028901
1.334608 0.116763 -0.028063
1.384677 0.121144 -0.009704
1.325400 0.110132 0.009285
1.315178 0.109283 0.027644
1.275774 0.100406 -0.026806
1.355775 0.106702 -0.009495
1.316338 0.097821 0.009215
1.375903 0.102247 0.028901
1.296549 0.090664 -0.027225
1.356654 0.094866 -0.009495
1.367033 0.089600 0.009564
1.376743 0.090237 0.028901
1.257374 0.076904 -0.026387
1.317506 0.080582 -0.009215
1.317845 0.074833 0.009215
1.327570 0.075385 0.027853
1.337870 0.070115 -0.028063
1.358103 0.071175 -0.009495
1.328436 0.063809 0.009285
1.288232 0.061878 0.027016
1.258525 0.054948 -0.026387
1.318712 0.057576 -0.009215
1.318950 0.051822 0.009215
1.328683 0.052204 0.027853
1.298923 0.045359 -0.027225
1.349145 0.047113 -0.009425
1.369328 0.041837 0.009564
1.319095 0.040302 0.027644
1.279281 0.033499 -0.026806
1.359501 0.035600 -0.009495
1.319654 0.028795 0.009215
1.329392 0.029007 0.027853
1.339502 0.023381 -0.028063
1.389754 0.024258 -0.009704
1.329854 0.017409 0.009285
1.289607 0.016882 0.027016
1.259676 0.010993 -0.026387
1.319918 0.011519 -0.009215
1.359954 0.005934 0.009495
1.379684 0.006020 0.028901
1.309713 0.000000 -0.027435
1.359967 0.000000 -0.009495
1.329955 -0.005803 0.009285
1.289705 -0.005627 0.027016
1.219686 -0.010644 -0.025550
1.279920 -0.011170 -0.008936
1.319855 -0.017278 0.009215
1.379579 -0.018060 0.028901
1.309513 -0.022858 -0.027435
1.349761 -0.023560 -0.009425
1.379638 -0.030104 0.009634
1.319396 -0.028789 0.027644
1.299270 -0.034023 -0.027225
1.359501 -0.035600 -0.009495
1.359333 -0.041531 0.009495
1.379054 -0.042134 0.028901
1.308915 -0.045708 -0.027435
1.359138 -0.047462 -0.009495
1.328942 -0.052214 0.009285
1.318693 -0.051812 0.027644
1.298478 -0.056693 -0.027225
1.358672 -0.059321 -0.009495
1.358401 -0.065249 0.009495
1.378109 -0.066195 0.028901
1.337870 -0.070115 -0.028063
1.358103 -0.071175 -0.009495
1.327829 -0.075400 0.009285
1.317588 -0.074818 0.027644
1.317249 -0.080566 -0.027644
1.357430 -0.083024 -0.009495
1.317142 -0.086330 0.009215
1.376743 -0.090237 0.028901
1.306522 -0.091361 -0.027435
1.356654 -0.094866 -0.009495
1.326310 -0.098562 0.009285
1.286171 -0.095579 0.027016
1.255840 -0.098837 -0.026387
1.315899 -0.103563 -0.009215
1.355296 -0.112616 0.009495
1.364995 -0.113422 0.028691
1.304729 -0.114149 -0.027435
1.354792 -0.118529 -0.009495
1.324388 -0.121694 0.009285
1.284307 -0.118011 0.027016
1.293731 -0.124572 -0.027225
1.353706 -0.130347 -0.009495
1.313326 -0.132245 0.009215
1.323018 -0.133221 0.027853
1.272709 -0.133767 -0.026806
1.352517 -0.142155 -0.009495
1.322063 -0.144789 0.009285
1.282051 -0.140407 0.027016
1.311227 -0.149395 -0.027644
1.351225 -0.153953 -0.009495
1.310818 -0.155146 0.009215
1.320491 -0.156290 0.027853
1.230487 -0.151085 -0.025969
1.349830 -0.165738 -0.009495
1.319334 -0.167841 0.009285
1.309159 -0.166546 0.027644
1.159736 -0.152682 -0.024503
1.269019 -0.167069 -0.008936
1.307911 -0.177999 0.009215
1.367095 -0.186053 0.028901
1.227663 -0.172537 -0.025969
1.346732 -0.189271 -0.009495
1.316204 -0.190841 0.009285
1.306053 -0.189369 0.027644
1.156895 -0.172899 -0.024503
1.256020 -0.187713 -0.008866
1.344139 -0.206883 0.009495
1.363640 -0.209884 0.028901
1.263964 -0.200192 -0.026806
1.343223 -0.212746 -0.009495
1.352152 -0.220212 0.009564
1.272946 -0.207312 0.027016
1.153701 -0.193063 -0.024503
1.301865 -0.217858 -0.009215
1.340324 -0.230310 0.009495
1.349916 -0.231958 0.028691
1.260278 -0.222221 -0.026806
1.339306 -0.236156 -0.009495
1.348103 -0.243777 0.009564
1.308487 -0.236613 0.027853
1.199308 -0.222279 -0.025550
1.327362 -0.246012 -0.009425
1.296803 -0.246206 0.009215
1.306372 -0.248023 0.027853
1.285650 -0.249905 -0.027435
1.334980 -0.259494 -0.009495
1.343643 -0.267267 0.009564
1.304158 -0.259413 0.027853
1.293217 -0.263108 -0.027644
1.332665 -0.271134 -0.009495
1.331469 -0.276946 0.009495
1.301845 -0.270784 0.027853
1.281092 -0.272305 -0.027435
1.359592 -0.288990 -0.009704
1.338774 -0.290676 0.009564
1.299432 -0.282134 0.027853
1.268906 -0.281310 -0.027225
1.327730 -0.294351 -0.009495
1.287421 -0.291314 0.009215
1.345677 -0.304496 0.028901
1.305369 -0.301368 -0.028063
1.354341 -0.312674 -0.009704
1.333497 -0.313997 0.009564
1.255384 -0.295604 0.027016
1.283247 -0.308080 -0.027644
1.322391 -0.317478 -0.009495
1.320993 -0.323245 0.009495
1.330447 -0.325558 0.028691
1.270809 -0.316848 -0.027435
1.348678 -0.336263 -0.009704
1.327814 -0.337222 0.009564
1.279104 -0.324851 0.027644
1.258316 -0.325423 -0.027225
1.316649 -0.340509 -0.009495
1.315150 -0.346250 0.009495
1.324562 -0.348728 0.028691
1.265085 -0.338979 -0.027435
1.313627 -0.351985 -0.009495
1.360317 -0.370865 0.009844
1.331115 -0.362903 0.028901
1.252445 -0.347334 -0.027225
1.310506 -0.363435 -0.009495
1.347404 -0.380007 0.009774
1.318274 -0.371792 0.028691
1.287808 -0.369273 -0.028063
1.336121 -0.383127 -0.009704
1.353637 -0.394549 0.009844
1.353373 -0.394472 0.029529
1.246192 -0.369139 -0.027225
1.303963 -0.386251 -0.009495
1.340567 -0.403465 0.009774
1.311585 -0.394742 0.028691
1.185558 -0.362461 -0.025969
1.262292 -0.385921 -0.009215
1.308345 -0.406252 0.009564
1.327187 -0.412102 0.029110
1.239560 -0.390832 -0.027225
1.297023 -0.408950 -0.009495
1.333322 -0.426800 0.009774
1.304496 -0.417572 0.028691
1.245611 -0.404723 -0.027435
1.293405 -0.420253 -0.009495
1.339043 -0.441550 0.009844
1.310297 -0.432071 0.028901
1.251513 -0.418750 -0.027644
1.318138 -0.441043 -0.009704
1.325670 -0.450004 0.009774
1.297010 -0.440275 0.028691
1.266717 -0.436166 -0.028063
1.323694 -0.455784 -0.009774
1.331133 -0.464852 0.009844
1.378068 -0.481243 0.030576
1.244014 -0.440528 -0.027644
1.357371 -0.480670 -0.010053
1.317614 -0.473072 0.009774
1.326767 -0.476358 0.029529
1.296491 -0.471884 -0.028901
1.343728 -0.489077 -0.009983
1.322818 -0.488013 0.009844
1.341319 -0.494839 0.029948
1.254865 -0.469175 -0.028063
1.311309 -0.490278 -0.009774
1.346562 -0.510167 0.010053
1.355649 -0.513609 0.030367
1.250723 -0.480108 -0.028063
1.297645 -0.498119 -0.009704
1.314099 -0.511025 0.009844
1.332479 -0.518173 0.029948
1.283695 -0.505661 -0.028901
1.339769 -0.527749 -0.010053
1.300302 -0.518768 0.009774
1.309334 -0.522371 0.029529
1.279233 -0.516844 -0.028901
1.325841 -0.535674 -0.009983
1.342001 -0.549027 0.010123
1.350993 -0.552706 0.030576
1.237727 -0.512683 -0.028063
1.330354 -0.551051 -0.010053
1.327937 -0.556850 0.010053
1.300018 -0.545143 0.029529
1.306830 -0.554717 -0.029738
1.353109 -0.574361 -0.010262
1.332215 -0.572365 0.010123
1.341141 -0.576200 0.030576
1.265265 -0.550153 -0.028901
1.348045 -0.586147 -0.010262
1.318016 -0.579941 0.010053
1.326911 -0.583855 0.030367
1.269550 -0.565240 -0.029110
1.342879 -0.597888 -0.010262
1.322023 -0.595528 0.010123
1.330881 -0.599518 0.030576
1.291862 -0.588735 -0.029738
1.383107 -0.630318 -0.010612
1.307694 -0.602855 0.010053
1.352837 -0.623666 0.031204
1.286675 -0.599986 -0.029738
1.305051 -0.608555 -0.010053
1.347605 -0.635572 0.010402
1.356385 -0.639713 0.031414
1.317485 -0.628408 -0.030576
1.371896 -0.654361 -0.010612
1.296974 -0.625586 0.010053
1.341746 -0.647181 0.031204
1.204120 -0.587288 -0.028063
1.258281 -0.613705 -0.009774
1.336308 -0.658994 0.010402
1.345014 -0.663288 0.031414
1.306318 -0.651306 -0.030576
1.351318 -0.673742 -0.010542
1.321577 -0.666129 0.010332
1.321319 -0.666000 0.030995
1.175871 -0.599136 -0.027644
1.309748 -0.667350 -0.010262
1.324603 -0.682216 0.010402
1.333233 -0.686660 0.031414
1.294752 -0.674005 -0.030576
1.374833 -0.715693 -0.010821
1.309750 -0.689093 0.010332
1.309494 -0.688958 0.030995
1.200545 -0.638341 -0.028482
1.306731 -0.694801 -0.010332
1.303686 -0.700496 0.010332
1.294625 -0.695627 0.030785
1.282792 -0.696499 -0.030576
1.362133 -0.739578 -0.010821
1.332592 -0.731085 0.010612
1.341098 -0.735751 0.032042
1.285409 -0.712514 -0.030785
1.355628 -0.751437 -0.010821
1.299987 -0.728028 0.010402
1.334626 -0.747427 0.032042
1.261739 -0.713858 -0.030367
1.357722 -0.768162 -0.010891
1.319630 -0.754231 0.010612
1.328053 -0.759045 0.032042
1.272778 -0.734839 -0.030785
1.350967 -0.779981 -0.010891
1.321636 -0.770755 0.010681
1.321378 -0.770605 0.032042
1.249088 -0.735769 -0.030367
1.335493 -0.786665 -0.010821
1.306266 -0.777147 0.010612
1.314603 -0.782107 0.032042
1.268329 -0.762089 -0.030995
1.337148 -0.803440 -0.010891
1.307983 -0.793704 0.010681
1.307728 -0.793549 0.032042
1.278680 -0.783576 -0.031414
1.355665 -0.830752 -0.011100
1.292504 -0.799826 0.010612
1.300754 -0.804931 0.032042
1.187007 -0.741724 -0.029319
1.289002 -0.805458 -0.010612
1.293932 -0.816410 0.010681
1.327501 -0.837591 0.032880
1.256378 -0.800401 -0.031204
1.340960 -0.854286 -0.011100
1.311989 -0.843900 0.010891
1.320142 -0.849144 0.032880
1.274500 -0.827670 -0.031832
1.341840 -0.871401 -0.011170
1.279487 -0.838868 0.010681
1.279237 -0.838705 0.032042
1.267228 -0.838760 -0.031832
1.325846 -0.877558 -0.011100
1.297061 -0.866668 0.010891
1.346685 -0.899826 0.033927
1.284726 -0.866559 -0.032461
1.326428 -0.894687 -0.011170
1.297714 -0.883582 0.010961
1.330518 -0.905917 0.033717
1.268876 -0.872074 -0.032251
1.351534 -0.928884 -0.011449
1.281738 -0.889173 0.010891
1.289703 -0.894699 0.032880
1.293976 -0.906052 -0.033089
1.343377 -0.940642 -0.011449
1.282096 -0.906096 0.010961
1.355328 -0.957851 0.034764
1.277881 -0.911504 -0.032880
1.343258 -0.958136 -0.011519
1.298487 -0.934777 0.011170
1.306347 -0.940436 0.033717
1.261790 -0.916744 -0.032670
1.294396 -0.940434 -0.011170
1.258023 -0.922421 0.010891
1.338404 -0.981359 0.034764
1.261778 -0.933667 -0.032880
1.342408 -0.993330 -0.011659
1.281975 -0.957296 0.011170
1.281725 -0.957109 0.033508
1.277537 -0.962693 -0.033508
1.341675 -1.011025 -0.011729
1.313371 -0.998711 0.011519
1.344948 -1.022722 0.035393
1.253223 -0.961632 -0.033089
1.364534 -1.047044 -0.012008
1.296699 -1.004012 0.011449
1.272731 -0.985454 0.033717
1.229027 -0.960221 -0.032670
1.323826 -1.034286 -0.011729
1.295741 -1.021480 0.011519
1.311192 -1.033660 0.034974
1.259723 -1.002029 -0.033717
1.346053 -1.070699 -0.012008
1.310174 -1.051526 0.011729
1.348904 -1.082610 0.036230
1.266470 -1.025567 -0.034136
1.328887 -1.076112 -0.011938
1.308692 -1.069246 0.011798
1.308437 -1.069037 0.035393
1.272901 -1.049299 -0.034555
1.304014 -1.074946 -0.011798
1.291623 -1.074231 0.011729
1.329805 -1.105987 0.036230
1.248379 -1.047514 -0.034136
1.294584 -1.086285 -0.011798
1.282199 -1.085462 0.011729
1.304841 -1.104630 0.035812
1.277202 -1.090833 -0.035183
1.338282 -1.143001 -0.012287
1.333282 -1.148829 0.012287
1.340596 -1.155131 0.037068
1.267634 -1.101937 -0.035183
1.328256 -1.154636 -0.012287
1.300651 -1.140640 0.012078
1.307914 -1.147010 0.036440
1.287921 -1.139457 -0.036021
1.340598 -1.186061 -0.012496
1.313029 -1.171923 0.012287
1.350068 -1.204981 0.037906
1.277929 -1.150652 -0.036021
1.337628 -1.204406 -0.012566
1.287948 -1.169890 0.012147
1.309899 -1.189828 0.037068
1.297324 -1.188778 -0.036859
1.356557 -1.243056 -0.012846
1.321748 -1.221812 0.012566
1.328832 -1.228360 0.037906
1.286900 -1.200054 -0.036859
1.345658 -1.254846 -0.012846
1.318319 -1.240151 0.012636
1.354473 -1.274161 0.038953
1.254622 -1.190592 -0.036230
1.327403 -1.259658 -0.012776
1.329117 -1.272353 0.012846
1.336080 -1.279019 0.038743
1.236993 -1.194550 -0.036021
1.323553 -1.278140 -0.012846
1.325126 -1.290881 0.012915
1.339191 -1.304582 0.039162
1.312093 -1.289390 -0.038534
1.333746 -1.310668 -0.013055
1.306709 -1.295356 0.012846
1.341956 -1.330296 0.039581
1.244235 -1.244235 -0.036859
1.329328 -1.329328 -0.013125
1.330555 -1.342218 0.013195
1.337335 -1.349056 0.039791
1.247345 -1.269307 -0.037278
1.317677 -1.340878 -0.013125
1.311814 -1.346615 0.013125
1.318535 -1.353514 0.039581
1.277891 -1.323295 -0.038534
1.333712 -1.381099 -0.013404
1.334588 -1.394128 0.013474
1.341241 -1.401079 0.040628
1.293823 -1.363405 -0.039372
1.349142 -1.421699 -0.013683
1.315519 -1.398438 0.013404
1.342664 -1.427294 0.041047
1.254602 -1.345396 -0.038534
1.309405 -1.404165 -0.013404
1.310053 -1.417208 0.013474
1.323371 -1.431615 0.040838
1.276585 -1.393149 -0.039581
1.324125 -1.445028 -0.013683
1.317807 -1.450792 0.013683
1.317550 -1.450509 0.041047
1.284449 -1.426525 -0.040209
1.311464 -1.456528 -0.013683
1.331731 -1.492078 0.013963
1.344786 -1.506705 0.042304
1.285201 -1.452655 -0.040628
1.351712 -1.527832 -0.014242
1.292286 -1.473570 0.013683
1.324994 -1.510867 0.042094
1.233120 -1.418543 -0.039372
1.285844 -1.479195 -0.013683
1.312015 -1.522668 0.014032
1.350916 -1.567816 0.043351
1.350556 -1.581298 -0.043560
1.344325 -1.574002 -0.014451
1.318061 -1.556956 0.014242
1.324264 -1.564283 0.042932
1.310999 -1.562388 -0.042723
1.336966 -1.593334 -0.014521
1.336395 -1.606840 0.014591
1.348920 -1.621900 0.044189
1.290687 -1.579723 0.014242
1.290436 -1.579414 0.042723
1.308148 -1.629919 0.014591
1.320409 -1.645195 0.044189
1.287684 -1.633419 0.014521
1.318381 -1.672358 0.044607
1.303991 -1.684128 0.014870
1.334341 -1.723325 0.045654
1.307403 -1.719322 0.015080
1.331355 -1.750820 0.046073
1.334231 -1.786752 0.015568
1.322007 -1.770383 0.046283
1.312420 -1.789914 0.046492
1.332057 -1.850344 0.015917
0.157713 -0.219077 0.005654
1.320115 -1.833755 0.047330
0.153865 -0.221796 0.005654
0.177778 -0.266064 0.002234
0.138862 -0.207822 0.005236
0.120622 -0.183978 0.001536
0.126080 -0.192304 0.004817
0.151469 -0.235485 0.001955
0.162257 -0.252256 0.006283
0.128064 -0.202970 0.001676
0.117369 -0.186019 0.004607
0.126288 -0.204080 0.001676
0.136786 -0.221043 0.005445
0.108940 -0.179527 0.001466
0.119292 -0.196587 0.004817
0.138046 -0.232034 0.001885
0.148242 -0.249173 0.006073
0.135989 -0.233184 0.005654