# This PCD file was generated using the MATLAB® pcwrite function
# from Computer Vision System Toolbox®.
# .PCD v.7 - Point Cloud Data file format
VERSION .7
FIELDS x y z
SIZE 4 4 4
TYPE F F F
COUNT 1 1 1
WIDTH 759
HEIGHT 1
VIEWPOINT 0 0 0 1 0 0 0
POINTS 759
DATA ascii
27.612070 30.133287 -0.856126
27.563408 30.080183 -0.284835
23.330595 25.019001 -0.238829
23.775188 25.053820 -0.241133
23.057600 23.876844 -0.695288
23.722006 24.564856 -0.238410
23.802299 24.221395 -0.237084
23.245003 20.929895 -0.218374
23.290667 19.892109 -0.213836
23.742170 19.922047 -0.649215
23.846382 20.009491 -0.217327
23.668251 19.510599 -0.642513
23.842619 19.654339 -0.215721
23.713293 19.202646 -0.639163
23.881113 19.338545 -0.214534
23.692177 18.845610 -0.634136
23.861141 18.980009 -0.212859
23.761192 18.564278 -0.631623
23.907663 18.678715 -0.211811
23.763653 18.234493 -0.627435
23.871420 18.317184 -0.210066
23.690319 17.851936 -0.621362
28.536974 21.504152 -0.748482
23.846676 17.969759 -0.208460
23.748760 17.573158 -0.618849
28.602991 21.165100 -0.745341
23.898083 17.683651 -0.207553
23.836502 17.318232 -0.617173
28.624832 20.797157 -0.741152
23.833059 17.315731 -0.205668
23.815796 16.987642 -0.612775
28.650581 20.436260 -0.737173
23.958836 17.089672 -0.205458
23.848476 16.698883 -0.609843
28.631275 20.047834 -0.732147
24.008760 16.811115 -0.204621
28.640343 19.683964 -0.727959
24.022694 16.510340 -0.203504
28.678410 19.343832 -0.724608
24.000053 16.188240 -0.202107
24.128660 16.122255 0.202596
24.123957 16.119112 0.607749
28.679380 18.982468 -0.720419
24.006989 15.889878 -0.200990
24.142992 15.828840 0.201549
24.138287 15.825754 0.604608
28.718166 18.649796 -0.717278
24.002167 15.587190 -0.199804
24.179283 15.552637 0.200711
24.149343 15.533380 0.601466
28.744909 18.312527 -0.713927
24.010769 15.296547 -0.198756
24.212597 15.277011 0.199873
24.224789 15.284703 0.600000
28.801876 17.997410 -0.711414
24.033098 15.017546 -0.197849
24.242950 15.001993 0.199036
24.212721 14.983286 0.596440
28.650951 17.557325 -0.703875
24.026814 14.723651 -0.196732
28.895271 17.707045 -0.236595
24.278906 14.732801 0.198268
24.248531 14.714370 0.594136
28.657389 17.219095 -0.700315
24.017242 14.431015 -0.195615
28.842978 17.330608 -0.234919
24.337797 14.479467 0.197709
24.307276 14.461309 0.592461
28.772102 16.948063 -0.699477
24.073332 14.180276 -0.195056
28.932802 17.042723 -0.234431
24.325014 14.185929 0.196592
24.328909 14.188201 0.589948
28.823664 16.641350 -0.697173
24.014299 13.864662 -0.193590
28.872583 16.669594 -0.232755
24.335020 13.908609 0.195685
24.382357 13.935664 0.588273
28.932980 16.369492 -0.696335
24.134375 13.654572 -0.193590
28.956028 16.382532 -0.232267
24.359495 13.641973 0.194917
24.398361 13.663739 0.585759
28.943563 16.043678 -0.693194
24.173899 13.399812 -0.192962
28.957952 16.051655 -0.231150
24.381176 13.375972 0.194149
24.446547 13.411835 0.584084
28.941887 15.714163 -0.689843
28.991470 15.741084 -0.230312
24.364843 13.091703 0.193102
24.536234 13.183794 0.583456
28.963158 15.399983 -0.687121
28.995293 15.417070 -0.229265
24.363115 12.818055 0.192194
24.535324 12.908659 0.580733
29.025497 15.109717 -0.685445
29.057766 15.126516 -0.228706
24.331806 12.531704 0.191077
24.575933 12.657437 0.579058
29.004810 14.778688 -0.681885
29.117384 14.836048 -0.228148
24.333084 12.264884 0.190239
24.622957 12.410993 0.577592
28.998461 14.458099 -0.678744
29.093607 14.505537 -0.226961
24.331564 11.999000 0.189402
29.210434 14.404991 0.227380
24.622725 12.142584 0.575079
29.123526 14.204493 -0.678744
29.120218 14.202879 -0.226193
24.282232 11.712358 0.188215
29.271980 14.119126 0.226891
24.682724 11.905533 0.574032
29.174183 13.915371 -0.677068
29.125717 13.892255 -0.225285
24.274984 11.448826 0.187377
29.258411 13.799163 0.225844
24.722380 11.659832 0.572566
29.258261 13.643351 -0.676231
29.146149 13.591072 -0.224517
24.301319 11.203061 0.186819
29.277822 13.497261 0.225076
24.714235 11.393418 0.570053
29.276131 13.341902 -0.673927
29.145350 13.282301 -0.223610
24.316101 10.953605 0.186190
29.294201 13.196075 0.224308
24.776257 11.160891 0.569215
29.208776 13.004585 -0.669739
29.159660 12.982718 -0.222842
24.374151 10.724883 0.185911
29.261795 12.875498 0.223191
24.726292 10.879828 0.565864
29.165283 12.681426 -0.666178
29.308525 12.743710 -0.223121
24.393312 10.480194 0.185352
29.336288 12.603864 0.222912
24.636576 10.584708 0.561676
29.136791 12.367834 -0.663037
29.418617 12.487463 -0.223121
29.371386 12.316444 0.222353
24.598927 10.315186 0.558744
29.049639 12.032754 -0.658639
29.452562 12.199651 -0.222563
29.403706 12.029373 0.221795
24.623232 10.073630 0.557278
29.079378 11.748832 -0.656964
29.483728 11.912199 -0.222004
29.433258 11.742679 0.221236
24.598768 9.813913 0.554765
29.143589 11.479965 -0.656126
29.465607 11.606811 -0.221097
29.534609 11.485381 0.221236
24.469158 9.515535 0.549948
29.130655 11.182211 -0.653613
29.369724 11.273981 -0.219630
29.484095 11.170525 0.220119
24.897188 9.432701 0.557697
29.310059 11.104589 0.656545
29.189669 10.913570 -0.652775
29.251560 10.936710 -0.218025
29.580452 10.912805 0.220119
25.794603 9.516131 0.575917
29.490267 10.879534 0.658430
29.246216 10.644752 -0.651938
29.280109 10.657088 -0.217536
29.599264 10.627222 0.219561
29.452349 10.574473 0.655498
29.234325 10.352418 -0.649634
29.249453 10.357775 -0.216629
29.615351 10.342143 0.219002
29.392485 10.264315 0.652147
29.238476 10.067615 -0.647749
29.272541 10.079345 -0.216140
29.448809 9.996524 0.217117
29.490404 10.010643 0.652356
29.287292 9.799391 -0.646911
29.274038 9.794956 -0.215512
29.487440 9.723499 0.216768
29.614620 9.765437 0.653194
29.343166 9.534173 -0.646283
29.329868 9.529852 -0.215302
29.380695 9.404835 0.215372
29.727276 9.515776 0.653822
29.377575 9.262713 -0.645236
29.373766 9.261513 -0.215023
29.308847 9.100639 0.214255
29.770990 9.244139 0.652985
29.352118 8.973843 -0.642932
29.338715 8.969746 -0.214185
29.339272 8.830118 0.213906
29.773937 8.960938 0.651309
29.429310 8.717359 -0.642932
29.415873 8.713379 -0.214185
29.386410 8.565357 0.213696
29.668633 8.647618 0.647330
29.465820 8.449188 -0.642095
29.452341 8.445323 -0.213906
29.411915 8.295018 0.213347
29.579386 8.342250 0.643770
29.538429 8.191731 -0.642095
29.438192 8.163934 -0.213278
29.444592 8.027517 0.213068
29.535309 8.052249 0.641257
29.492905 7.902600 -0.639582
29.440702 7.888612 -0.212789
29.445831 7.752440 0.212579
29.488432 7.763656 0.638744
29.560745 7.644928 -0.639582
29.547146 7.641411 -0.213068
29.463902 7.482878 0.212230
29.477537 7.486341 0.637068
29.548725 7.367325 -0.637906
29.496271 7.354247 -0.212230
29.489227 7.215968 0.211951
29.502901 7.219314 0.636231
29.602171 7.106853 -0.637697
29.598219 7.105904 -0.212510
29.560808 6.960646 0.212021
29.564775 6.961581 0.636231
29.624096 6.839261 -0.636859
29.610384 6.836096 -0.212160
29.571659 6.691383 0.211672
29.536640 6.683459 0.634346
29.692411 6.582649 -0.637068
29.629862 6.568782 -0.211881
29.589836 6.424583 0.211393
29.593838 6.425452 0.634346
29.748724 6.323287 -0.637068
29.686056 6.309966 -0.211881
29.654564 6.168159 0.211462
29.609631 6.158812 0.633508
29.743990 6.051483 -0.635812
29.710592 6.044688 -0.211672
29.668032 5.901339 0.211183
29.632832 5.894337 0.632880
29.766222 5.785968 -0.635184
29.722946 5.777555 -0.211393
29.679104 5.634754 0.210904
29.683140 5.635520 0.632880
29.815580 5.525991 -0.635184
29.772234 5.517957 -0.211393
29.727144 5.375544 0.210904
29.691835 5.369158 0.632042
29.911898 5.274275 -0.636231
29.819252 5.257939 -0.211393
29.772923 5.115924 0.210904
29.737558 5.109847 0.632042
29.996227 5.019647 -0.637068
29.854137 4.995869 -0.211323
29.816433 4.855915 0.210904
29.781017 4.850147 0.632042
29.989517 4.749873 -0.636021
29.857090 4.728899 -0.211043
29.818140 4.589451 0.210625
29.782682 4.583993 0.631205
30.039713 4.489465 -0.636231
29.926891 4.472604 -0.211253
29.896639 4.334806 0.210904
29.861128 4.329658 0.632042
30.077745 4.227151 -0.636231
29.974684 4.212667 -0.211323
29.883787 4.067005 0.210555
29.858149 4.063516 0.631205
30.063929 3.957991 -0.635184
30.000391 3.949626 -0.211253
29.888380 3.802282 0.210345
29.852800 3.797756 0.630367
30.097322 3.695487 -0.635184
30.083342 3.693770 -0.211602
29.960146 3.546017 0.210625
29.884806 3.537100 0.630367
30.098625 3.429305 -0.634555
30.114429 3.431106 -0.211602
29.989948 3.284434 0.210625
29.954287 3.280528 0.631205
30.157234 3.169653 -0.635184
30.143225 3.168180 -0.211602
30.017469 3.022600 0.210625
29.981773 3.019006 0.631205
30.183746 2.906364 -0.635184
30.169724 2.905014 -0.211602
30.082533 2.764197 0.210904
30.046801 2.760913 0.632042
30.178080 2.640240 -0.634555
30.193926 2.641626 -0.211602
30.105511 2.501575 0.210904
30.029898 2.495292 0.631205
30.199970 2.376789 -0.634555
30.215828 2.378037 -0.211602
30.245861 2.247656 0.211742
30.130291 2.239067 0.632880
30.219563 2.113158 -0.634555
30.165602 2.109384 -0.211113
30.264324 1.983629 0.211742
30.108778 1.973433 0.632042
30.236851 1.849365 -0.634555
30.252729 1.850336 -0.211602
30.230562 1.716616 0.211393
30.134834 1.711180 0.632252
30.251839 1.585432 -0.634555
30.267723 1.586264 -0.211602
30.294333 1.455141 0.211742
30.178577 1.449581 0.632880
30.294487 1.322686 -0.635184
30.290403 1.322508 -0.211672
30.345846 1.192291 0.212021
30.240028 1.188134 0.633927
30.354834 1.060014 -0.636231
30.340767 1.059523 -0.211951
30.315115 0.926211 0.211742
30.279226 0.925114 0.634555
30.352934 0.794820 -0.636021
30.338860 0.794451 -0.211881
30.362032 0.662502 0.212021
30.366110 0.662591 0.636231
30.358715 0.529913 -0.636021
30.394629 0.530540 -0.212230
30.406654 0.398045 0.212300
30.370735 0.397575 0.636231
30.452160 0.265752 -0.637906
30.388102 0.265193 -0.212160
30.408970 0.132685 0.212300
30.373049 0.132528 0.636231
30.453320 0.000000 -0.637906
30.439259 0.000000 -0.212510
30.448969 -0.132860 0.212579
30.453030 -0.132877 0.637906
30.452160 -0.265752 -0.637906
30.438099 -0.265629 -0.212510
30.486645 -0.399092 0.212859
30.450710 -0.398622 0.637906
30.488667 -0.532182 -0.638744
30.474615 -0.531936 -0.212789
30.442013 -0.664247 0.212579
30.446072 -0.664336 0.637906
30.522839 -0.799269 -0.639582
30.508799 -0.798901 -0.213068
30.475037 -0.931097 0.212859
30.519060 -0.932442 0.639582
30.514702 -1.065597 -0.639582
30.500666 -1.065107 -0.213068
30.465752 -1.197003 0.212859
30.509762 -1.198732 0.639582
30.534206 -1.333152 -0.640210
30.560141 -1.334285 -0.213557
30.574003 -1.468575 0.213696
30.538084 -1.466849 0.640419
30.521410 -1.599559 -0.640210
30.517374 -1.599348 -0.213347
30.560024 -1.735324 0.213696
30.564049 -1.735552 0.641257
30.636019 -1.873779 -0.642932
30.622030 -1.872923 -0.214185
30.623545 -2.007173 0.214255
30.627550 -2.007436 0.642932
30.618500 -2.141054 -0.642932
30.604519 -2.140076 -0.214185
30.604862 -2.274334 0.214255
30.608866 -2.274632 0.642932
30.678387 -2.414441 -0.644608
30.664431 -2.413343 -0.214744
30.583851 -2.541322 0.214255
30.627705 -2.544966 0.643770
30.656147 -2.682065 -0.644608
30.642202 -2.680845 -0.214744
30.640171 -2.815436 0.214813
30.634197 -2.814887 0.644398
30.711189 -2.957151 -0.646283
30.657455 -2.951977 -0.215023
30.694031 -3.090726 0.215372
30.658205 -3.087119 0.645445
30.674273 -3.223996 -0.646074
30.700142 -3.226715 -0.215512
30.665892 -3.358461 0.215372
30.669851 -3.358895 0.646283
30.644970 -3.491553 -0.646074
30.641008 -3.491102 -0.215302
30.665207 -3.629466 0.215581
30.718800 -3.635809 0.647958
30.702642 -3.769810 -0.647958
30.688780 -3.768108 -0.215861
30.721645 -3.908287 0.216210
30.765245 -3.913833 0.649634
30.777611 -4.051950 -0.650262
30.773699 -4.051434 -0.216698
30.765636 -4.187019 0.216768
30.769545 -4.187551 0.650472
30.830185 -4.332900 -0.652147
30.816391 -4.330961 -0.217257
30.846682 -4.472556 0.217606
30.810986 -4.467380 0.652147
30.870304 -4.613598 -0.653822
30.856543 -4.611541 -0.217815
30.806477 -4.741570 0.217606
30.810352 -4.742167 0.652985
30.897991 -4.893761 -0.655288
30.854631 -4.886894 -0.218095
30.833015 -5.021475 0.218095
30.797401 -5.015675 0.653613
30.893551 -5.169807 -0.656126
30.879850 -5.167515 -0.218583
30.876719 -5.305591 0.218723
30.841139 -5.299477 0.655498
30.935873 -5.454829 -0.658011
30.922211 -5.452420 -0.219212
30.907965 -5.589070 0.219281
30.862587 -5.580865 0.656964
30.965736 -5.739160 -0.659686
30.952110 -5.736635 -0.219770
30.936609 -5.873499 0.219840
30.891289 -5.864894 0.658639
31.032244 -6.032057 -0.662199
31.008846 -6.027509 -0.220538
30.992060 -6.164704 0.220608
30.956600 -6.157650 0.661152
31.047003 -6.316584 -0.663665
31.033459 -6.313828 -0.221097
30.986034 -6.445104 0.220957
30.950628 -6.437740 0.662199
31.039597 -6.597670 -0.664712
30.977180 -6.584403 -0.221097
30.997015 -6.730112 0.221446
31.000742 -6.730921 0.664503
31.058926 -6.885598 -0.666388
31.045456 -6.882612 -0.222004
31.015129 -7.018007 0.222004
30.989580 -7.012226 0.665550
31.114555 -7.183361 -0.668901
31.091391 -7.178013 -0.222772
31.040308 -7.309022 0.222632
31.043989 -7.309889 0.668063
31.118734 -7.470947 -0.670367
31.105356 -7.467735 -0.223331
31.082190 -7.605763 0.223400
31.046995 -7.597151 0.669529
31.178465 -7.773664 -0.673089
31.155437 -7.767923 -0.224168
31.140631 -7.908712 0.224308
31.095798 -7.897327 0.672042
31.128799 -8.050455 -0.673508
31.125189 -8.049520 -0.224448
31.176802 -8.208167 0.225076
31.141718 -8.198930 0.674555
31.221533 -8.365785 -0.677068
31.208303 -8.362240 -0.225565
31.181166 -8.500961 0.225634
31.194380 -8.504564 0.677278
31.224413 -8.659296 -0.678744
31.259411 -8.669002 -0.226472
31.221287 -8.805314 0.226472
31.186333 -8.795456 0.678744
31.262985 -8.964517 -0.681257
31.211407 -8.949727 -0.226682
31.258461 -9.111011 0.227310
31.223572 -9.100842 0.681257
31.327356 -9.279586 -0.684398
31.333466 -9.281395 -0.228148
31.292669 -9.418024 0.228148
31.296143 -9.419070 0.684608
31.369478 -9.590611 -0.687121
31.356468 -9.586635 -0.228916
31.323891 -9.726327 0.228985
31.289141 -9.715536 0.686283
31.360870 -9.888044 -0.688796
31.357449 -9.886966 -0.229544
31.352106 -10.035888 0.229823
31.365038 -10.040028 0.689843
31.463558 -10.223130 -0.692985
31.460182 -10.222034 -0.230940
31.377295 -10.346680 0.230661
31.390167 -10.350924 0.692356
31.524847 -10.548066 -0.696335
31.445646 -10.521566 -0.231499
31.437315 -10.671530 0.231778
31.402784 -10.659809 0.694660
31.507223 -10.848806 -0.698011
31.456636 -10.831388 -0.232267
31.418516 -10.971837 0.232336
31.384075 -10.959809 0.696335
31.562140 -11.176740 -0.701362
31.474031 -11.145539 -0.233104
31.472158 -11.299660 0.233453
31.437794 -11.287321 0.699686
31.576141 -11.492776 -0.703875
31.525919 -11.474496 -0.234221
31.494316 -11.618867 0.234361
31.450657 -11.602759 0.702199
31.587025 -11.809904 -0.706388
31.583817 -11.808705 -0.235408
31.494587 -11.932231 0.235129
31.460398 -11.919279 0.704712
31.641436 -12.146009 -0.709948
31.591591 -12.126876 -0.236246
31.584976 -12.282725 0.236595
31.541548 -12.265837 0.708901
31.683073 -12.480294 -0.713299
31.633427 -12.460738 -0.237363
31.578754 -12.598646 0.237363
31.544741 -12.585075 0.711414
31.637844 -12.782519 -0.714765
31.625471 -12.777519 -0.238131
31.615694 -12.934321 0.238480
31.581770 -12.920443 0.714765
31.709827 -13.134641 -0.718953
31.697535 -13.129549 -0.239527
31.575392 -13.240661 0.239038
31.578457 -13.241945 0.717278
31.778061 -13.488987 -0.723142
31.719824 -13.464267 -0.240574
31.715900 -13.626225 0.240993
31.645414 -13.595943 0.721466
31.805838 -13.829572 -0.726493
31.747847 -13.804357 -0.241691
31.705618 -13.950806 0.241831
31.671982 -13.936006 0.724817
31.793543 -14.155397 -0.729006
31.781471 -14.150023 -0.242878
31.765015 -14.309096 0.243227
31.731476 -14.293987 0.729006
31.887148 -14.531811 -0.734032
31.838770 -14.509763 -0.244274
31.747911 -14.635987 0.244065
31.750801 -14.637321 0.732356
31.904099 -14.877126 -0.737383
31.892195 -14.871574 -0.245671
31.836046 -15.014853 0.245740
31.766541 -14.982073 0.735707
31.872320 -15.202317 -0.739686
31.833406 -15.183757 -0.246229
31.883940 -15.378987 0.247137
31.814690 -15.345585 0.739896
31.954107 -15.585059 -0.744712
31.951349 -15.583714 -0.248184
31.927891 -15.745093 0.248533
31.894768 -15.728759 0.744922
32.004780 -15.956995 -0.749110
31.957327 -15.933335 -0.249301
31.932148 -16.095127 0.249650
31.899139 -16.078489 0.748273
32.042477 -16.326456 -0.753299
31.995264 -16.302402 -0.250697
32.003838 -16.483059 0.251325
31.970934 -16.466112 0.753299
32.067276 -16.693169 -0.757278
32.064659 -16.691805 -0.252373
31.964975 -16.817587 0.252163
31.932199 -16.800343 0.755812
32.096935 -17.066242 -0.761466
31.979582 -17.003845 -0.252861
32.063641 -17.228416 0.254118
31.995741 -17.191933 0.760838
32.157654 -17.460180 -0.766493
32.111195 -17.434956 -0.255095
32.087418 -17.603760 0.255514
32.019806 -17.566666 0.765027
32.213924 -17.856470 -0.771519
32.176476 -17.835711 -0.256841
32.141968 -18.000368 0.257190
32.109535 -17.982203 0.770890
32.265713 -18.255060 -0.776545
32.228485 -18.233999 -0.258516
32.157299 -18.379412 0.258586
32.124992 -18.360945 0.775079
32.312981 -18.655907 -0.781571
32.241341 -18.614546 -0.259912
32.203003 -18.780235 0.260261
32.136269 -18.741318 0.779267
32.364307 -19.064034 -0.786807
32.284458 -19.016998 -0.261588
32.244144 -19.183249 0.261937
32.212082 -19.164173 0.785131
32.436668 -19.489916 -0.792671
32.322990 -19.421612 -0.263263
32.314880 -19.609152 0.263892
32.248749 -19.569023 0.790157
32.469940 -19.897606 -0.797697
32.416588 -19.864912 -0.265428
32.346611 -20.016689 0.265567
32.280792 -19.975960 0.795184
32.532471 -20.328543 -0.803561
32.445530 -20.274218 -0.267103
32.373672 -20.426266 0.267243
32.308174 -20.384939 0.800210
32.488747 -20.697613 -0.806911
32.478214 -20.690905 -0.268848
32.429672 -20.859467 0.269197
32.364491 -20.817541 0.806074
32.474586 -21.089243 -0.811100
32.573170 -21.153265 -0.271152
32.472198 -21.289707 0.271082
32.415703 -21.252666 0.811938
32.531090 -21.531858 -0.817173
32.587463 -21.569172 -0.272828
32.526299 -21.733377 0.273107
32.495018 -21.712477 0.818639
32.574032 -21.971462 -0.823037
32.654995 -22.026072 -0.274992
32.566841 -22.173973 0.275062
32.502644 -22.130262 0.823665
32.545845 -22.368139 -0.827226
32.667564 -22.451796 -0.276737
32.635021 -22.639719 0.277296
32.538296 -22.572620 0.829529
32.529583 -22.777460 -0.831833
32.626030 -22.844994 -0.278064
32.664867 -23.085245 0.279250
32.601345 -23.040354 0.836231
32.671429 -23.304304 -0.840629
32.661518 -23.297235 -0.280088
32.754326 -23.579742 0.281764
32.626232 -23.487526 0.842095
32.555794 -23.653168 -0.842932
32.618771 -23.698923 -0.281484
32.773109 -24.030239 0.283718
32.710281 -23.984171 0.849634
32.476730 -24.031517 -0.846283
32.692062 -24.190853 -0.283928
32.794518 -24.488829 0.285743
32.724041 -24.436199 0.855498
32.074154 -24.169607 -0.841257
32.551590 -24.529383 -0.284556
32.762646 -24.913294 0.287349
32.796047 -24.938694 0.863037
31.862015 -24.448584 -0.841257
32.518761 -24.952522 -0.286162
32.804913 -25.400276 0.289652
32.861755 -25.444290 0.870576
32.214691 -25.168877 -0.856336
32.811970 -25.635519 -0.290700
32.801888 -25.858925 0.291607
32.889713 -25.928158 0.877278
31.493071 -25.050718 -0.842932
32.798309 -26.088953 -0.292585
32.918121 -26.419586 0.294679
32.911705 -26.414434 0.883980
31.304344 -25.349758 -0.843770
32.522766 -26.336416 -0.292166
32.903141 -26.882994 0.296634
32.896729 -26.877754 0.889843
31.066507 -25.609253 -0.843351
32.138828 -26.493208 -0.872461
32.831825 -27.064468 -0.297053
32.851810 -27.322563 0.298309
32.945335 -27.400345 0.897592
32.641655 -27.389599 -0.892566
32.762924 -27.491356 -0.298589
32.886887 -27.840803 0.300822
32.857582 -27.815996 0.901781
32.036480 -27.361738 -0.882514
32.742283 -27.964552 -0.300613
32.968426 -28.407412 0.303824
32.977146 -28.414927 0.911833
32.415215 -28.178114 -0.899686
32.806427 -28.518190 -0.303475
32.899708 -28.852270 0.305500
33.051147 -28.985077 0.920838
32.025810 -28.334044 -0.895707
33.073078 -29.260588 -0.308292
33.101761 -29.544449 0.309759
33.035633 -29.485432 0.927540
31.428131 -28.298018 -0.885864
31.568024 -28.423975 -0.296564
32.961109 -29.939764 0.310876
33.132298 -30.095261 0.937592
31.238960 -28.625233 -0.887540
31.849606 -29.184786 -0.301590
32.610470 -30.144806 0.310038
32.868408 -30.383244 0.937592
31.156147 -29.053577 -0.892357
31.366997 -29.250196 -0.299426
32.433567 -30.510454 0.310876
32.711246 -30.771669 0.940733
34.266422 -32.517620 -0.989529
32.771614 -31.099102 -0.315413
34.215076 -32.468895 -0.329306
33.076241 -31.663610 0.319672
32.939793 -31.532993 0.955184
34.376900 -33.197388 -1.001048
32.463013 -31.349169 -0.315064
34.254128 -33.078827 -0.332448
32.225639 -31.392828 0.314087
32.985630 -32.133179 0.964608
34.456703 -33.860508 -1.011938
32.209606 -31.652290 -0.315274
34.335041 -33.740952 -0.336078
32.951797 -32.665485 0.323930
33.158382 -32.870277 0.978011
34.527519 -34.527519 -1.022828
34.406979 -34.406979 -0.339708
32.968204 -33.257172 0.326932
32.863239 -33.151283 0.977802
34.610317 -35.219715 -1.034346
34.469879 -35.076801 -0.343338
32.816284 -33.686859 0.328329
34.456055 -35.370129 0.344735
32.963367 -33.837845 0.989529
34.669739 -35.901566 -1.045446
34.523678 -35.750317 -0.346969
34.484917 -36.023415 0.348155
33.074730 -34.550312 1.001885
34.768047 -36.637875 -1.058011
34.678459 -36.543468 -0.351716
34.559788 -36.738136 0.352135
33.422745 -35.529427 1.021781
34.883385 -37.407848 -1.071414
34.767429 -37.283504 -0.355905
34.638359 -37.471565 0.356254
32.955334 -35.650879 1.016964
34.900089 -38.086765 -1.082095
34.839336 -38.020466 -0.360024
34.794136 -38.305355 0.361280
32.595917 -35.885303 1.015498
34.947716 -38.813370 -1.094032
34.914383 -38.776352 -0.364282
34.911324 -39.114834 0.366027
32.148373 -36.019211 1.011310
35.025040 -39.588604 -1.107226
34.998737 -39.558876 -0.368750
34.964256 -39.869095 0.370216
32.017403 -36.508850 1.017173
35.071781 -40.345470 -1.119791
35.045818 -40.315605 -0.372939
35.032761 -40.657520 0.374684
34.895409 -40.498116 1.119791
35.107956 -41.106133 -1.132357
35.101810 -41.098942 -0.377337
35.115982 -41.480675 0.379431
34.979939 -41.319973 1.134032
35.120640 -41.855148 -1.144503
35.095348 -41.825008 -0.381177
35.136318 -42.246830 0.383620
35.272461 -43.171337 0.389205
35.320000 -44.007809 0.393953
35.212990 -43.874474 1.178430
35.299877 -44.777679 0.398071
35.224911 -44.682583 1.191833
35.324078 -45.621677 0.402819
35.317188 -45.612782 1.208378
35.419029 -47.431835 1.240001
0.128507 -0.178507 0.004607
0.159595 -0.230056 0.001955
0.153865 -0.221796 0.005654
0.155556 -0.232806 0.001955
0.138862 -0.207822 0.005236
0.131587 -0.200704 0.001676
0.126080 -0.192304 0.004817
0.151469 -0.235485 0.001955
0.162257 -0.252256 0.006283
0.149408 -0.236798 0.001955
0.138709 -0.219841 0.005445
0.147336 -0.238093 0.001955
0.157830 -0.255050 0.006283
0.129690 -0.213723 0.001745
0.119292 -0.196587 0.004817
0.138046 -0.232034 0.001885
0.102236 -0.171844 0.004188
0.135989 -0.233184 0.005654