# This PCD file was generated using the MATLAB® pcwrite function
# from Computer Vision System Toolbox®.
# .PCD v.7 - Point Cloud Data file format
VERSION .7
FIELDS x y z
SIZE 4 4 4
TYPE F F F
COUNT 1 1 1
WIDTH 770
HEIGHT 1
VIEWPOINT 0 0 0 1 0 0 0
POINTS 770
DATA ascii
23.578331 25.284664 -0.724189
23.623848 25.333475 -0.241831
23.570974 24.838623 -0.717278
23.671936 24.945017 -0.240086
23.536810 24.373079 -0.709739
23.624756 24.464149 -0.237433
23.475311 23.888649 -0.701571
23.585022 24.000292 -0.234919
23.548561 23.548561 -0.697592
23.652145 23.652145 -0.233523
23.524971 23.117926 -0.690890
23.600882 23.192522 -0.231010
23.510061 22.703402 -0.684608
23.572191 22.763399 -0.228776
23.518732 22.318443 -0.679163
23.537825 22.336561 -0.226542
23.478617 21.894165 -0.672461
23.527075 21.939352 -0.224587
23.528730 21.560110 -0.668482
23.540691 21.571070 -0.222912
23.500515 21.159960 -0.662409
23.549686 21.204231 -0.221236
23.504564 20.795082 -0.657383
23.561573 20.845518 -0.219630
23.504047 20.431757 -0.652356
23.591646 20.507906 -0.218234
23.476187 20.050558 -0.646702
23.556803 20.119410 -0.216279
23.520065 19.735678 -0.643142
23.578274 19.784521 -0.214883
23.506245 19.377052 -0.638116
23.557125 19.418995 -0.213138
23.495739 19.026474 -0.633299
23.546949 19.067944 -0.211532
23.473095 18.671343 -0.628273
23.524628 18.712334 -0.209857
23.509085 18.367310 -0.624922
23.560947 18.407829 -0.208740
23.478109 18.015387 -0.619896
23.530287 18.055424 -0.207064
23.474735 17.689482 -0.615707
23.527229 17.729038 -0.205668
23.499620 17.388803 -0.612356
23.552431 17.427883 -0.204551
23.456347 17.042034 -0.607330
23.541821 17.104134 -0.203155
23.465803 16.737995 -0.603770
23.527365 16.781906 -0.201758
23.414421 16.394955 -0.598744
23.509090 16.461243 -0.200362
23.465967 16.127712 -0.596440
23.511747 16.159176 -0.199175
23.606829 16.073317 0.199385
23.440041 15.810507 -0.592252
23.527514 15.869508 -0.198128
23.596533 15.766699 0.198128
23.633497 15.791398 0.595393
23.443727 15.517064 -0.588901
23.531685 15.575282 -0.197011
23.574331 15.456010 0.196802
23.603180 15.474923 0.591205
23.444086 15.224768 -0.585550
23.465431 15.238628 -0.195336
23.540108 15.141506 0.195405
23.611197 15.187232 0.588063
23.441139 14.933653 -0.582199
23.462578 14.947310 -0.194219
23.578318 14.876810 0.194638
23.615997 14.900585 0.584922
23.409473 14.627862 -0.578220
23.490360 14.678406 -0.193381
23.528673 14.559984 0.193171
23.600601 14.604495 0.581362
23.459511 14.376007 -0.576335
23.481138 14.389259 -0.192264
23.526602 14.276292 0.192124
23.598940 14.320189 0.578220
23.412674 14.067754 -0.572147
23.502954 14.122000 -0.191426
23.547161 14.009089 0.191287
23.585531 14.031918 0.574869
23.396715 13.781718 -0.568796
23.496054 13.840234 -0.190379
23.530306 13.722468 0.190170
23.637993 13.785270 0.573194
23.412191 13.517035 -0.566283
23.477377 13.554669 -0.189262
23.501570 13.432254 0.188983
23.583788 13.479245 0.569006
23.424837 13.253135 -0.563770
23.481625 13.285264 -0.188354
23.513195 13.168021 0.188145
23.560949 13.194765 0.565655
23.399691 12.970660 -0.560419
23.491713 13.021669 -0.187517
23.495705 12.890184 0.187098
23.605074 12.950187 0.563979
23.415340 12.713492 -0.558115
23.463844 12.739828 -0.186400
23.536827 12.646793 0.186539
23.576273 12.667989 0.560629
23.410635 12.447656 -0.555393
23.432858 12.459472 -0.185283
23.504700 12.366421 0.185422
23.544355 12.387285 0.557278
23.420818 12.192106 -0.553089
23.505215 12.236040 -0.185003
23.540600 12.124206 0.184864
23.544899 12.126420 0.554765
23.455057 11.950949 -0.551414
23.513088 11.980517 -0.184235
23.502632 11.846302 0.183747
23.578402 11.884493 0.553089
23.415297 11.674436 -0.548063
23.500404 11.716869 -0.183328
23.506462 11.592104 0.182979
23.546713 11.611954 0.549948
23.408449 11.417064 -0.545550
23.466940 11.445592 -0.182281
23.534672 11.351778 0.182420
23.566103 11.366939 0.548063
23.398903 11.160705 -0.543037
23.502748 11.210236 -0.181792
23.479084 11.073455 0.181234
23.519718 11.092620 0.544712
23.422918 10.922286 -0.541362
23.481863 10.949772 -0.180884
23.511253 10.838837 0.180745
23.552067 10.857652 0.543246
23.371778 10.651133 -0.538011
23.467329 10.694678 -0.180047
23.532005 10.600395 0.180186
23.572996 10.618860 0.541571
23.418169 10.426440 -0.536964
23.495817 10.461012 -0.179558
23.477167 10.330201 0.179069
23.545799 10.360399 0.538848
23.444084 10.193777 -0.535498
23.512848 10.223677 -0.179000
23.483730 10.089407 0.178441
23.571012 10.126905 0.537382
23.421711 9.941926 -0.532985
23.444687 9.951679 -0.177813
23.506330 9.857022 0.177952
23.547848 9.874432 0.534869
23.405973 9.695071 -0.530681
23.465969 9.719922 -0.177324
23.480391 9.606081 0.177115
23.549839 9.634494 0.532985
23.369179 9.441761 -0.527958
23.438637 9.469824 -0.176486
23.489021 9.371169 0.176556
23.577303 9.406390 0.531728
23.422777 9.226477 -0.527330
23.445951 9.235606 -0.175928
23.541945 9.154962 0.176347
23.611900 9.182166 0.530681
23.427729 8.993063 -0.525655
23.441633 8.998400 -0.175299
23.508726 8.906660 0.175509
23.588287 8.936803 0.528377
23.430399 8.760267 -0.523979
23.444334 8.765477 -0.174741
23.454212 8.652716 0.174532
23.543438 8.685633 0.525655
23.355635 8.500756 -0.520629
23.416569 8.522934 -0.173973
23.500593 8.437574 0.174322
23.543060 8.452822 0.523979
23.353533 8.269919 -0.518953
23.442923 8.301575 -0.173624
23.497803 8.205800 0.173764
23.540417 8.220681 0.522304
23.349186 8.039770 -0.517278
23.410469 8.060871 -0.172856
23.492764 7.974719 0.173205
23.535521 7.989233 0.520629
23.371052 7.819844 -0.516231
23.441990 7.843580 -0.172577
23.485487 7.744352 0.172647
23.556868 7.767890 0.519581
23.333809 7.581614 -0.513927
23.423952 7.610903 -0.171948
23.475985 7.514722 0.172088
23.547583 7.537641 0.517906
23.399080 7.377702 -0.513927
23.451328 7.394176 -0.171669
23.502468 7.297710 0.171809
23.497887 7.296288 0.515393
23.424328 7.161536 -0.513089
23.448021 7.168779 -0.171181
23.488653 7.069282 0.171250
23.531942 7.082311 0.514765
23.399656 6.931294 -0.511204
23.461746 6.949686 -0.170831
23.472647 6.841653 0.170692
23.554457 6.865498 0.513927
23.382368 6.704786 -0.509529
23.454214 6.725388 -0.170343
23.492960 6.625700 0.170413
23.536491 6.637977 0.512252
23.391815 6.487125 -0.508482
23.415649 6.493734 -0.169645
23.472704 6.399394 0.169854
23.516356 6.411294 0.510576
23.389593 6.267222 -0.507225
23.413471 6.273621 -0.169226
23.498644 6.186677 0.169645
23.494062 6.185471 0.508901
23.394997 6.050357 -0.506178
23.428602 6.059049 -0.168947
23.425739 5.949380 0.168737
23.469624 5.960525 0.507225
23.340195 5.819364 -0.503875
23.441774 5.844691 -0.168667
23.437914 5.735221 0.168458
23.443054 5.736479 0.505550
23.390089 5.615464 -0.503875
23.404373 5.618893 -0.168039
23.409201 5.512135 0.167899
23.453295 5.522518 0.504712
23.360270 5.393143 -0.502199
23.413542 5.405442 -0.167760
23.417398 5.298816 0.167620
23.461590 5.308816 0.503875
23.367401 5.180428 -0.501362
23.420771 5.192260 -0.167480
23.462748 5.094262 0.167620
23.467943 5.095390 0.503037
23.323704 4.957606 -0.499477
23.426064 4.979363 -0.167201
23.388826 4.864883 0.166782
23.472361 4.882258 0.502199
23.336687 4.747903 -0.498848
23.390232 4.758797 -0.166643
23.430389 4.660594 0.166782
23.474850 4.669438 0.501362
23.328161 4.534535 -0.497801
23.391605 4.546867 -0.166363
23.401398 4.442894 0.166294
23.475414 4.456947 0.500524
23.337353 4.325323 -0.497173
23.391064 4.335278 -0.166084
23.390078 4.229615 0.165945
23.474062 4.244802 0.499686
23.334826 4.114559 -0.496335
23.388615 4.124044 -0.165805
23.426096 4.025340 0.165945
23.510210 4.039793 0.499686
23.330399 3.904170 -0.495498
23.394125 3.914834 -0.165596
23.381374 3.807899 0.165386
23.426155 3.815192 0.497173
23.314207 3.692608 -0.494451
23.378014 3.702713 -0.165246
23.374180 3.597631 0.165107
23.419031 3.604533 0.496335
23.345543 3.489015 -0.494451
23.379765 3.494129 -0.165037
23.365099 3.387778 0.164828
23.459488 3.401464 0.496545
23.325600 3.278199 -0.493403
23.389563 3.287189 -0.164897
23.393774 3.183753 0.164828
23.438745 3.189873 0.495498
23.353317 3.074523 -0.493403
23.387615 3.079038 -0.164688
23.390907 2.975699 0.164618
23.426018 2.980166 0.494660
23.309795 2.862083 -0.491937
23.363968 2.868734 -0.164339
23.415983 2.771464 0.164618
23.451132 2.775625 0.494660
23.294149 2.654033 -0.491100
23.388111 2.664739 -0.164339
23.389576 2.561575 0.164269
23.434708 2.566518 0.493822
23.266708 2.445430 -0.490053
23.350805 2.454268 -0.163920
23.411039 2.357368 0.164269
23.456213 2.361916 0.493822
23.287163 2.242299 -0.490053
23.361380 2.249445 -0.163850
23.400845 2.150236 0.164060
23.436108 2.153476 0.492985
23.305843 2.038997 -0.490053
23.330311 2.041138 -0.163501
23.368891 1.941805 0.163711
23.414152 1.945566 0.492147
23.292849 1.833187 -0.489424
23.307360 1.834329 -0.163222
23.394918 1.738543 0.163780
23.440210 1.741909 0.492356
23.297985 1.629154 -0.489215
23.352406 1.632959 -0.163431
23.359308 1.531050 0.163431
17.867733 1.171113 0.375079
23.444542 1.536636 0.492147
23.281378 1.423950 -0.488587
23.335823 1.427280 -0.163222
23.371778 1.327146 0.163431
17.577822 0.998141 0.368796
23.417131 1.329721 0.491309
23.282934 1.220207 -0.488377
23.347389 1.223585 -0.163222
23.312553 1.119782 0.162943
17.555904 0.843271 0.368168
23.377913 1.122922 0.490262
23.292694 1.016981 -0.488377
23.317217 1.018052 -0.162943
17.695915 0.695274 0.123638
23.401373 0.919442 0.163501
23.446762 0.921226 0.491519
23.270708 0.812631 -0.487749
23.325214 0.814534 -0.162943
23.358530 0.713668 0.163152
23.453909 0.716582 0.491519
23.276913 0.609527 -0.487749
23.301445 0.610170 -0.162733
23.333878 0.509147 0.162943
18.531523 0.404359 0.388272
23.459269 0.511883 0.491519
23.281345 0.406377 -0.487749
23.335876 0.407329 -0.162943
23.367428 0.305896 0.163152
18.714291 0.244983 0.392042
23.412857 0.306491 0.490471
23.284006 0.203196 -0.487749
23.338543 0.203672 -0.162943
23.369207 0.101968 0.163152
16.486227 0.071935 0.345340
18.335804 0.080006 0.384084
23.414640 0.102166 0.490471
23.244902 0.000000 -0.486911
23.299433 0.000000 -0.162663
23.339209 -0.101837 0.162943
23.414640 -0.102166 0.490471
23.284006 -0.203196 -0.487749
23.298546 -0.203323 -0.162663
23.367428 -0.305896 0.163152
23.462843 -0.307145 0.491519
23.281345 -0.406377 -0.487749
23.295883 -0.406631 -0.162663
23.363869 -0.509801 0.163152
18.681454 -0.407631 0.391414
23.409292 -0.510793 0.490471
23.276913 -0.609527 -0.487749
23.301445 -0.610170 -0.162733
23.358530 -0.713668 0.163152
18.727152 -0.572166 0.392461
23.413937 -0.715360 0.490681
23.270708 -0.812631 -0.487749
23.285238 -0.813138 -0.162663
23.321438 -0.916302 0.162943
23.356852 -0.917693 0.489634
23.262730 -1.015673 -0.487749
23.287247 -1.016743 -0.162733
23.312553 -1.119782 0.162943
23.397884 -1.123881 0.490681
23.252981 -1.218637 -0.487749
23.277487 -1.219921 -0.162733
23.301893 -1.323177 0.162943
23.427113 -1.330288 0.491519
23.231482 -1.420898 -0.487540
23.255974 -1.422396 -0.162663
23.289459 -1.526472 0.162943
23.364731 -1.531405 0.490471
23.228170 -1.624272 -0.487749
23.282578 -1.628076 -0.162943
23.275251 -1.729650 0.162943
23.350477 -1.735240 0.490471
23.213112 -1.826912 -0.487749
23.237577 -1.828837 -0.162733
23.259272 -1.932696 0.162943
23.334446 -1.938943 0.490471
23.226166 -2.032026 -0.488377
23.290464 -2.037652 -0.163222
23.311226 -2.142001 0.163431
23.356461 -2.146157 0.491309
23.217501 -2.235591 -0.488587
23.271795 -2.240819 -0.163222
23.331444 -2.349353 0.163711
23.376633 -2.353903 0.492147
23.157335 -2.433934 -0.487749
23.211575 -2.439635 -0.162943
23.310053 -2.552866 0.163711
23.355200 -2.557811 0.492147
23.214682 -2.644979 -0.489424
23.229143 -2.646627 -0.163222
23.286888 -2.756185 0.163711
23.331991 -2.761523 0.492147
23.220486 -2.851117 -0.490053
23.304417 -2.861423 -0.163920
23.311548 -2.965604 0.164060
23.356592 -2.971334 0.493194
23.194721 -3.053643 -0.490053
23.308300 -3.068596 -0.164129
23.314507 -3.172965 0.164269
23.359493 -3.179088 0.493822
23.167191 -3.255936 -0.490053
23.241026 -3.266313 -0.163850
23.285929 -3.376299 0.164269
23.330862 -3.382814 0.493822
23.226887 -3.471282 -0.491937
23.251196 -3.474915 -0.164129
23.255579 -3.579376 0.164269
23.339979 -3.592366 0.494660
23.156212 -3.667584 -0.491100
23.180481 -3.671427 -0.163850
23.302416 -3.795039 0.164828
23.307741 -3.795907 0.494660
23.202211 -3.882718 -0.492775
23.226460 -3.886776 -0.164409
23.228991 -3.991471 0.164548
23.313143 -4.005930 0.495498
23.137907 -4.079837 -0.492147
23.181810 -4.087578 -0.164339
23.232635 -4.201145 0.164828
23.326488 -4.218116 0.496545
23.209557 -4.301637 -0.494451
23.233747 -4.306120 -0.164967
23.234386 -4.411186 0.165107
23.318256 -4.427109 0.497173
23.171135 -4.504013 -0.494451
23.205101 -4.510615 -0.165037
23.234238 -4.621577 0.165386
23.278736 -4.630428 0.497173
23.130949 -4.706045 -0.494451
23.243248 -4.728892 -0.165596
23.232183 -4.832301 0.165665
23.276596 -4.841539 0.498011
23.167234 -4.924348 -0.496126
23.201096 -4.931545 -0.165596
23.228218 -5.043340 0.165945
23.282310 -5.055085 0.499058
23.133141 -5.128494 -0.496335
23.186464 -5.140316 -0.165805
23.232088 -5.256885 0.166294
23.305569 -5.273512 0.500524
23.155697 -5.345914 -0.497801
23.179699 -5.351455 -0.166084
23.214529 -5.466296 0.166503
23.258661 -5.476688 0.500524
23.117886 -5.550113 -0.498011
23.171011 -5.562868 -0.166363
23.204796 -5.678177 0.166782
23.287674 -5.698458 0.502199
23.136478 -5.768572 -0.499477
23.208908 -5.786631 -0.166992
23.193130 -5.890305 0.167062
23.237061 -5.901462 0.502199
23.085257 -5.970253 -0.499477
23.196253 -5.998959 -0.167271
23.218206 -6.112844 0.167620
23.223349 -6.114198 0.503037
23.119192 -6.194769 -0.501362
23.171995 -6.208918 -0.167480
23.163979 -6.315226 0.167620
23.246275 -6.337662 0.504712
23.054619 -6.393612 -0.501152
23.078386 -6.400203 -0.167201
23.184982 -6.538841 0.168179
23.276686 -6.564704 0.506597
23.151716 -6.638648 -0.504503
23.137005 -6.634429 -0.168039
23.165438 -6.752110 0.168458
23.208914 -6.764781 0.506388
23.092901 -6.840429 -0.504503
23.154932 -6.858803 -0.168597
23.182238 -6.977062 0.169016
23.235161 -6.992990 0.508273
23.032330 -7.041690 -0.504503
23.094196 -7.060605 -0.168597
23.206419 -7.205785 0.169645
23.240088 -7.216239 0.509739
23.122564 -7.290516 -0.507854
23.146147 -7.297952 -0.169435
23.142654 -7.408022 0.169645
23.214317 -7.430962 0.510576
23.086588 -7.501287 -0.508482
23.119621 -7.512020 -0.169714
23.181591 -7.644142 0.170413
23.224546 -7.658307 0.512252
23.067654 -7.718329 -0.509529
23.119568 -7.735699 -0.170203
23.151878 -7.859004 0.170692
23.204166 -7.876753 0.513299
23.075047 -7.945376 -0.511204
23.136276 -7.966459 -0.170831
23.120176 -8.073927 0.170971
23.200619 -8.102018 0.514765
23.080227 -8.173137 -0.512880
23.141285 -8.194758 -0.171390
23.124130 -8.302411 0.171530
23.204309 -8.331199 0.516440
23.083183 -8.401592 -0.514555
23.153461 -8.427171 -0.172018
23.125853 -8.531577 0.172088
23.215143 -8.564518 0.518325
23.055811 -8.620214 -0.515602
23.116507 -8.642907 -0.172298
23.125330 -8.761404 0.172647
23.204966 -8.791575 0.519791
23.054379 -8.849747 -0.517278
23.077545 -8.858640 -0.172577
23.159832 -9.006366 0.173484
23.239178 -9.037222 0.522304
23.050692 -9.079908 -0.518953
23.148226 -9.118328 -0.173694
23.154657 -9.237772 0.174043
23.196573 -9.254495 0.523142
23.044735 -9.310678 -0.520629
23.104858 -9.334969 -0.173973
23.110184 -9.454625 0.174322
23.188959 -9.486854 0.524817
23.073450 -9.557336 -0.523142
23.124142 -9.578333 -0.174741
23.137459 -9.702342 0.175160
23.179049 -9.719782 0.526492
23.025980 -9.773949 -0.523979
23.048880 -9.783669 -0.174811
23.125412 -9.935461 0.175718
23.166832 -9.953257 0.528168
23.013159 -10.006407 -0.525655
23.063499 -10.028295 -0.175579
23.120205 -10.173134 0.176347
23.188906 -10.203362 0.530681
22.998030 -10.239383 -0.527330
23.084732 -10.277985 -0.176416
23.130840 -10.419683 0.177115
23.171907 -10.438184 0.532356
23.007874 -10.485292 -0.529634
23.103354 -10.528805 -0.177254
23.111681 -10.654631 0.177673
23.188890 -10.690225 0.534869
23.060474 -10.753276 -0.532985
23.083097 -10.763824 -0.177813
23.126354 -10.907097 0.178511
23.203230 -10.943354 0.537382
23.037949 -10.988538 -0.534660
23.069517 -11.003595 -0.178441
23.102346 -11.143250 0.179069
23.178888 -11.180168 0.539058
23.057997 -11.246137 -0.537382
23.080469 -11.257096 -0.179279
23.111847 -11.397502 0.179907
23.188042 -11.435077 0.541571
22.994768 -11.464768 -0.538220
23.043999 -11.489314 -0.179767
23.082943 -11.634761 0.180466
23.123083 -11.654993 0.542409
23.036375 -11.737619 -0.541571
23.094326 -11.767147 -0.180954
23.051653 -11.872381 0.181024
23.127153 -11.911266 0.544922
23.004015 -11.975132 -0.543246
23.052849 -12.000554 -0.181443
23.088764 -12.147587 0.182141
23.128504 -12.168494 0.547435
23.031050 -12.245827 -0.546388
23.062029 -12.262299 -0.182351
23.052349 -12.386474 0.182700
23.162346 -12.445577 0.550786
23.002386 -12.489277 -0.548273
23.050812 -12.515570 -0.183118
23.083652 -12.664125 0.183817
23.158041 -12.704936 0.553299
23.032431 -12.767085 -0.551623
23.054413 -12.779270 -0.184026
23.076958 -12.923717 0.184654
23.116074 -12.945623 0.554974
22.946245 -12.982362 -0.552252
23.011644 -13.019361 -0.184585
23.032753 -13.164303 0.185213
23.132423 -13.221270 0.558115
23.005249 -13.282086 -0.556440
23.035715 -13.299676 -0.185702
23.089760 -13.465550 0.186609
23.128441 -13.488109 0.560838
22.965996 -13.528006 -0.558325
23.013554 -13.556020 -0.186469
23.074499 -13.727885 0.187447
23.112963 -13.750768 0.563351
22.984184 -13.810291 -0.561676
23.040096 -13.843886 -0.187656
23.056412 -13.990973 0.188285
23.094652 -14.014179 0.565864
22.990662 -14.088696 -0.564817
23.020723 -14.107118 -0.188494
23.001467 -14.233740 0.188843
23.073498 -14.278314 0.568377
22.977062 -14.357662 -0.567540
23.023945 -14.386957 -0.189541
23.079350 -14.561985 0.190519
23.117128 -14.585821 0.572566
22.943647 -14.616716 -0.569843
23.040894 -14.678668 -0.190728
23.052317 -14.827749 0.191356
23.089867 -14.851901 0.575079
22.949379 -14.903502 -0.573194
23.004173 -14.939085 -0.191496
23.014034 -15.088662 0.192124
23.084797 -15.135056 0.578220
22.918493 -15.169420 -0.575707
22.981333 -15.211013 -0.192404
23.056091 -15.405587 0.193590
23.093161 -15.430356 0.581780
22.859842 -15.419158 -0.577592
22.938911 -15.472490 -0.193171
22.986900 -15.651223 0.194149
23.048532 -15.693187 0.584084
22.913923 -15.748302 -0.582409
22.976078 -15.791021 -0.194638
22.980906 -15.942421 0.195266
23.075001 -16.007698 0.588273
22.906658 -16.039415 -0.585759
22.968464 -16.082691 -0.195755
23.036898 -16.280869 0.196941
23.073229 -16.306545 0.591833
22.863489 -16.308369 -0.588273
22.949358 -16.369617 -0.196802
22.983215 -16.545547 0.197709
23.019304 -16.571527 0.594136
22.882071 -16.624798 -0.592461
22.943163 -16.669184 -0.197989
22.966982 -16.840088 0.198826
23.035069 -16.890011 0.598325
22.896860 -16.942785 -0.596650
22.917400 -16.957985 -0.199036
22.979399 -17.159531 0.200223
23.055027 -17.216005 0.602723
22.835966 -17.208136 -0.598953
22.928267 -17.277689 -0.200432
22.987978 -17.480465 0.201619
23.023287 -17.507315 0.605864
22.851498 -17.534571 -0.603351
22.935286 -17.598864 -0.201828
22.937346 -17.759991 0.202526
22.996115 -17.805494 0.609215
22.855179 -17.856422 -0.607540
22.914795 -17.903000 -0.203015
22.969961 -18.108057 0.204202
23.028294 -18.154043 0.614241
22.854971 -18.179665 -0.611728
22.906382 -18.220560 -0.204341
22.928045 -18.401701 0.205249
22.962561 -18.429403 0.616754
22.850849 -18.504253 -0.615917
22.901934 -18.545620 -0.205738
22.952438 -18.752930 0.206925
22.986675 -18.780901 0.621780
22.719360 -18.728395 -0.616754
22.831816 -18.821096 -0.206575
22.910929 -19.054817 0.208042
22.975643 -19.108641 0.625969
22.800142 -19.131590 -0.623456
22.881189 -19.199598 -0.208530
22.926945 -19.409092 0.209717
22.991152 -19.463446 0.630995
22.814777 -19.485661 -0.628482
22.895266 -19.554403 -0.210206
22.900631 -19.732447 0.211043
22.971907 -19.793861 0.635184
22.787231 -19.808638 -0.632461
22.844501 -19.858423 -0.211323
22.855373 -20.043625 0.212230
22.948635 -20.125412 0.639372
22.770748 -20.145857 -0.636859
22.812635 -20.182915 -0.212649
22.888483 -20.428751 0.214185
22.951151 -20.484686 0.644398
22.764963 -20.497665 -0.641676
22.843716 -20.568573 -0.214604
22.857378 -20.762180 0.215581
22.949129 -20.845522 0.649424
22.769503 -20.864405 -0.646911
22.788687 -20.881985 -0.215791
22.851559 -21.123764 0.217257
22.942545 -21.207870 0.654451
22.762047 -21.225952 -0.651938
22.810366 -21.271011 -0.217746
22.863008 -21.507370 0.219142
22.931372 -21.571680 0.659477
22.750004 -21.588947 -0.656964
22.761694 -21.600040 -0.219072
22.847815 -21.872025 0.220817
22.908360 -21.929983 0.664294
22.726152 -21.946390 -0.661780
22.773743 -21.992348 -0.221027
22.827986 -22.238041 0.222493
22.923796 -22.331373 0.670367
22.733437 -22.340086 -0.667644
22.787796 -22.393505 -0.223051
22.831903 -22.633522 0.224448
22.870054 -22.671341 0.674555
22.679010 -22.679010 -0.671833
22.782425 -22.782425 -0.224936
22.802481 -23.002344 0.226123
22.889538 -23.090164 0.681047
22.676449 -23.075722 -0.677697
22.722925 -23.123016 -0.226332
22.803236 -23.408176 0.228148
22.833673 -23.439421 0.685445
22.696457 -23.502869 -0.684398
22.742561 -23.550611 -0.228566
22.784800 -23.801313 0.230033
22.870235 -23.890558 0.692775
22.655663 -23.874086 -0.689424
22.728914 -23.951279 -0.230521
22.774927 -24.210461 0.232057
22.852692 -24.293127 0.698639
22.664654 -24.304865 -0.696126
22.709991 -24.353485 -0.232476
22.800362 -24.665293 0.234501
22.829849 -24.697191 0.704503
22.640818 -24.708117 -0.701990
22.712790 -24.786659 -0.234710
22.772509 -25.070578 0.236455
22.828569 -25.132294 0.711205
22.611654 -25.112785 -0.707854
22.676283 -25.184565 -0.236595
22.739305 -25.477238 0.238410
22.814760 -25.561779 0.717697
22.630136 -25.578716 -0.715393
22.674305 -25.628641 -0.238899
22.753469 -25.945360 0.240923
22.808361 -26.007952 0.724608
22.583158 -25.978952 -0.721048
22.679407 -26.089674 -0.241342
22.708958 -26.355043 0.242878
22.815475 -26.478662 0.732147
22.563370 -26.418312 -0.727749
22.606735 -26.469086 -0.243018
22.684860 -26.796438 0.245112
22.757956 -26.882782 0.737801
22.619144 -26.956448 -0.245671
22.705925 -27.300909 0.247905
22.810181 -27.426260 0.747226
22.694588 -27.776787 0.250418
22.772396 -27.872021 0.753927
22.651619 -28.223331 0.252652
22.747328 -28.342583 0.761257
22.645905 -28.726192 0.255374
22.740522 -28.846216 0.769424
22.738884 -29.367676 0.778011
22.637444 -29.769749 0.261099
22.699598 -29.851486 0.785550
22.695457 -30.392902 0.794555
22.563826 -30.773176 0.266405
22.665840 -30.912306 0.802932
0.181078 -0.251533 0.006492
22.687281 -31.514620 0.813404
0.193794 -0.279353 0.002374
0.136769 -0.197152 0.005026
0.146297 -0.214866 0.005445
0.133334 -0.199548 0.001676
0.144417 -0.216135 0.005445
0.153518 -0.234154 0.001955
0.148007 -0.225748 0.005654
0.151469 -0.235485 0.001955
0.162257 -0.252256 0.006283
0.128064 -0.202970 0.001676
0.117369 -0.186019 0.004607
0.126288 -0.204080 0.001676
0.115742 -0.187036 0.004607
0.124503 -0.205174 0.001676
0.140038 -0.230776 0.005654
0.117595 -0.197659 0.001606
0.102236 -0.171844 0.004188
0.115843 -0.198639 0.004817