# This PCD file was generated using the MATLAB® pcwrite function
# from Computer Vision System Toolbox®.
# .PCD v.7 - Point Cloud Data file format
VERSION .7
FIELDS x y z
SIZE 4 4 4
TYPE F F F
COUNT 1 1 1
WIDTH 753
HEIGHT 1
VIEWPOINT 0 0 0 1 0 0 0
POINTS 753
DATA ascii
38.579811 39.950562 -1.163351
38.503975 39.872032 -0.386971
38.667690 39.348530 -1.155603
38.577106 39.256348 -0.384249
38.839928 38.839928 -1.150577
38.699013 38.699013 -0.382084
38.692482 38.022995 -1.136336
38.807011 38.135544 -0.379850
38.943707 37.607502 -1.134032
38.850597 37.517586 -0.377058
38.944401 36.956856 -0.374824
39.184650 36.540276 -1.122304
38.746174 36.131393 -0.369867
39.266151 35.980797 -1.115603
39.200081 35.920258 -0.371194
39.370609 35.449455 -1.109739
39.244522 35.335926 -0.368680
39.468800 34.919044 -1.103875
39.371643 34.833088 -0.367005
39.560745 34.389629 -1.098011
39.432613 34.278248 -0.364771
39.646473 33.861286 -1.092147
39.555355 33.783463 -0.363165
39.572834 33.205551 -1.082095
39.626514 33.250591 -0.361141
35.240082 29.049681 -0.956650
35.949112 29.634163 -0.325257
35.531090 28.772511 -0.957697
35.639046 28.859930 -0.320161
36.218987 28.809883 -0.969425
35.803452 28.479351 -0.319393
39.880356 31.157949 -1.060105
35.829975 27.993444 -0.317438
39.960377 30.662674 -1.055079
36.017365 27.637094 -0.316949
36.034515 27.153955 -0.945131
36.153347 27.243502 -0.316042
36.519245 27.022820 -0.951624
36.357559 26.903179 -0.315762
36.656609 26.632586 -0.949110
36.647575 26.626022 -0.316251
37.025993 26.410383 -0.952671
37.082058 26.450375 -0.317996
40.514565 28.368603 -1.036021
29.529711 20.676928 -0.251674
40.399593 28.288101 -0.344316
40.562836 27.878063 -1.030995
40.521297 27.849516 -0.343269
40.638798 27.411215 -1.026807
29.944107 20.197556 -0.252163
40.676365 26.923100 -1.021781
30.227625 20.007229 -0.253071
40.692635 26.933868 -0.340686
40.742065 26.458206 -1.017592
29.235344 18.985655 -0.243367
38.099876 24.742348 -0.317159
29.396275 18.908319 0.732147
40.735306 25.951252 -1.011728
30.150509 19.207993 -0.249580
30.031063 18.948189 0.247905
29.729269 18.757772 0.736335
40.824562 25.510017 -1.008378
30.384823 18.986544 -0.250139
30.059219 18.601210 0.246788
29.891827 18.497623 0.736335
30.807657 18.878956 -0.756859
40.858082 25.037865 -1.003770
35.886749 21.991428 -0.293841
29.989578 18.198122 0.244903
30.026466 18.220509 0.735707
29.891438 17.960588 -0.730472
30.042982 18.051645 -0.244693
29.966772 17.828356 0.243437
30.184326 17.957787 0.735707
29.288967 17.252520 -0.712042
37.686741 22.199186 -0.305360
30.553118 17.818052 0.246927
27.852585 16.243147 0.675393
30.227612 17.628222 0.732985
29.299871 16.916288 -0.708691
30.994293 17.894564 -0.249859
28.632500 16.364822 0.230242
30.620626 17.501129 0.246229
27.880430 15.934978 0.672671
30.011984 16.979963 -0.722304
30.949095 17.510155 -0.248254
28.337980 15.870031 0.226751
27.957365 15.656877 0.671205
31.050934 17.211815 -0.743665
28.214544 15.639577 -0.225215
28.264982 15.506700 0.225076
27.812439 15.258427 0.664503
28.086311 15.249622 -0.223121
28.064495 15.079597 0.222423
27.918112 15.000943 0.663875
30.711010 16.329334 -0.728587
28.103537 14.942916 -0.222214
27.982628 14.722372 0.220747
27.977171 14.719502 0.662199
31.029703 16.153040 -0.732775
37.769505 19.661560 -0.891938
28.037729 14.595518 -0.220678
30.805136 16.036139 -0.242459
27.923347 14.381469 0.219281
28.060116 14.451909 0.661152
30.893330 15.740937 -0.726283
27.932373 14.232255 -0.218863
30.061827 15.317266 -0.235548
27.976349 14.101240 0.218723
28.024462 14.125491 0.657383
30.054253 14.984497 -0.703456
30.552315 15.232822 -0.238340
28.528826 14.068860 0.222074
27.994226 13.805224 0.653822
28.835976 14.064245 -0.672042
30.040094 14.651533 -0.700105
30.612179 14.930557 -0.237782
28.542431 13.767235 0.221236
28.041592 13.525659 0.652147
28.443249 13.566733 -0.660105
29.878044 14.251096 -0.693404
30.551767 14.572446 -0.236316
29.041348 13.696789 0.224168
28.402706 13.395586 0.657801
28.569618 13.322231 -0.660315
29.254902 13.641785 -0.225355
29.586584 13.639602 0.227449
28.772745 13.264418 0.663665
28.502834 12.989490 -0.656126
28.699478 13.079106 -0.220189
29.936996 13.643075 -0.229683
28.701571 12.929114 0.219770
29.306721 13.201715 0.673299
28.724703 12.789062 -0.658639
28.812521 12.828161 -0.220189
28.822456 12.682184 0.219840
28.633816 12.599180 0.655288
28.716022 12.486082 -0.655917
28.620747 12.444655 -0.217885
28.674774 12.319655 0.217885
28.678371 12.321200 0.653822
28.639828 12.156886 -0.651728
28.709846 12.186607 -0.217746
28.744305 12.053487 0.217606
29.227360 12.256049 0.663875
28.827957 11.940930 -0.653613
28.593374 11.843763 -0.216070
28.709566 11.745394 0.216559
28.815010 11.788532 0.652147
28.893982 11.673926 -0.652775
28.686369 11.590046 -0.216000
28.736668 11.464767 0.216000
29.037504 11.584790 0.654869
29.134287 11.476301 -0.655917
28.870153 11.372256 -0.216629
28.910179 11.242554 0.216559
29.090904 11.312834 0.653822
28.934647 11.106970 -0.649215
29.080322 11.162889 -0.217466
29.007187 10.989841 0.216559
29.010881 10.991240 0.649843
29.292681 10.952085 -0.655079
29.373323 10.982236 -0.218932
29.055079 10.718984 0.216210
30.387278 11.210459 0.226123
29.124453 10.744577 0.650262
29.396534 10.699463 -0.655288
29.486835 10.732330 -0.219072
29.448679 10.573156 0.218444
32.196846 11.559849 0.238829
29.537035 10.604879 0.657383
29.564178 10.469225 -0.656964
29.437977 10.424534 -0.218025
29.719198 10.378408 0.219770
41.784363 14.591752 0.308991
29.628454 10.346720 0.657383
29.663866 10.214088 -0.657173
29.679106 10.219336 -0.219142
30.083237 10.211883 0.221795
30.276184 10.277380 0.669739
29.818237 9.977043 -0.658639
30.089577 10.067831 -0.221515
30.171206 9.948972 0.221795
30.108355 9.928246 0.664084
30.332048 9.855480 -0.668063
30.223839 9.820321 -0.221864
30.399733 9.731031 0.222842
30.155760 9.652935 0.663246
30.865047 9.731712 -0.677906
30.460978 9.604309 -0.222981
30.569443 9.492064 0.223470
30.458454 9.457602 0.668063
30.700211 9.385997 -0.672461
30.677509 9.379056 -0.223959
30.631962 9.219174 0.223331
30.511106 9.182800 0.667435
31.039774 9.194400 -0.678116
31.084179 9.207553 -0.226332
30.845650 8.990687 0.224308
30.657267 8.935779 0.668901
31.138048 8.928692 -0.678534
31.057608 8.905626 -0.225565
31.153917 8.786313 0.225983
31.215200 8.803597 0.679372
31.224413 8.659296 -0.678744
31.375044 8.701070 -0.227310
31.412710 8.564088 0.227310
31.368002 8.551899 0.681047
31.501591 8.440825 -0.683142
31.459438 8.429531 -0.227380
31.650642 8.332919 0.228497
31.451105 8.280385 0.681257
31.651485 8.185631 -0.684817
31.851280 8.237302 -0.229683
31.760923 8.066247 0.228776
31.696590 8.049909 0.685027
32.061241 7.993765 -0.692147
32.018978 7.983228 -0.230382
32.179779 7.874341 0.231289
32.183216 7.875183 0.694032
32.207550 7.732349 -0.693822
31.990191 7.680165 -0.229683
32.870216 7.739909 0.235757
32.581589 7.671946 0.701152
32.468632 7.495974 -0.698011
32.055992 7.400709 -0.229683
32.829224 7.428494 0.234989
32.705807 7.400568 0.702409
32.893959 7.292415 -0.705760
32.685593 7.246222 -0.233733
32.570320 7.071710 0.232685
32.857075 7.133970 0.704294
33.073696 7.030031 -0.708273
32.874741 6.987741 -0.234640
33.022400 6.868669 0.235478
32.751678 6.812358 0.700733
33.153378 6.745131 -0.708691
33.071651 6.728504 -0.235618
33.238003 6.611450 0.236595
32.927547 6.549696 0.703246
33.426888 6.497529 -0.713299
35.438782 6.888602 -0.756231
33.256718 6.464451 -0.236525
35.622383 6.924290 -0.253350
33.048824 6.274516 0.234850
33.022739 6.269563 0.704084
33.275879 6.167320 -0.708901
35.182976 6.520779 -0.749529
33.420021 6.194035 -0.237293
35.642120 6.605877 -0.253071
33.141682 5.992992 0.235129
33.066353 5.979371 0.703875
33.879803 5.973923 -0.720629
34.270473 6.042809 -0.242948
33.301128 5.722180 0.235897
34.986389 6.011761 0.247835
43.846321 7.534176 0.310596
33.038448 5.677043 0.702199
35.294876 6.064769 0.750157
43.709679 7.510696 0.929006
35.084347 5.871106 -0.745131
33.414543 5.591677 -0.236525
35.022148 5.860698 -0.247905
33.428753 5.444218 0.236455
35.244781 5.739977 0.249301
43.920269 7.152870 0.310666
33.116333 5.393337 0.702828
43.862366 7.143440 0.930891
35.341614 5.597561 -0.749529
37.059814 5.869698 -0.785969
35.190479 5.573624 -0.248742
37.788036 5.985037 -0.267103
43.961250 6.766284 0.310526
43.883507 6.754318 0.930053
36.625114 5.473660 -0.775707
44.130096 6.595287 -0.934660
44.109032 6.592139 -0.311364
36.527142 5.296184 0.257678
44.058205 6.388136 0.310806
36.470551 5.287978 0.771938
36.572479 5.139927 -0.773613
44.334480 6.230804 -0.937802
36.688538 5.156238 -0.258656
44.145073 6.204185 -0.311225
36.591785 4.979924 0.257818
36.554932 4.974908 0.772775
36.645679 4.824495 -0.774241
36.712307 4.833267 -0.258516
36.663609 4.664200 0.258027
36.596954 4.655721 0.772775
36.765770 4.514269 -0.775917
36.763012 4.513930 -0.258586
36.742638 4.348778 0.258307
36.675903 4.340879 0.773613
36.893166 4.203445 -0.777801
36.801006 4.192945 -0.258586
36.779190 4.027976 0.258307
36.742203 4.023926 0.774241
36.918499 3.880291 -0.777592
36.905807 3.878957 -0.259075
36.812939 3.706868 0.258307
36.775917 3.703140 0.774241
36.990761 3.561805 -0.778430
36.938251 3.556749 -0.259075
36.923546 3.392797 0.258865
36.846657 3.385732 0.775079
37.020435 3.238868 -0.778430
37.017693 3.238628 -0.259424
36.961712 3.071282 0.258935
36.874802 3.064059 0.775079
37.087158 2.918823 -0.779267
37.044544 2.915469 -0.259424
37.017025 2.750840 0.259144
36.940018 2.745117 0.775917
37.111217 2.595069 -0.779267
37.068577 2.592088 -0.259424
37.039619 2.427705 0.259144
37.002472 2.425270 0.776754
37.252201 2.278442 -0.781781
37.169636 2.273392 -0.259982
37.139267 2.108920 0.259703
37.072136 2.105108 0.777801
37.310600 1.955366 -0.782618
37.257961 1.952607 -0.260471
37.196209 1.786662 0.259982
37.079105 1.781037 0.777592
37.366196 1.631443 -0.783456
37.313541 1.629144 -0.260750
37.250351 1.463570 0.260261
37.173157 1.460537 0.779267
37.418980 1.306700 -0.784294
37.376305 1.305209 -0.261099
37.341663 1.140891 0.260820
37.224461 1.137310 0.780105
37.478928 0.981420 -0.785341
37.416264 0.979779 -0.261309
37.350201 0.814984 0.260820
37.312931 0.814171 0.781781
37.556038 0.655543 -0.786807
37.473377 0.654100 -0.261658
37.405884 0.489670 0.261169
37.318615 0.488527 0.781781
37.600319 0.328133 -0.787644
37.557655 0.327761 -0.262216
37.478729 0.163533 0.261658
37.451427 0.163414 0.784503
37.651741 0.000000 -0.788692
37.589085 0.000000 -0.262426
37.518730 -0.163707 0.261937
37.481422 -0.163545 0.785131
37.680298 -0.328831 -0.789320
37.627651 -0.328372 -0.262705
37.595863 -0.492157 0.262495
37.518555 -0.491145 0.785969
37.795952 -0.659731 -0.791833
37.713337 -0.658289 -0.263333
37.830074 -0.825455 0.264171
37.792713 -0.824640 0.791833
38.028618 -0.995814 -0.796859
37.966061 -0.994176 -0.265148
37.821430 -1.155549 0.264171
37.664158 -1.150744 0.789320
38.058449 -1.329030 -0.797697
37.846008 -1.321612 -0.264380
37.769936 -1.483985 0.263892
37.692642 -1.480948 0.790157
37.915554 -1.655429 -0.794974
37.872993 -1.653571 -0.264660
37.795502 -1.815448 0.264171
37.758175 -1.813655 0.791833
37.949585 -1.988853 -0.796021
37.897068 -1.986101 -0.264939
37.898026 -2.152006 0.265009
37.820763 -2.147619 0.793508
38.000637 -2.324219 -0.797487
37.998066 -2.324061 -0.265777
37.917713 -2.485258 0.265288
37.880394 -2.482812 0.795184
38.068668 -2.662021 -0.799372
38.016239 -2.658355 -0.266056
37.974361 -2.821983 0.265846
37.897167 -2.816246 0.796021
38.153625 -3.002755 -0.801676
38.031471 -2.993142 -0.266335
37.978188 -3.155744 0.266056
37.910999 -3.150161 0.796859
38.205647 -3.342561 -0.803351
38.163288 -3.338855 -0.267452
38.078651 -3.498937 0.266963
38.001537 -3.491851 0.799372
38.254639 -3.683503 -0.805027
38.212330 -3.679429 -0.268011
38.126263 -3.839113 0.267522
38.049198 -3.831353 0.801048
38.300583 -4.025553 -0.806702
38.248379 -4.020067 -0.268499
38.170834 -4.180386 0.268080
38.093822 -4.171952 0.802723
38.343464 -4.368686 -0.808377
38.301262 -4.363878 -0.269128
38.212341 -4.522729 0.268639
38.175106 -4.518322 0.805236
38.422958 -4.717746 -0.810890
38.341122 -4.707698 -0.269686
38.290459 -4.871161 0.269477
38.213570 -4.861380 0.806911
38.499271 -5.068525 -0.813404
38.417553 -5.057767 -0.270524
38.325760 -5.215907 0.270035
38.248943 -5.205452 0.808587
38.532780 -5.415429 -0.815079
37.777805 -5.309324 -0.266335
38.367847 -5.563073 0.270663
38.320793 -5.556251 0.811100
38.563160 -5.763303 -0.816754
37.789375 -5.647660 -0.266754
38.159706 -5.873341 0.269546
38.073215 -5.860029 0.806911
38.363277 -6.076146 -0.813613
38.271992 -6.061688 -0.270524
38.255047 -6.230230 0.270594
38.178513 -6.217766 0.810262
38.466564 -6.437095 -0.816964
38.375439 -6.421846 -0.271641
38.356907 -6.590922 0.271711
38.280457 -6.577785 0.813613
38.527077 -6.793363 -0.819477
38.436111 -6.777323 -0.272479
38.416012 -6.946747 0.272548
38.300304 -6.925823 0.815288
38.495819 -7.134778 -0.820105
38.414833 -7.119769 -0.272758
38.432522 -7.296642 0.273107
38.356274 -7.282166 0.817801
38.638187 -7.510503 -0.824503
38.547562 -7.492887 -0.274154
38.524307 -7.662961 0.274224
38.448158 -7.647814 0.821152
38.727928 -7.879286 -0.827854
38.637489 -7.860886 -0.275271
38.573452 -8.023290 0.275062
38.536568 -8.015617 0.824503
38.735928 -8.233576 -0.829529
38.684795 -8.222707 -0.276109
38.619232 -8.385057 0.275899
38.543312 -8.368573 0.826178
38.857819 -8.614572 -0.833718
38.806820 -8.603265 -0.277505
38.700642 -8.757061 0.277016
38.702847 -8.757560 0.831205
38.898064 -8.980326 -0.836231
38.847187 -8.968580 -0.278343
39.002357 -9.183836 0.279739
38.926632 -9.166005 0.837697
39.207077 -9.412786 -0.844608
39.107765 -9.388944 -0.280786
39.124706 -9.573754 0.281205
39.039387 -9.552877 0.841885
39.278656 -9.793269 -0.847959
39.218399 -9.778245 -0.282183
39.155975 -9.944350 0.282043
39.080509 -9.925185 0.844608
39.336891 -10.173212 -0.851100
39.247749 -10.150158 -0.283020
39.222427 -10.326404 0.283160
39.108429 -10.296391 0.847121
39.439758 -10.567852 -0.855288
39.360519 -10.546619 -0.284486
39.285183 -10.710370 0.284277
39.210003 -10.689874 0.851309
39.500183 -10.954370 -0.858639
39.459705 -10.943145 -0.285883
39.382710 -11.107073 0.285673
39.307674 -11.085911 0.855498
39.595295 -11.353768 -0.862828
39.506893 -11.328420 -0.286930
39.428288 -11.492297 0.286720
39.401402 -11.484462 0.859686
39.609741 -11.732941 -0.865341
39.569527 -11.721027 -0.288117
39.527584 -11.896452 0.288186
39.452862 -11.873963 0.863037
39.706627 -12.139534 -0.869739
39.618740 -12.112664 -0.289234
39.613262 -12.300244 0.289583
39.500511 -12.265234 0.866388
39.828022 -12.557727 -0.874765
39.740417 -12.530106 -0.290909
39.694889 -12.706434 0.290979
39.620499 -12.682621 0.871414
39.897579 -12.963510 -0.878744
39.810257 -12.935136 -0.292236
39.772430 -13.114981 0.292375
39.660233 -13.077983 0.874765
39.934631 -13.361941 -0.882095
39.809658 -13.320125 -0.293073
40.101513 -13.612630 0.295656
39.989555 -13.574625 0.884608
40.232445 -13.853142 -0.891309
40.183559 -13.836309 -0.296704
39.915112 -13.938981 0.295168
39.794064 -13.896709 0.882932
40.072327 -14.190354 -0.890472
39.985878 -14.159742 -0.296145
39.933125 -14.337457 0.296215
39.831242 -14.300878 0.886493
40.172443 -14.621573 -0.895498
40.048725 -14.576543 -0.297541
40.003502 -14.758072 0.297681
39.930046 -14.730971 0.891519
40.155693 -15.013599 -0.898011
40.116692 -14.999017 -0.299007
40.060215 -15.177458 0.299077
39.986961 -15.149704 0.895707
40.331161 -15.481683 -0.904922
40.245670 -15.448866 -0.300962
40.149921 -15.613450 0.300753
40.114140 -15.599536 0.901571
40.371265 -15.902665 -0.908901
40.332619 -15.887441 -0.302638
40.235050 -16.052156 0.302428
40.162205 -16.023094 0.905760
40.453430 -16.344246 -0.913927
40.331516 -16.294991 -0.303685
40.315563 -16.493532 0.304104
40.159649 -16.429747 0.908901
40.530941 -16.788465 -0.918953
40.446461 -16.753473 -0.305640
40.391418 -16.937527 0.305779
40.272903 -16.887831 0.914765
40.566956 -17.219650 -0.923142
40.482819 -17.183937 -0.307036
40.416641 -17.364359 0.307106
35.723953 -15.348222 0.814451
40.372017 -17.345188 0.920419
40.644356 -17.672670 -0.928377
40.588089 -17.648203 -0.308991
40.483242 -17.813051 0.308781
35.579506 -15.655357 0.814241
40.447895 -17.797499 0.925655
40.735191 -18.136477 -0.934032
40.615242 -18.083071 -0.310387
40.590656 -18.284758 0.310806
40.446011 -18.219599 0.929215
37.527672 -17.102345 -0.863875
40.811909 -18.599058 -0.939477
40.683376 -18.540483 -0.312132
36.679008 -16.909254 0.281973
40.665661 -18.747126 0.312621
40.576019 -18.705801 0.935917
37.340752 -17.412279 -0.863037
36.015793 -16.794441 -0.277435
40.791920 -19.021584 -0.314227
36.267769 -17.104990 0.279949
33.620266 -15.856347 0.778639
36.486763 -17.208273 0.845027
37.151287 -17.720255 -0.862199
40.959362 -19.536613 -0.950576
35.903969 -17.125315 -0.277715
38.205505 -18.223091 -0.295517
40.931244 -19.523203 -0.316600
34.090599 -16.443352 0.264241
33.840816 -16.322872 0.787016
36.263165 -17.491274 0.843351
36.959293 -18.026251 -0.861362
36.804718 -17.950861 -0.285883
34.412167 -16.970203 0.267871
34.468227 -16.997849 0.805027
35.288471 -17.594183 -0.825969
37.051105 -18.473000 -0.867226
35.062675 -17.481604 -0.273526
36.933041 -18.414135 -0.288117
34.825329 -17.553411 0.272269
37.638145 -18.971188 0.294260
35.229221 -17.756989 0.826388
34.501114 -17.579195 -0.811100
34.917694 -17.791454 -0.273596
36.940231 -18.821987 -0.289443
34.546364 -17.792547 0.271292
33.624142 -17.317572 0.792252
34.479416 -17.948849 -0.814241
34.761108 -18.095488 -0.273596
36.969711 -19.245213 -0.290979
33.265873 -17.502024 0.262426
34.903061 -18.363390 0.275341
33.418652 -17.582403 0.790995
33.853615 -18.000286 -0.803142
34.142750 -18.154022 -0.269965
32.970936 -17.715923 0.261309
34.864807 -18.733536 0.276318
33.290367 -17.887560 0.791623
32.017071 -17.383852 -0.763142
35.619431 -19.339773 -0.849006
33.851212 -18.379707 -0.268918
33.358639 -18.301176 0.265637
33.527443 -18.393785 0.801048
31.977827 -17.725599 -0.765864
32.290173 -17.898735 -0.257748
33.610817 -18.630779 -0.268290
33.433231 -18.723509 0.267522
33.400547 -18.705204 0.801885
32.639881 -18.466757 -0.785550
32.446068 -18.357103 -0.260261
33.615837 -19.213036 0.270314
33.105839 -18.921547 0.798744
32.399563 -18.705896 -0.783665
32.094120 -18.529549 -0.258725
33.144562 -19.329336 0.267871
32.015358 -18.670805 0.776335
32.217865 -18.977772 -0.783247
32.086288 -18.900269 -0.259982
31.565228 -18.779337 0.256422
31.825432 -18.934143 0.775707
32.102444 -19.289095 -0.784503
31.851561 -19.138348 -0.259424
32.049866 -19.448336 0.261727
31.470951 -19.097042 0.771100
32.154533 -19.704323 -0.789948
32.169331 -19.713390 -0.263403
31.844915 -19.706232 0.261448
31.813202 -19.686607 0.783665
31.981359 -19.984171 -0.789948
32.165680 -20.099348 -0.264799
32.745785 -20.661051 0.270314
30.904573 -19.499332 0.765445
32.629478 -20.587667 0.808168
33.880882 -21.377245 0.839163
31.923798 -20.337702 -0.792880
32.174599 -20.497480 -0.266335
32.707211 -21.037985 0.271501
31.439552 -20.222599 0.783037
31.602562 -20.522943 -0.789320
32.893829 -21.361504 -0.821571
32.371895 -21.022554 -0.269477
31.920265 -20.927843 0.266475
31.939125 -20.940208 0.800000
31.622353 -20.930378 -0.794346
31.887016 -21.105556 -0.266963
31.503616 -21.050043 0.264520
31.464222 -21.023722 0.792671
31.927523 -21.535387 -0.806702
31.627012 -21.332689 -0.266335
38.259151 -25.806124 -0.322185
30.855843 -21.008995 0.260610
31.254768 -21.280615 0.792042
31.680702 -21.773544 -0.805236
30.623783 -21.047142 -0.259424
31.394365 -21.779045 0.266754
30.862505 -21.410082 0.786807
31.677853 -22.181070 -0.810053
31.618498 -22.139511 -0.269477
31.464432 -22.236862 0.268988
30.290756 -21.407391 0.776964
32.134232 -22.921125 -0.826807
31.619476 -22.553953 -0.271152
30.749788 -22.136681 0.264520
30.208273 -21.746845 0.779686
31.908720 -23.183043 -0.826178
31.453814 -22.852533 -0.271431
30.434477 -22.315483 0.263473
30.525297 -22.382074 0.792880
30.989922 -22.931335 -0.807540
33.851025 -25.048441 -0.882095
30.280550 -22.406427 -0.262984
30.334730 -22.652018 0.264311
30.521074 -22.791168 0.797906
31.778769 -23.730331 0.830786
29.926294 -22.551081 -0.784922
31.491276 -23.730379 -0.825969
29.980047 -22.591585 -0.262076
30.000584 -22.812975 0.263124
30.631397 -23.292656 0.806074
30.696041 -23.553900 -0.810472
32.853489 -25.209368 -0.867435
30.527493 -23.424568 -0.268639
29.752924 -23.037174 0.262705
29.826176 -23.093891 0.790157
30.765072 -24.036308 -0.817801
30.692270 -23.979429 -0.271920
29.817757 -23.506424 0.265078
30.039637 -23.681339 0.801257
30.804525 -24.503027 -0.824503
29.926207 -23.804380 -0.266963
29.892244 -23.991062 0.267592
32.029076 -25.706051 0.286720
29.925402 -24.017673 0.803770
30.931395 -25.047750 -0.833718
31.139481 -25.216253 -0.279739
31.137569 -25.440462 0.280716
30.272112 -24.733353 0.818849
31.598812 -26.048050 -0.857801
30.995403 -25.550640 -0.280437
31.037388 -25.813524 0.281833
30.147364 -25.073298 0.821362
31.868118 -26.740526 -0.871414
31.407057 -26.353649 -0.286232
31.810755 -26.929790 0.290979
30.522604 -25.839291 0.837697
31.686769 -27.063059 -0.872880
33.123623 -28.290245 -0.912461
32.088348 -27.406040 -0.294609
33.597187 -28.949190 0.309619
30.068733 -25.908878 0.831414
31.524851 -27.404135 -0.874974
32.898121 -28.597900 -0.913090
31.561186 -27.435720 -0.291956
33.696960 -29.292322 -0.311713
30.155560 -26.445717 0.280018
33.516201 -29.392920 0.311225
30.352633 -26.618546 0.845655
31.351898 -27.737816 -0.876859
31.380480 -27.763103 -0.292515
33.717163 -29.830427 -0.314296
29.990776 -26.767790 0.280647
30.395170 -27.128727 0.853404
33.460793 -29.864901 0.939477
33.611622 -30.264040 -0.315762
34.130627 -31.002077 0.321906
35.875042 -32.873417 -0.339708
53.662983 -49.605549 0.510190
33.940285 -31.374077 0.968168
53.833633 -50.200676 -0.513891
53.839870 -50.647491 0.516055
33.694332 -31.696465 0.969006
50.518497 -47.940262 -1.458849
53.901257 -51.150383 -0.518777
53.890976 -51.589386 1.562723
54.143944 -52.744694 0.527713
54.207130 -53.736134 0.532880
54.821819 -57.267620 0.553474
54.683121 -58.129871 0.557174
50.046326 -57.571712 -1.597907
49.787106 -57.273514 -0.529808
48.843796 -57.188740 -0.525061
52.540977 -64.306946 1.739477
0.157713 -0.219077 0.005654
0.153895 -0.221839 0.001885
0.153865 -0.221796 0.005654
0.129417 -0.190074 0.004817
0.155556 -0.232806 0.001955
0.166635 -0.249386 0.006283
0.148007 -0.225748 0.005654
0.151469 -0.235485 0.001955
0.140623 -0.218622 0.005445
0.128064 -0.202970 0.001676
0.117369 -0.186019 0.004607
0.126288 -0.204080 0.001676
0.115742 -0.187036 0.004607
0.114127 -0.188076 0.001536
0.119292 -0.196587 0.004817
0.138046 -0.232034 0.001885
0.127795 -0.214804 0.005236
0.110806 -0.190002 0.004607