# This PCD file was generated using the MATLAB® pcwrite function
# from Computer Vision System Toolbox®.
# .PCD v.7 - Point Cloud Data file format
VERSION .7
FIELDS x y z
SIZE 4 4 4
TYPE F F F
COUNT 1 1 1
WIDTH 1001
HEIGHT 1
VIEWPOINT 0 0 0 1 0 0 0
POINTS 1001
DATA ascii
27.294613 29.786842 -0.846283
26.994394 28.947943 -0.829110
27.149693 29.114481 -0.277924
27.500616 28.979603 -0.836859
27.650530 29.137579 -0.280437
28.030264 29.026188 -0.845236
28.160765 29.161325 -0.283020
28.618856 29.122761 -0.855288
28.722561 29.228291 -0.286092
29.182966 29.182966 -0.864503
29.294720 29.294720 -0.289234
29.750282 29.235521 -0.873718
29.855936 29.339346 -0.292236
30.284756 29.245649 -0.881885
26.909845 25.986536 -0.261169
27.115799 25.731934 -0.783037
27.048552 25.668118 -0.260331
27.193079 25.357956 -0.778849
27.095995 25.267424 -0.258656
27.206938 24.930565 -0.772985
27.138517 24.867870 -0.256980
27.274864 24.558397 -0.768796
27.176144 24.469509 -0.255305
27.308424 24.160454 -0.763770
27.238855 24.098904 -0.253908
27.367313 23.790043 -0.759582
27.274540 23.709396 -0.252303
27.452238 23.446426 -0.756231
27.351135 23.360077 -0.251116
27.471989 23.051735 -0.751205
27.439043 23.024092 -0.250069
27.525528 22.690294 -0.747226
27.453733 22.631111 -0.248393
27.559322 22.317099 -0.742828
27.494755 22.264812 -0.246997
27.627834 21.976171 -0.739477
27.531485 21.899530 -0.245601
27.660990 21.611134 -0.735288
27.563944 21.535313 -0.244204
27.689892 21.247200 -0.731100
27.655624 21.220907 -0.243367
27.754482 20.914503 -0.727959
27.680033 20.858400 -0.241970
27.839495 20.600142 -0.725445
27.764540 20.544678 -0.241133
27.848347 20.233007 -0.721048
27.934675 20.295731 -0.241063
27.901760 19.902132 -0.717906
27.825790 19.847944 -0.238619
27.943338 19.566135 -0.714555
27.866873 19.512594 -0.237502
27.948229 19.208286 -0.710367
27.838305 19.132736 -0.235827
27.982170 18.874212 -0.707016
27.954466 18.855526 -0.235408
27.928383 18.661150 0.234501
28.020756 18.546534 -0.703875
27.934494 18.489439 -0.233872
27.789112 18.219339 0.231987
27.750250 18.193861 0.695079
27.837757 18.078051 -0.695288
27.893503 18.114252 -0.232197
27.980686 17.997782 0.232267
27.907963 17.951004 0.695079
28.028183 17.855923 -0.696126
28.016781 17.848658 -0.231917
28.001366 17.667545 0.231150
27.936718 17.626757 0.691938
28.115107 17.568270 -0.694451
28.035788 17.518703 -0.230800
27.984409 17.317278 0.229753
27.919443 17.277075 0.687749
28.165052 17.259567 -0.691938
28.085283 17.210684 -0.229963
28.006231 16.994598 0.228706
27.975128 16.975725 0.685445
28.143200 16.910141 -0.687749
28.105831 16.887688 -0.228916
28.084717 16.708651 0.228148
28.010504 16.664499 0.682723
28.220781 16.623310 -0.686074
28.209051 16.616402 -0.228566
28.160351 16.422632 0.227589
28.120316 16.399282 0.681885
28.295504 16.336416 -0.684398
28.214420 16.289602 -0.227449
28.198410 16.116720 0.226751
28.132153 16.078850 0.678744
28.332567 16.029795 -0.681885
28.251057 15.983679 -0.226612
28.128586 15.752765 0.225076
28.027149 15.695957 0.672880
28.366440 15.723775 -0.679372
28.258274 15.663817 -0.225565
28.159777 15.448983 0.224238
28.022808 15.373838 0.669529
28.291704 15.361142 -0.674346
28.244493 15.335509 -0.224378
28.187817 15.145861 0.223400
27.979761 15.034068 0.665341
28.398195 15.099587 -0.673718
28.306610 15.050892 -0.223819
28.248117 14.862053 0.222842
28.074499 14.770708 0.664503
28.413593 14.791181 -0.670995
28.303825 14.734039 -0.222772
28.234497 14.541721 0.221725
28.104557 14.474798 0.662199
28.443600 14.492738 -0.668691
28.360046 14.450166 -0.222214
28.288883 14.258771 0.221166
28.256584 14.242492 0.662828
28.497408 14.208283 -0.667016
28.413473 14.166435 -0.221655
28.448111 14.029056 0.221446
31.078793 15.326364 0.725864
28.503494 13.902083 -0.664294
28.527027 13.913561 -0.221585
31.034601 15.136587 -0.241063
28.821642 13.901910 0.223400
31.895735 15.384676 0.741781
31.484295 15.017238 -0.730681
31.806330 15.170841 -0.246020
29.421209 13.875943 0.227100
32.243042 15.206805 0.248882
31.911222 15.050309 0.739058
32.311848 15.067262 -0.746807
32.445026 15.129365 -0.249929
33.028362 15.226284 0.253908
32.667824 15.060074 0.753508
32.978863 15.029333 -0.759163
33.149082 15.106907 -0.254327
33.041451 14.884089 0.253001
32.934738 14.836018 0.756650
33.254894 14.806033 -0.762514
33.170029 14.768248 -0.253490
33.096855 14.562965 0.252442
33.026348 14.531940 0.755812
33.300316 14.479390 -0.760629
33.224277 14.446326 -0.252931
33.185928 14.257801 0.252163
33.115158 14.227395 0.754974
33.360981 14.160897 -0.759163
33.312260 14.140215 -0.252652
33.235313 13.936724 0.251605
33.127415 13.891478 0.752461
33.483288 13.869232 -0.759163
33.397430 13.833669 -0.252373
33.318645 13.631018 0.251325
33.210365 13.586719 0.751623
33.528885 13.546549 -0.757487
33.442707 13.511730 -0.251814
33.324875 13.295277 0.250488
33.253376 13.266751 0.749948
33.496990 13.194815 -0.754137
33.447697 13.175398 -0.250976
33.411667 12.993087 0.250278
33.302654 12.950695 0.748482
33.610859 12.901999 -0.754137
33.524055 12.868679 -0.250697
33.411568 12.658510 0.249440
33.414402 12.659585 0.748482
33.694073 12.597698 -0.753508
33.560146 12.547625 -0.250139
33.558285 12.380305 0.249720
33.486084 12.353669 0.747644
33.755753 12.286089 -0.752461
33.593193 12.226922 -0.249580
33.514462 12.032921 0.248603
33.432652 12.003548 0.744084
33.588375 11.894267 -0.746388
33.774021 11.960009 -0.250139
33.655952 11.753185 0.248882
33.583321 11.727820 0.745131
33.747612 11.620234 -0.747644
33.810921 11.642034 -0.249650
33.719360 11.446180 0.248603
33.684383 11.434308 0.745131
33.838249 11.322120 -0.747435
33.797432 11.308462 -0.248812
33.855949 11.164018 0.248882
33.773388 11.136793 0.744922
34.087898 11.075830 -0.750786
34.008953 11.050179 -0.249650
33.904465 10.852904 0.248533
33.840725 10.832500 0.744294
34.154648 10.768919 -0.750157
34.065941 10.740950 -0.249371
33.997883 10.556623 0.248533
33.857578 10.513058 0.742618
34.081871 10.419873 -0.248812
31.206490 9.392088 0.227519
34.050407 10.248010 0.248254
31.018507 9.335511 0.678534
30.989655 9.032660 0.225355
30.686062 8.944172 0.669529
31.407143 9.005854 -0.684398
31.163345 8.935946 -0.226332
30.672701 8.650597 0.222493
30.685966 8.654338 0.667854
31.137705 8.635250 -0.676859
30.902876 8.570126 -0.223889
30.640898 8.353668 0.221725
30.760321 8.386226 0.667854
30.825590 8.259692 -0.668482
30.590126 8.196599 -0.221097
30.712631 8.085960 0.221725
30.793657 8.107293 0.667016
30.702908 7.940312 -0.664294
30.660488 7.929341 -0.221097
30.782024 7.817638 0.221725
30.824474 7.828419 0.666178
30.664322 7.645474 -0.661990
30.728518 7.661480 -0.221097
30.849072 7.548720 0.221725
30.891615 7.559130 0.666178
30.768759 7.386925 -0.662828
30.794205 7.393034 -0.221097
30.835903 7.260891 0.221166
30.878550 7.270934 0.664503
30.793083 7.109143 -0.661990
30.818575 7.115028 -0.220817
30.820066 6.973869 0.220608
30.940825 7.001194 0.664503
30.766102 6.820681 -0.660105
30.840439 6.837161 -0.220538
30.879751 6.704651 0.220608
30.922581 6.713951 0.662828
30.755995 6.537389 -0.658639
30.820681 6.551138 -0.219980
30.780439 6.402340 0.219491
30.901688 6.427560 0.661152
30.968626 6.300638 -0.661990
30.915871 6.289905 -0.220259
30.992060 6.164704 0.220608
30.956600 6.157650 0.661152
31.169641 6.058764 -0.665131
31.205168 6.065670 -0.221934
31.280458 5.938781 0.222283
31.244894 5.932028 0.666178
31.388443 5.817504 -0.668691
31.414228 5.822283 -0.223051
31.606617 5.715407 0.224238
31.610294 5.716072 0.672880
31.743238 5.597189 -0.675184
31.729733 5.594808 -0.224936
31.852396 5.473243 0.225634
34.575577 5.941171 0.734870
31.958506 5.348020 -0.678744
31.974600 5.350713 -0.226332
34.775581 5.819437 -0.246159
34.662468 5.645141 0.245182
34.626106 5.639220 0.734870
34.897251 5.527182 -0.740105
34.795414 5.511052 -0.245950
34.710411 5.342443 0.245182
34.634472 5.330755 0.734032
34.944157 5.222439 -0.740105
34.842178 5.207199 -0.245950
34.755711 5.039338 0.245182
34.719250 5.034052 0.734870
34.988400 4.917299 -0.740105
34.886295 4.902949 -0.245950
34.798363 4.735849 0.245182
34.722233 4.725489 0.734032
35.029976 4.611784 -0.740105
34.888096 4.593105 -0.245671
34.838364 4.432000 0.245182
34.762146 4.422304 0.734032
35.068890 4.305918 -0.740105
34.976475 4.294571 -0.246020
34.925365 4.133689 0.245531
34.799416 4.118782 0.734032
35.105129 3.999724 -0.740105
35.002682 3.988052 -0.245950
34.960110 3.828755 0.245531
34.834034 3.814947 0.734032
35.138695 3.693226 -0.740105
35.085876 3.687674 -0.246299
34.942444 3.518519 0.245182
34.865997 3.510821 0.734032
35.199444 3.389321 -0.740733
35.116722 3.381356 -0.246299
35.021606 3.218034 0.245531
34.895309 3.206428 0.734032
35.227680 3.082022 -0.740733
35.144894 3.074780 -0.246299
35.038387 2.911466 0.245461
35.011631 2.909242 0.735917
35.213364 2.771352 -0.739896
35.130512 2.764831 -0.246020
35.062462 2.605591 0.245461
34.985836 2.599897 0.734870
35.325970 2.470232 -0.741781
35.233105 2.463739 -0.246578
35.083866 2.299518 0.245461
35.007191 2.294492 0.734870
35.306263 2.159424 -0.740943
35.203358 2.153130 -0.246229
35.152515 1.996104 0.245810
35.075790 1.991748 0.735917
35.393654 1.854903 -0.742409
35.300694 1.850031 -0.246788
35.208549 1.691188 0.246089
35.131779 1.687500 0.736754
35.458435 1.548149 -0.743456
35.355453 1.543653 -0.247067
35.221966 1.383875 0.246089
35.145168 1.380857 0.736754
35.470592 1.238660 -0.743456
35.367580 1.235063 -0.247067
35.272682 1.077678 0.246369
35.195854 1.075330 0.737592
35.520031 0.930125 -0.744294
35.466976 0.928735 -0.247695
35.310734 0.770483 0.246578
35.203896 0.768152 0.737592
35.566780 0.620820 -0.745131
35.473732 0.619196 -0.247695
35.366108 0.462968 0.246927
35.249249 0.461438 0.738430
35.570843 0.310422 -0.745131
35.477783 0.309610 -0.247695
32.278908 0.140844 0.225355
35.418800 0.154545 0.247276
32.122646 0.140162 0.672880
35.652180 0.000000 -0.746807
32.339211 0.000000 -0.225774
35.579132 0.000000 -0.248393
32.078915 -0.139972 0.223959
31.802721 -0.138766 0.666178
32.351669 -0.282329 -0.677697
32.177990 -0.280813 -0.224657
31.836496 -0.416763 0.222283
31.760311 -0.415765 0.665341
32.078075 -0.559925 -0.672042
31.894363 -0.556718 -0.222702
31.671690 -0.691079 0.221166
31.875420 -0.695524 0.667854
31.942041 -0.836432 -0.669320
31.778332 -0.832145 -0.221934
31.824373 -0.972323 0.222283
31.988052 -0.977323 0.670367
31.773659 -1.109561 -0.665969
31.699905 -1.106985 -0.221446
31.854645 -1.251572 0.222563
32.018269 -1.258001 0.671205
31.572989 -1.378506 -0.661990
31.719007 -1.384882 -0.221655
31.922417 -1.533344 0.223121
32.006069 -1.537362 0.671205
31.799376 -1.666535 -0.667016
31.865492 -1.670000 -0.222772
31.877869 -1.810157 0.222912
32.001415 -1.817172 0.671414
31.743704 -1.941528 -0.666178
31.769855 -1.943128 -0.222214
31.671270 -2.075845 0.221585
31.944435 -2.093749 0.670576
31.845234 -2.226836 -0.668691
31.841469 -2.226572 -0.222842
31.811506 -2.364003 0.222702
32.004711 -2.378361 0.672252
31.824589 -2.504649 -0.668691
31.860701 -2.507492 -0.223121
31.849457 -2.646486 0.223121
31.942883 -2.654249 0.671414
31.950916 -2.795343 -0.671833
29.496607 -2.580619 -0.206715
31.897377 -2.790659 -0.223540
31.914770 -2.932555 0.223749
30.893049 -2.838673 0.649843
29.696108 -2.859410 -0.624922
32.273621 -3.107596 -0.679163
29.443102 -2.835048 -0.206506
32.260006 -3.106285 -0.226263
32.465031 -3.269057 0.227799
30.280199 -3.049056 0.637487
32.408966 -3.263411 0.682304
29.670025 -3.118445 -0.624922
32.434189 -3.408971 -0.683142
32.271450 -3.391866 -0.226542
32.693718 -3.580544 0.229614
29.735643 -3.256582 0.626597
32.399128 -3.548282 0.682723
35.887501 -3.930321 0.756231
29.909887 -3.407801 -0.630576
32.601875 -3.714515 -0.687330
32.508881 -3.703919 -0.228427
36.016102 -4.103517 -0.253071
29.523205 -3.494302 0.207553
28.127459 -3.329104 0.593299
29.666378 -3.511247 0.625759
32.118717 -3.801501 0.677487
29.750008 -3.652842 -0.627854
32.161366 -3.948919 -0.678744
36.180298 -4.442382 -0.763561
30.351322 -3.726674 -0.213487
32.058460 -3.936284 -0.225495
28.866640 -3.672301 0.203155
30.126455 -3.832569 0.212021
29.168467 -3.710698 0.615917
30.480244 -4.012800 -0.643979
32.314014 -4.254220 -0.682723
36.229362 -4.769686 -0.765445
30.099533 -3.962679 -0.211951
29.180290 -3.971263 0.205598
28.907125 -3.934087 0.611100
28.305555 -3.978086 -0.598744
32.344963 -4.545788 -0.684189
36.196259 -5.087053 -0.765655
28.578440 -4.016438 -0.201479
30.489611 -4.285035 -0.214953
28.709087 -4.162620 0.202526
28.198879 -4.088643 0.596859
28.546625 -4.266322 -0.604608
36.318584 -5.427849 -0.769215
28.710430 -4.290802 -0.202666
29.304205 -4.510348 0.206994
36.192917 -5.570622 0.255654
28.191771 -4.339128 0.597487
36.067284 -5.551286 0.764398
28.725552 -4.549681 -0.609215
28.997824 -4.592804 -0.204970
36.267033 -5.744133 -0.256352
28.395193 -4.624451 0.200851
27.807457 -4.528732 0.590157
28.803083 -4.819983 -0.611728
32.362793 -5.415674 -0.687330
36.356377 -6.083971 -0.772147
29.153893 -4.878688 -0.206366
32.132401 -5.377120 -0.227449
36.274700 -6.070303 -0.256771
27.732872 -4.765379 0.196453
36.238014 -6.226830 0.256701
27.885120 -4.791540 0.592671
28.710695 -5.062470 -0.610681
32.274918 -5.690939 -0.686493
36.459435 -6.428782 -0.775498
28.627665 -5.047830 -0.202945
36.368065 -6.412671 -0.257818
27.719751 -5.012547 0.196662
27.488068 -4.970652 0.585131
28.950506 -5.365659 -0.616754
36.529739 -6.770387 -0.778220
28.474369 -5.277412 -0.202177
30.214687 -5.599961 -0.214534
27.950033 -5.306479 0.198617
36.359604 -6.903086 0.258376
27.453466 -5.212204 0.585341
29.687710 -5.770706 -0.633508
36.547779 -7.104168 -0.779896
28.545023 -5.548590 -0.203015
30.400253 -5.909211 -0.216210
36.456745 -7.086473 -0.259284
26.863054 -5.343394 0.191217
28.804962 -5.729663 0.205040
27.269657 -5.424272 0.582409
26.775469 -5.447531 -0.572356
29.528454 -6.007632 -0.631205
36.552971 -7.436786 -0.781362
28.583708 -5.815421 -0.203643
28.440578 -5.915649 0.202806
26.790598 -5.572453 0.573194
29.836739 -6.341994 -0.638953
36.623592 -7.784585 -0.784294
28.629683 -6.085427 -0.204341
27.264084 -5.919613 0.194777
26.819111 -5.823000 0.574869
29.652460 -6.438180 0.635602
36.393875 -7.901885 0.780105
31.185816 -6.913729 -0.669110
36.632355 -8.121197 -0.785969
28.731691 -6.369663 -0.205458
36.561394 -8.105466 -0.261448
26.899286 -6.086687 0.192543
26.894041 -6.085500 0.577592
27.052322 -6.245521 -0.581571
31.250937 -7.214847 -0.671833
36.667244 -8.465301 -0.788273
26.950418 -6.221994 -0.193102
28.938086 -6.680883 -0.207343
36.674397 -8.466951 -0.262775
26.640741 -6.273062 0.191077
28.480383 -6.706240 0.204272
36.617634 -8.622309 0.262635
26.606352 -6.264965 0.572566
36.503448 -8.595421 0.785550
31.313166 -7.517626 -0.674555
36.786407 -8.831635 -0.792461
26.924267 -6.463944 -0.193311
31.115080 -7.470069 -0.223400
36.735241 -8.819351 -0.263752
26.759821 -6.548087 0.192334
36.570137 -8.948656 0.262844
26.540956 -6.494531 0.572356
27.881115 -6.822465 0.601257
29.619436 -7.247830 0.638744
36.872852 -9.193435 -0.796021
26.886240 -6.703492 -0.193451
32.639954 -8.138054 -0.234850
36.773312 -9.168616 -0.264590
26.003832 -6.604132 0.187307
29.250675 -7.428725 0.210694
36.703880 -9.321598 0.264380
29.167452 -7.407589 0.630367
36.551373 -9.282866 0.789948
30.693228 -7.937809 -0.664084
36.897694 -9.542393 -0.798325
30.011845 -7.761591 -0.216419
36.817757 -9.521720 -0.265497
26.061253 -6.861355 0.188145
29.358799 -7.729527 0.211951
36.756519 -9.677184 0.265358
25.882143 -6.814199 0.560629
29.672131 -7.812020 0.642723
36.652672 -9.649843 0.793927
29.232162 -7.832734 -0.633927
30.873877 -8.272630 -0.669529
36.919247 -9.892482 -0.800629
26.765152 -7.171701 -0.193451
36.829853 -9.868529 -0.266195
26.366995 -7.188468 0.190798
28.030571 -7.642011 0.608587
29.429205 -8.023322 0.638953
36.692459 -10.003513 0.796650
29.085623 -8.066157 -0.632252
36.927856 -10.241000 -0.802723
26.104113 -7.239311 -0.189122
36.867603 -10.224291 -0.267103
26.534245 -7.483431 0.192473
31.279034 -8.821600 0.226891
26.375113 -7.438551 0.574032
30.926527 -8.722182 0.673089
37.038902 -10.620734 -0.807121
26.136068 -7.494397 -0.189820
31.528616 -9.040685 -0.228985
37.007675 -10.611779 -0.268779
26.122320 -7.613962 0.189960
26.059637 -7.595692 0.568587
37.050255 -10.974786 -0.809425
26.021734 -7.707989 -0.189471
36.990364 -10.957045 -0.269337
26.859222 -8.083709 0.195824
25.781742 -7.759423 0.563979
27.447550 -8.260775 0.600419
27.669390 -8.459381 -0.606074
37.182537 -11.367842 -0.814451
26.001293 -7.949393 -0.189820
37.046345 -11.326203 -0.270454
26.806757 -8.323719 0.195964
31.629490 -9.821218 0.231219
36.948822 -11.472914 0.270105
26.190453 -8.132352 0.574451
26.116579 -8.234526 -0.573613
28.004524 -8.829792 -0.615079
37.186802 -11.724955 -0.816754
26.197966 -8.260187 -0.191775
37.127296 -11.706191 -0.271780
28.142611 -9.008520 0.206296
37.028248 -11.852835 0.271431
26.489840 -8.479465 0.582618
36.944851 -11.826140 0.812566
26.119793 -8.486835 -0.575288
27.850336 -9.049123 -0.613403
37.206680 -12.089183 -0.819477
26.239010 -8.525571 -0.192613
37.213936 -12.091540 -0.273177
26.059109 -8.593005 0.191566
28.271854 -9.322659 0.207832
37.084846 -12.228748 0.272618
26.614229 -8.776056 0.587016
37.020649 -12.207579 0.816545
26.054218 -8.717620 -0.575498
37.241985 -12.460994 -0.822618
27.756758 -9.287281 -0.204341
37.135448 -12.425347 -0.273386
26.740656 -9.077229 0.197151
37.156631 -12.612977 0.273945
26.612368 -9.033682 0.588691
37.064182 -12.581595 0.819896
28.066290 -9.663999 -0.621780
37.235809 -12.821317 -0.824922
27.684109 -9.532403 -0.204411
37.186340 -12.804283 -0.274573
26.348883 -9.201442 0.194847
26.466450 -9.242498 0.587225
37.066246 -12.944112 0.822409
27.302336 -9.668263 -0.606702
37.395809 -13.242551 -0.830995
25.667501 -9.089339 -0.190100
27.533888 -9.750260 -0.203923
37.233433 -13.185050 -0.275760
25.693480 -9.224901 0.190588
37.213192 -13.360902 0.276039
25.603783 -9.192698 0.569843
28.522812 -10.381454 -0.635812
37.391563 -13.609416 -0.833508
27.212835 -9.904662 -0.202177
37.342476 -13.591549 -0.277435
26.212427 -9.670275 0.195056
28.933115 -10.673990 0.215302
37.245289 -13.740512 0.277156
25.503828 -9.408859 0.569424
27.351660 -10.090560 0.610681
28.843056 -10.640765 0.643979
29.124117 -10.889061 -0.651309
37.421211 -13.991218 -0.836859
28.165047 -10.530479 -0.209927
25.089066 -9.505397 0.187307
29.072645 -11.014640 0.217047
37.310986 -14.135868 0.278552
27.262562 -10.328861 0.610681
28.786499 -10.906229 0.644817
37.116726 -14.062269 0.831414
29.326664 -11.257451 -0.658011
37.437698 -14.370986 -0.840000
28.856268 -11.076883 -0.215791
37.426327 -14.366621 -0.279879
25.555033 -9.937809 0.191426
24.916424 -9.689467 0.560000
30.315659 -11.941655 -0.682513
32.027252 -12.615870 -0.721048
37.636440 -14.825387 -0.847330
25.343956 -9.983250 -0.190170
26.479038 -10.430370 -0.198687
29.214399 -11.507858 -0.219212
25.170126 -10.041862 0.189192
26.433275 -10.545808 0.198687
37.318657 -14.888635 0.280507
26.242401 -10.469657 0.591833
30.627436 -12.374288 -0.691938
37.561249 -15.175730 -0.848587
32.228127 -13.021008 -0.242669
28.145000 -11.514424 0.212300
32.707806 -13.381116 0.246718
26.187052 -10.713406 0.592671
27.898926 -11.413752 0.631414
28.717115 -11.895019 -0.651100
30.915466 -12.805605 -0.700943
37.612125 -15.579452 -0.852775
29.240074 -12.111635 -0.220957
32.316517 -13.385941 -0.244204
37.582504 -15.567183 -0.283998
28.255548 -11.848536 0.213906
37.458889 -15.707816 0.283579
28.093302 -11.780499 0.638116
31.124647 -13.211629 -0.708273
37.592503 -15.957070 -0.285115
37.485767 -16.105156 0.284835
28.035358 -12.044940 0.639163
37.432529 -16.082285 0.853404
37.673733 -16.381006 -0.860524
31.426884 -13.664798 -0.239248
27.815638 -12.239174 0.212160
32.318859 -14.220639 0.246508
37.581772 -16.536377 0.286651
27.801064 -12.232761 0.636231
37.437180 -16.472754 0.856754
30.460058 -13.561692 -0.698430
37.812489 -16.835203 -0.867016
30.959301 -13.783969 -0.236595
37.655426 -16.765276 -0.287768
37.609268 -16.941740 0.287977
32.579227 -14.675873 0.748482
23.863049 -10.875018 -0.549320
37.800598 -17.226725 -0.870158
37.698776 -17.180323 -0.289234
32.074837 -14.786701 0.246578
37.525326 -17.299412 0.865550
23.875973 -11.133549 -0.551833
25.253258 -11.775787 -0.583665
37.902542 -17.674244 -0.876021
31.874067 -14.863122 -0.245531
37.755863 -17.605848 -0.290839
37.696774 -17.778952 0.290979
37.626125 -17.745632 0.871414
24.337387 -11.608337 -0.564817
23.954029 -11.425486 -0.185283
31.553612 -15.050302 -0.244065
37.808376 -18.033670 -0.292445
25.218937 -12.164171 0.195475
37.747345 -18.207157 0.292585
24.871830 -11.996746 0.578430
37.613914 -18.142799 0.874765
24.163271 -11.785214 -0.563142
23.934301 -11.673539 -0.185911
25.695896 -12.532725 -0.199594
28.805647 -14.049453 -0.223749
24.062510 -11.866317 0.187307
37.775360 -18.628746 0.294051
25.008295 -12.332726 0.584084
37.687294 -18.585318 0.880210
24.435297 -12.182990 -0.571938
25.884773 -12.905672 -0.605864
23.849419 -11.890882 -0.186051
25.612398 -12.769870 -0.199804
37.926395 -18.909403 -0.295866
24.270576 -12.233377 0.189751
25.860041 -13.034534 0.202177
23.926586 -12.059993 0.561257
25.060421 -12.631493 0.587854
24.078625 -12.268672 -0.566074
26.590712 -13.548644 -0.625131
38.055450 -19.390221 -0.894660
24.047680 -12.252905 -0.188424
38.009411 -19.366762 -0.297821
24.100668 -12.412660 0.189262
25.620850 -13.195604 0.201200
27.514410 -14.170853 0.216070
23.900429 -12.309529 0.563142
37.774940 -19.455374 0.890053
24.236689 -12.616822 -0.572356
26.808456 -13.955599 -0.633089
23.966448 -12.476144 -0.188634
27.186220 -14.152250 -0.213976
25.619768 -13.479212 0.202107
37.965046 -19.974377 0.299496
25.694405 -13.518480 0.608168
27.968325 -14.714847 0.661990
24.381664 -12.963961 -0.578430
24.024418 -12.774010 -0.189960
38.089432 -20.252510 -0.301172
28.073303 -15.084331 0.222493
30.698294 -16.494789 0.243297
37.991890 -20.413780 0.301102
25.698755 -13.808439 0.611100
28.059023 -15.076657 0.667225
37.896416 -20.362478 0.901152
28.634369 -15.547194 -0.682513
38.255306 -20.770937 -0.911833
24.289913 -13.188347 -0.192962
38.183674 -20.732042 -0.303336
28.431557 -15.598085 0.226402
30.526882 -16.747622 0.243087
37.996410 -20.845545 0.302568
25.805176 -14.157204 0.616545
28.031572 -15.378647 0.669739
37.866291 -20.774158 0.904713
24.825008 -13.760727 -0.594555
38.291199 -21.225157 -0.917069
25.949335 -14.383951 -0.207134
38.211205 -21.180817 -0.305011
24.734659 -13.852075 0.197919
28.259457 -15.826056 0.226123
38.118423 -21.347342 0.305011
25.453850 -14.254841 0.611100
28.053318 -15.710612 0.673508
24.843204 -14.055610 -0.597906
26.131050 -14.784236 -0.628901
38.382969 -21.716040 -0.923770
24.734905 -13.994336 -0.198407
30.191904 -17.081757 -0.242180
38.233795 -21.631639 -0.306687
24.630199 -14.077319 0.198058
38.121681 -21.788336 0.306547
25.614927 -14.640138 0.618011
28.323114 -16.187994 0.683351
38.053490 -21.749361 0.918116
24.875454 -14.361850 -0.601676
26.312740 -15.191668 -0.636440
38.469070 -22.210129 -0.930472
29.981070 -17.309578 -0.241691
38.320690 -22.124460 -0.308921
38.215153 -22.286417 0.308851
38.078156 -22.206524 0.923351
24.878393 -14.654493 -0.604817
26.652960 -15.699793 -0.647958
38.523605 -22.692139 -0.936545
29.759947 -17.529947 -0.241133
38.410492 -22.625509 -0.311225
38.328590 -22.803116 0.311364
38.192238 -22.721992 0.930891
24.869539 -14.943127 -0.607749
26.532080 -15.942081 -0.648377
38.598347 -23.192226 -0.943247
26.442966 -15.888537 -0.215372
38.417301 -23.083445 -0.312900
26.364840 -15.998577 0.215302
38.358959 -23.276789 0.313249
38.231823 -23.199638 0.936754
26.605062 -16.303604 -0.653613
38.718422 -23.726681 -0.951205
26.320360 -16.129137 -0.215512
38.521343 -23.605909 -0.315413
38.400970 -23.763241 0.315274
38.265961 -23.679695 0.942618
24.545609 -15.337798 -0.606283
27.428339 -17.139128 -0.677487
29.081671 -18.172245 -0.718325
26.178606 -16.358210 -0.215512
38.500446 -24.057749 -0.316949
38.462765 -24.268196 0.317508
27.285652 -17.215963 0.675812
38.319981 -24.178106 0.949110
27.387346 -17.447664 -0.680210
26.532448 -16.903034 -0.219630
38.693855 -24.650705 -0.320300
38.543880 -24.792255 0.319951
27.201645 -17.496687 0.677487
38.410236 -24.706295 0.956650
27.334663 -17.751339 -0.682723
28.860710 -18.742365 -0.720838
38.830315 -25.216702 -0.969843
27.566429 -17.901850 -0.229474
38.653385 -25.101801 -0.321766
26.919395 -17.649130 0.224727
38.585304 -25.297632 0.322115
27.348921 -17.930738 0.685027
38.460728 -25.215958 0.963351
28.771088 -19.043167 -0.722723
38.875568 -25.731176 -0.976545
27.742704 -18.362495 -0.232267
38.799763 -25.681002 -0.324838
26.897387 -17.972260 0.225844
38.620823 -25.805609 0.324280
27.257910 -18.213152 0.686702
38.505226 -25.728369 0.970053
28.711563 -19.366194 -0.725445
38.881622 -26.225986 -0.982409
38.847755 -26.203140 -0.327142
26.475025 -18.026203 0.223610
38.733051 -26.372396 0.327142
26.932652 -18.337790 0.682513
34.461231 -23.463818 0.873299
38.568481 -26.260345 0.977383
28.632105 -19.678301 -0.727749
38.881985 -26.722849 -0.988273
26.420841 -18.158541 -0.223819
38.815399 -26.677084 -0.328817
26.826118 -18.609941 0.227938
26.894821 -18.657600 0.685655
26.485567 -18.545393 -0.677278
27.845060 -19.497322 -0.712042
38.933949 -27.261843 -0.995603
27.088697 -18.967710 -0.230870
32.617840 -22.839256 -0.277994
26.711695 -18.877958 0.228357
38.887524 -27.482985 0.332448
26.681993 -18.856968 0.684398
38.757473 -27.391073 0.994137
26.786665 -19.106743 -0.689215
39.060837 -27.861822 -1.005027
26.865158 -19.162731 -0.230382
32.539406 -23.210131 -0.279041
26.935484 -19.390774 0.231708
32.088852 -23.100668 0.276039
26.508307 -19.083250 0.684189
38.825298 -27.950214 1.002095
26.489496 -19.245745 -0.685864
39.042686 -28.366171 -1.010891
26.397581 -19.178965 -0.227799
26.991043 -19.790651 0.233663
30.404356 -22.293396 0.789739
39.163353 -28.979357 -1.020524
27.201853 -20.128313 -0.236246
31.614920 -23.393810 -0.274573
39.106682 -28.937424 -0.339638
28.732262 -21.455397 0.250348
30.102371 -22.478508 0.262286
28.670584 -21.409342 0.749529
39.220371 -29.554670 -1.028692
27.128986 -20.443157 -0.237153
31.577278 -23.795187 -0.276039
39.204063 -29.542379 -0.342710
30.239380 -22.994558 0.265218
39.042946 -29.688946 0.342431
26.714281 -20.498589 -0.705341
39.183060 -30.066219 -1.034556
31.487427 -24.161152 -0.277086
39.143101 -30.035557 -0.344455
30.456619 -23.582035 0.268918
39.161900 -30.322384 0.345782
28.853840 -22.341030 0.764398
31.612741 -24.477200 0.837487
26.534382 -20.730930 -0.705341
39.320992 -30.720924 -1.045236
31.172945 -24.354975 -0.276179
39.226219 -30.646881 -0.347527
31.521852 -24.849825 0.280228
39.272743 -30.960135 0.349133
39.123760 -30.842686 1.043561
26.555895 -21.123512 -0.710786
27.839092 -22.144213 -0.745131
39.372204 -31.318066 -1.053823
39.301624 -31.261923 -0.350599
30.906069 -24.804743 0.276667
39.289623 -31.533257 0.351716
30.510187 -24.487015 0.819477
27.722486 -22.449226 -0.747226
39.470356 -31.962465 -1.063875
39.400341 -31.905766 -0.353950
39.361420 -32.159630 0.354857
30.589542 -24.992704 0.827435
39.260838 -32.077450 1.061990
28.613279 -23.586967 -0.776754
39.552517 -32.604580 -1.073718
39.459919 -32.528248 -0.357022
39.448315 -32.808815 0.358208
39.325321 -32.706524 1.071414
28.153618 -23.623690 -0.769843
39.626446 -33.250538 -1.083561
28.833210 -24.193935 -0.262775
39.534592 -33.173462 -0.360303
39.465790 -33.410255 0.361001
39.374157 -33.332684 1.080629
39.623669 -33.841808 -1.091519
28.773060 -24.574514 -0.264171
39.608582 -33.828926 -0.363654
39.566654 -34.092812 0.364631
39.445332 -33.988274 1.090681
39.621109 -34.442104 -1.099687
39.613739 -34.435699 -0.366446
39.628510 -34.753269 0.367982
39.523067 -34.660801 1.101152
39.738361 -35.157532 -1.111414
31.732481 -28.074528 -0.295796
39.731133 -35.151138 -0.370356
39.674366 -35.410725 0.371263
39.577122 -35.323933 1.111205
39.786678 -35.824085 -1.121467
39.749847 -35.790924 -0.373428
39.756145 -36.111942 0.374963
30.475496 -27.681993 0.862409
39.914810 -36.575188 -1.134032
29.586218 -27.110775 -0.280158
39.760399 -36.433693 -0.376499
37.787315 -34.930237 0.359256
39.784210 -36.776146 1.134870
39.967026 -37.269855 -1.144713
30.628347 -28.561396 -0.292375
39.850491 -37.161186 -0.380409
40.140667 -38.092072 -1.159163
30.624559 -29.061623 -0.294749
37.116501 -35.222244 -0.357231
36.890228 -35.314713 0.356533
29.718758 -28.449522 0.861781
36.699860 -35.440643 -1.068692
36.879654 -35.614265 -0.357929
29.589712 -28.825022 0.288396
35.764275 -34.840012 1.045864
36.724342 -36.088909 -1.078535
36.695843 -36.060902 -0.359186
35.529881 -35.221172 1.047959
34.753746 -34.753746 -1.029529
34.319881 -34.620693 0.340336
25.866867 -26.093588 0.769634
34.533234 -35.141273 -1.032043
34.455860 -35.062538 -0.343199
34.295567 -35.205383 0.343129
25.359119 -26.031866 0.761257
34.170280 -35.076775 1.025760
34.551674 -35.779305 -1.041885
33.634537 -34.829586 -0.338033
34.333008 -35.864727 1.040001
34.843750 -36.717651 -1.060315
34.995094 -36.877136 -0.354927
33.600555 -35.718441 0.342361
35.551598 -38.124420 -1.091938
27.047396 -29.004782 -0.276877
35.388031 -37.949020 -0.362258
34.007244 -36.788830 1.049425
33.481434 -36.538574 -0.345991
33.314964 -36.676914 0.345921
33.254692 -36.610561 1.036021
34.265354 -38.055531 -1.072671
32.886967 -36.524677 -0.343129
26.281710 -29.446167 0.275550
26.356474 -29.529934 0.829110
25.995508 -29.382578 -0.821781
26.232489 -29.650434 -0.276388
33.612671 -38.327904 1.067854
25.797142 -29.676218 -0.823665
32.891876 -38.172901 1.055498
25.394342 -29.732954 -0.819058
25.470732 -29.822395 -0.273805
24.928263 -29.708347 -0.812356
25.023111 -29.821383 -0.271780
25.354589 -30.485580 0.830576
23.555046 -28.829935 0.259912
25.093916 -30.713419 0.830786
23.778254 -29.627090 0.265218
23.915016 -30.336054 0.269686
0.157713 -0.219077 0.005654
0.153895 -0.221839 0.001885
0.153865 -0.221796 0.005654
0.129417 -0.190074 0.004817
0.155556 -0.232806 0.001955
0.138862 -0.207822 0.005236
0.148007 -0.225748 0.005654
0.129831 -0.201844 0.001676
0.140623 -0.218622 0.005445
0.149408 -0.236798 0.001955
0.138709 -0.219841 0.005445
0.147336 -0.238093 0.001955
0.136786 -0.221043 0.005445
0.129690 -0.213723 0.001745
0.119292 -0.196587 0.004817
0.117595 -0.197659 0.001606
0.102236 -0.171844 0.004188
0.130953 -0.224548 0.005445