# This PCD file was generated using the MATLAB® pcwrite function
# from Computer Vision System Toolbox®.
# .PCD v.7 - Point Cloud Data file format
VERSION .7
FIELDS x y z
SIZE 4 4 4
TYPE F F F
COUNT 1 1 1
WIDTH 794
HEIGHT 1
VIEWPOINT 0 0 0 1 0 0 0
POINTS 794
DATA ascii
30.054935 32.229973 -0.307664
30.975201 32.641052 -0.314157
35.016994 36.261158 -1.055917
37.461372 37.461372 -1.109739
30.631119 30.631119 -0.302428
37.501614 36.852734 -1.101362
37.541302 36.253216 -1.093194
30.880505 29.820957 -0.299706
37.587910 35.669594 -1.085446
31.901188 30.273096 -0.307036
37.678391 35.135670 -1.079163
37.784546 34.623158 -1.073509
37.696072 34.542084 -0.356952
37.788055 34.024517 -1.065131
37.728542 33.970932 -0.354439
37.881359 33.514595 -1.059477
37.783894 33.428368 -0.352205
37.953568 32.992531 -1.053404
37.893044 32.939922 -0.350529
38.004356 32.458786 -1.046912
37.905315 32.374195 -0.348016
34.142773 28.649187 -0.933613
34.111126 28.622635 -0.310876
34.206329 28.197523 -0.928587
34.112690 28.120333 -0.308642
34.272388 27.753235 -0.923770
34.201359 27.695715 -0.307245
34.348965 27.322399 -0.919372
34.253925 27.246801 -0.305570
34.373367 26.855419 -0.913718
34.364311 26.848343 -0.304453
34.479507 26.457056 -0.910367
34.438629 26.425690 -0.303057
34.485504 25.986691 -0.904503
34.444309 25.955650 -0.301102
34.550228 25.565823 -0.900315
34.476582 25.511328 -0.299426
34.674953 25.192827 -0.897802
34.600815 25.138962 -0.298589
34.665577 24.726715 -0.891938
34.590927 24.673468 -0.296634
34.716240 24.308573 -0.887749
34.673862 24.278898 -0.295517
34.795216 23.914089 -0.884398
34.719589 23.862114 -0.294120
34.869961 23.520086 -0.881048
34.793858 23.468754 -0.293003
34.907143 23.104534 -0.876859
34.863918 23.075924 -0.291886
35.124207 22.809925 -0.877278
35.164600 22.836159 -0.292724
34.834988 22.406616 0.289164
34.760929 22.358980 0.865760
34.967773 22.276928 -0.868482
34.898689 22.232916 -0.288885
34.868507 22.000391 0.287837
34.794067 21.953421 0.861781
35.059097 21.907356 -0.865969
34.981133 21.858637 -0.287977
34.957127 21.632128 0.287000
34.890800 21.591084 0.859477
35.112545 21.516996 -0.862618
35.034130 21.468943 -0.286860
35.007790 21.243248 0.285883
34.975323 21.223547 0.856964
35.161861 21.127378 -0.859267
35.125858 21.105745 -0.286092
35.054333 20.855137 0.284766
34.987354 20.815289 0.852775
35.207062 20.738544 -0.855917
35.162228 20.712135 -0.284905
35.062229 20.447687 0.283369
34.994938 20.408445 0.848587
35.248161 20.350536 -0.852566
35.211735 20.329504 -0.283858
35.135151 20.081392 0.282532
35.076221 20.047710 0.846283
35.319988 19.983089 -0.850053
35.248547 19.942669 -0.282741
35.169456 19.695843 0.281415
28.480747 15.949985 0.683770
35.353119 19.596554 -0.846702
35.316284 19.576136 -0.281903
35.234791 19.330467 0.280577
27.330345 14.993940 0.652985
35.417347 19.230051 -0.844189
35.301224 19.167000 -0.280437
35.331665 18.984388 0.280018
27.433729 14.740674 0.652356
35.477882 18.863924 -0.841676
35.361191 18.801878 -0.279599
35.318996 18.582222 0.278622
27.437449 14.435539 0.649424
35.312111 18.578600 0.835812
35.401707 18.428963 -0.836021
35.355389 18.404852 -0.278273
29.061262 14.967533 0.228217
27.473494 14.149778 0.647330
28.744509 14.804395 0.677278
35.516640 18.096632 -0.834974
29.732162 15.149294 -0.232965
35.505745 18.091080 -0.278203
29.262207 14.749367 0.228776
28.024462 14.125491 0.657383
35.530048 17.714630 -0.831623
35.528027 17.713621 -0.277156
28.376362 13.993673 0.220887
29.506393 14.550943 0.229683
27.850758 13.734474 0.650472
35.620380 17.373220 -0.830158
35.537449 17.332773 -0.276039
28.182161 13.593461 0.218444
27.933531 13.473536 0.649634
35.626251 16.992851 -0.826807
28.539051 13.612430 -0.220747
35.560993 16.961723 -0.275062
28.498688 13.440853 0.219980
35.553265 16.768009 0.274433
28.203770 13.301761 0.653194
35.446865 16.717827 0.820943
35.700695 16.647507 -0.825131
35.617027 16.608494 -0.274364
39.267155 18.102406 0.301870
35.936424 16.566917 0.828901
39.395691 18.161661 0.908692
35.689953 16.264849 -0.821571
39.400364 17.955780 -0.302289
39.496571 17.791906 0.302428
27.684141 12.470796 0.636021
39.684845 17.668831 -0.909948
39.592094 17.627537 -0.302568
39.577103 17.414343 0.301870
27.801064 12.232761 0.636231
39.718330 17.270021 -0.907226
39.671051 17.249464 -0.302009
28.040825 12.047289 0.213068
39.644875 17.032782 0.301241
27.943499 12.005474 0.637068
39.839916 16.911041 -0.906597
39.755634 16.875267 -0.301521
28.393875 11.906540 0.214953
39.681339 16.639767 0.300404
28.194721 11.823028 0.640419
39.673603 16.636522 0.901152
39.865894 16.512995 -0.903875
39.827477 16.497080 -0.300962
39.732487 16.254990 0.299706
39.650711 16.221535 0.897383
39.897240 16.119532 -0.901362
39.821575 16.088961 -0.299845
39.789230 15.874293 0.299077
33.169800 13.233409 0.748063
39.772190 15.867495 0.896964
39.971275 15.745104 -0.899896
39.876724 15.707860 -0.299217
39.888966 15.511970 0.298798
33.265385 12.936200 0.747644
39.825279 15.487205 0.895079
40.060486 15.377779 -0.898849
40.021618 15.362860 -0.299287
39.948002 15.134944 0.298239
29.534443 11.189599 0.661571
33.610737 12.733970 0.752880
39.865421 15.103657 0.892985
40.155693 15.013599 -0.898011
40.069859 14.981506 -0.298658
39.965977 14.744227 0.297402
33.645542 12.412496 0.751205
39.930046 14.730971 0.891519
40.125469 14.604477 -0.894451
40.133293 14.607325 -0.298170
40.055473 14.381385 0.297122
39.981800 14.354933 0.889843
38.357094 13.582959 -0.852356
39.882191 14.123024 -0.295377
40.056721 13.988433 0.296215
39.992279 13.965929 0.887330
38.332371 13.198894 -0.849215
39.852638 13.722363 -0.294260
40.110981 13.615844 0.295726
40.036892 13.590693 0.885655
34.909618 11.680595 -0.771100
38.436611 12.860709 -0.849006
39.847588 13.332817 -0.293353
40.190289 13.252769 0.295447
40.153969 13.240793 0.885655
34.753490 11.292094 -0.765445
39.886337 12.959857 -0.292794
40.228218 12.877154 0.294888
40.153721 12.853308 0.883142
38.567375 12.160246 -0.282322
39.959766 12.599266 -0.292515
40.262661 12.501888 0.294330
40.226166 12.490557 0.882304
38.614647 11.805682 -0.281903
40.068192 12.250076 -0.292515
40.025509 12.046310 0.291817
40.257046 12.115995 0.880629
35.142624 10.409719 -0.767749
40.087276 11.874393 -0.291886
40.042702 11.671384 0.291188
40.015701 11.663513 0.873089
40.448906 11.598537 -0.293771
40.499130 11.421936 0.293771
40.000488 11.281304 0.870576
30.887217 8.565784 -0.671414
40.510433 11.044412 0.293143
40.454308 11.029110 0.878325
30.709705 8.228641 -0.665969
35.207138 9.433724 -0.254467
40.421535 10.642102 0.291817
40.423325 10.642572 0.875603
30.673870 7.932802 -0.663665
35.249397 9.116114 -0.254188
40.464405 10.276649 0.291468
40.475895 10.279568 0.874765
30.741928 7.664824 -0.663665
35.288795 8.798485 -0.253908
40.484550 9.906507 0.290979
40.457237 9.899822 0.872461
30.729872 7.377590 -0.661990
32.839451 7.884055 -0.707435
40.559727 9.550548 0.290909
40.464233 9.528062 0.870786
30.744375 7.097898 -0.660943
32.838810 7.581437 -0.705969
40.563499 9.178582 0.290351
40.584843 9.183413 0.871624
30.727058 6.812025 -0.659267
32.874439 7.288087 -0.705341
32.265797 7.153155 -0.230731
40.730000 8.843349 0.290979
40.702518 8.837383 0.872461
30.736437 6.533231 -0.658220
32.936787 7.000930 -0.705341
31.720554 6.742412 -0.226402
40.699783 8.465567 0.870786
30.831467 6.272733 -0.659058
32.957436 6.705266 -0.704503
30.974665 6.301867 -0.220678
40.693661 8.094473 0.869110
32.985252 6.411684 -0.703875
30.930319 6.012245 -0.219980
40.762749 7.739050 0.869110
33.039951 6.123593 -0.703875
30.902948 5.727523 -0.219421
40.868084 7.390154 0.869948
33.092129 5.835035 -0.703875
30.912361 5.450684 -0.219142
40.842339 7.017997 0.868063
33.102345 5.539433 -0.703037
30.968613 5.182369 -0.219212
33.010174 5.524009 -0.233663
41.010574 6.678996 0.870367
33.188923 5.256609 -0.703875
30.963274 4.904101 -0.218863
33.076878 5.238863 -0.233802
41.047531 6.317820 0.869948
33.282974 4.974174 -0.704922
31.004892 4.633712 -0.218863
33.131226 4.951495 -0.233872
37.677658 5.463001 0.797487
33.245911 4.672408 -0.703246
31.044147 4.362970 -0.218863
33.133564 4.656619 -0.233593
31.350233 4.266580 0.220887
37.149323 5.055801 0.785341
31.094805 4.093709 -0.656964
31.130610 4.098423 -0.219212
37.933346 4.825731 0.266963
37.311043 4.746564 0.787854
41.198849 5.241156 0.869948
38.502346 4.727493 -0.812566
38.212097 4.691855 -0.268779
38.371231 4.541534 0.269756
41.370224 4.896489 0.290839
38.582176 4.566502 0.813822
41.292660 4.887308 0.870995
38.701069 4.409430 -0.815917
37.267971 4.246149 -0.261867
38.250355 4.189095 0.268639
41.461079 4.540727 0.291188
38.541050 4.220932 0.812147
41.413242 4.535488 0.872671
37.594627 3.951355 -0.791833
41.581783 4.370421 -0.875812
37.910252 3.984528 -0.266126
38.255608 3.852137 0.268429
38.655998 3.892454 0.813822
37.916279 3.650922 -0.797906
38.272053 3.685179 -0.268429
41.556778 4.001462 -0.291468
37.979073 3.489787 0.266265
38.160831 3.506488 0.802723
38.484520 3.366959 -0.809215
38.272869 3.348442 -0.268220
37.878532 3.147463 0.265358
37.641987 3.127808 0.791205
39.036873 3.243714 0.820524
37.884518 2.981576 -0.796021
37.921810 2.984511 -0.265567
38.034195 2.826429 0.266265
37.827374 2.811059 0.794555
38.138485 2.666903 -0.800838
37.687050 2.635335 -0.263752
37.688213 2.470216 0.263682
37.950230 2.487389 0.796650
38.290031 2.341919 -0.803561
38.008045 2.324672 -0.265846
39.864532 2.438219 -0.278832
37.708336 2.141234 0.263682
38.010418 2.158388 0.797487
38.338963 2.009260 -0.804189
38.206635 2.002325 -0.267103
38.165066 1.833200 0.266754
37.878010 1.819411 0.794346
38.514851 1.681595 -0.807540
38.222652 1.668837 -0.267103
38.339485 1.506362 0.267871
37.972366 1.491938 0.796021
38.797836 1.354850 -0.813194
38.325703 1.338363 -0.267731
38.561066 1.178147 0.269337
38.563541 1.178223 0.808168
41.471546 1.267070 0.869110
38.978085 1.020677 -0.816754
39.265583 1.028206 -0.274224
39.679588 0.865812 0.277086
38.682304 0.844051 0.810472
40.091660 0.874803 0.840000
39.325382 0.686427 -0.823875
39.363045 0.687084 -0.274852
39.725628 0.520037 0.277365
41.975380 0.549488 0.293073
40.657597 0.532237 0.851728
39.559814 0.345233 -0.828692
39.697521 0.346435 -0.277156
41.847385 0.365197 -0.292166
39.788651 0.173612 0.277784
41.638588 0.181684 0.290700
41.650467 0.181736 0.872461
39.601315 0.000000 -0.829529
41.670860 0.000000 -0.872880
40.519012 0.000000 -0.282881
41.608589 -0.181553 0.290490
39.940857 -0.174276 0.836650
41.690456 -0.181910 0.873299
41.639278 -0.363380 -0.872252
39.707520 -0.346522 -0.277226
40.145580 -0.525534 0.280298
41.647293 -0.545193 0.872461
41.764477 -0.729002 -0.874974
41.952587 -0.732285 -0.292934
39.609608 -0.864285 0.276598
42.018974 -0.916857 0.293422
40.101654 -0.875021 0.840210
41.826485 -1.095265 -0.876440
41.904613 -1.097311 -0.292654
42.019367 -1.283808 0.293492
39.462925 -1.205701 0.827016
41.651424 -1.272566 0.872880
41.985191 -1.466155 -0.880000
41.933418 -1.464347 -0.292934
41.956604 -1.648479 0.293143
39.580772 -1.555133 0.829739
41.918453 -1.646981 0.878744
42.130611 -1.839462 -0.883351
41.869091 -1.828044 -0.292585
42.030518 -2.018870 0.293771
41.562954 -1.996412 0.871624
42.182846 -2.210709 -0.884817
41.851543 -2.193347 -0.292585
42.181019 -2.395212 0.294958
38.908772 -2.209400 0.816335
42.291676 -2.586670 -0.887540
41.870735 -2.560924 -0.292864
38.526394 -2.525153 0.269546
42.138554 -2.761907 0.294819
38.389191 -2.516160 0.805864
42.377201 -2.963303 -0.889843
41.886692 -2.929003 -0.293143
38.293472 -2.845697 0.268080
42.242489 -3.139159 0.295726
38.106544 -2.831805 0.800419
42.429462 -3.339271 -0.891519
42.019043 -3.306970 -0.294260
38.526283 -3.201287 0.269896
38.239796 -3.177482 0.803770
42.468426 -3.715506 -0.892985
39.468273 -3.453026 -0.276598
38.566586 -3.543771 0.270384
38.180744 -3.508317 0.803142
38.811939 -3.737164 -0.816754
42.543854 -4.096507 -0.895288
38.849365 -3.740769 -0.272479
40.511639 -3.900827 -0.284137
38.494392 -3.876182 0.270105
42.314980 -4.260894 0.296913
38.178516 -3.844374 0.803770
39.334656 -4.134239 -0.828482
42.635746 -4.481197 -0.898011
37.969921 -3.990799 -0.266545
39.740128 -4.176856 -0.278971
37.852741 -4.145550 0.265846
40.308002 -4.414444 0.283090
37.954685 -4.156714 0.799791
38.750736 -4.415089 -0.816964
42.664551 -4.861012 -0.899477
38.152229 -4.346898 -0.268080
37.954151 -4.492170 0.266824
37.827610 -4.477193 0.797906
42.640354 -5.235577 -0.899896
38.390751 -4.713791 -0.270035
38.280537 -4.869900 0.269407
37.747429 -4.802079 0.797068
42.702076 -5.621835 -0.902199
38.149868 -5.022525 -0.268639
42.650917 -5.615100 -0.300334
38.048325 -5.178150 0.268080
42.626011 -5.801146 0.300334
37.654552 -5.124560 0.796021
42.780098 -6.012351 -0.904922
42.729027 -6.005173 -0.301241
38.001686 -5.509983 0.268080
42.652935 -6.184381 0.300892
38.073433 -5.520385 0.805864
42.795219 -6.395788 -0.906388
42.744225 -6.388167 -0.301730
37.942272 -5.839874 0.268011
42.686295 -6.570049 0.301521
38.191795 -5.878279 0.809425
42.638447 -6.562685 0.903665
42.826649 -6.783075 -0.908273
42.815247 -6.781269 -0.302638
42.716164 -6.956769 0.302149
42.717701 -6.957019 0.906597
42.844711 -7.169746 -0.909948
42.833340 -7.167843 -0.303196
42.811512 -7.356363 0.303266
42.734192 -7.343077 0.908273
42.898663 -7.564192 -0.912461
42.926723 -7.569139 -0.304313
42.863770 -7.751032 0.304104
42.825897 -7.744184 0.911624
42.948986 -7.960124 -0.914974
42.977024 -7.965321 -0.305151
42.951683 -8.154633 0.305221
42.874554 -8.139989 0.914137
37.283836 -7.247244 -0.795603
42.868073 -8.332709 -0.914765
42.945141 -8.347691 -0.305430
42.957348 -8.544748 0.305779
42.919556 -8.537230 0.916650
35.485088 -7.219523 -0.758534
42.999462 -8.748340 -0.919163
43.096039 -8.767988 -0.307036
42.988838 -8.941691 0.306547
42.960880 -8.935876 0.919163
35.508751 -7.547618 -0.760419
43.029057 -9.146108 -0.921466
43.096134 -9.160366 -0.307594
43.036209 -9.344077 0.307455
42.998508 -9.335892 0.921676
35.402489 -7.848543 -0.759582
43.103775 -9.555877 -0.924817
43.092655 -9.553411 -0.308153
43.109081 -9.754589 0.308572
43.071423 -9.746068 0.925027
35.576191 -8.213410 -0.764817
39.930668 -9.218721 -0.858430
43.203835 -9.974391 -0.928796
39.675381 -9.159783 -0.284277
43.163544 -9.965089 -0.309270
43.139118 -10.157914 0.309409
43.062584 -10.139893 0.926702
35.629543 -8.553896 -0.767540
43.123554 -10.353049 -0.309619
43.204243 -10.572011 0.310526
43.127842 -10.553315 0.930053
35.553539 -8.864493 -0.767540
43.264431 -10.787034 -0.311294
43.265415 -10.988015 0.311643
43.227909 -10.978490 0.934241
35.707134 -9.234492 -0.772566
37.572895 -9.717011 -0.270943
43.236420 -11.181699 -0.311783
43.283920 -11.395705 0.312481
43.207806 -11.375666 0.935917
35.750732 -9.579380 -0.775288
35.748043 -9.578659 -0.258376
37.602577 -10.075580 -0.271780
43.291740 -11.599987 -0.312900
43.337189 -11.815074 0.313598
43.261223 -11.794363 0.939268
35.665775 -9.890995 -0.775288
35.749817 -9.914302 -0.259005
37.609581 -10.430059 -0.272479
43.343040 -12.020089 -0.314017
43.386425 -12.236238 0.314715
39.759930 -11.213460 0.865341
43.339478 -12.222997 0.943247
35.760704 -10.254216 -0.779267
35.700390 -10.236922 -0.259284
37.651703 -10.796453 -0.273456
43.380684 -12.439211 -0.315064
40.004303 -11.660191 0.290909
43.383595 -12.645165 0.315483
43.355942 -12.637104 0.945969
35.899925 -10.634042 -0.784294
35.801456 -10.604875 -0.260680
37.699875 -11.167212 -0.274503
40.092537 -12.066483 0.292305
43.463104 -13.080910 0.316879
40.821888 -12.285994 0.892985
43.464207 -13.081241 0.950786
35.920490 -10.981996 -0.786807
35.908367 -10.978290 -0.262146
43.509647 -13.510105 0.318066
43.548908 -13.522295 0.955184
35.861427 -11.307065 -0.787644
35.811199 -11.291227 -0.262146
37.809193 -12.102818 0.277156
43.505421 -13.926195 0.956859
35.989594 -11.693728 -0.792671
35.825424 -11.640387 -0.262984
35.954731 -11.856092 0.264311
38.784767 -12.789298 0.285115
39.926090 -13.165650 0.880629
36.075802 -12.070794 -0.796859
36.025936 -12.054111 -0.265218
35.887775 -12.182259 0.264590
39.126198 -13.281555 0.288466
38.796684 -13.169701 0.858220
36.006905 -12.398171 -0.797697
36.032833 -12.407100 -0.266056
35.940594 -12.551017 0.265777
42.416885 -14.812639 0.313668
39.982841 -13.962633 0.887121
42.767292 -14.935007 0.948901
35.963310 -12.735276 -0.799163
35.847782 -12.694366 -0.265497
36.055576 -12.945274 0.267452
38.419788 -13.794114 0.855079
41.609676 -14.939400 0.926074
36.160835 -13.161469 -0.806074
36.073921 -13.129833 -0.268011
36.100723 -13.318260 0.268639
43.982143 -16.225870 0.981990
36.241264 -13.550054 -0.810472
36.182766 -13.528181 -0.269686
36.020531 -13.646958 0.268918
39.519497 -14.972598 0.885236
44.063255 -16.694075 0.987016
36.102970 -13.858632 -0.810053
36.212704 -13.900754 -0.270803
36.086464 -14.033258 0.270314
38.054855 -14.798723 0.855288
44.120895 -17.157677 0.991624
36.241119 -14.275756 -0.815917
36.127235 -14.230896 -0.271082
36.222691 -14.451388 0.272269
38.147129 -15.219161 0.860315
36.337635 -14.681358 -0.820943
36.224190 -14.635523 -0.272758
36.280304 -14.842664 0.273665
36.189949 -14.805699 0.819058
38.447773 -15.729400 0.870158
41.510639 -16.982452 0.939477
36.439053 -15.093551 -0.826178
36.353775 -15.058226 -0.274713
36.296947 -15.220572 0.274782
36.289871 -15.217606 0.824294
44.311260 -18.581253 1.006493
36.342766 -15.426588 -0.827016
36.331440 -15.421782 -0.275550
36.199493 -15.552529 0.275062
36.238365 -15.569230 0.826178
36.316784 -15.790987 -0.829529
36.351376 -15.806028 -0.276737
36.355286 -15.996709 0.277296
36.284142 -15.965404 0.830367
36.460735 -16.233366 -0.836021
36.349087 -16.183657 -0.277784
36.433125 -16.411926 0.278971
36.325748 -16.363556 0.834555
36.572422 -16.667011 -0.841885
36.461258 -16.616354 -0.279739
36.542789 -16.846457 0.280926
36.472111 -16.813873 0.841257
36.570560 -17.053133 -0.845236
36.523315 -17.031101 -0.281345
36.575275 -17.250019 0.282322
36.504845 -17.216803 0.845446
36.754234 -17.530870 -0.852985
36.662121 -17.486935 -0.283579
36.468384 -17.590260 0.282671
42.944244 -20.713844 0.332866
42.737762 -20.614250 0.993927
36.572895 -17.837793 -0.852356
43.096710 -21.019669 -1.004398
42.889408 -20.918562 -0.333146
38.923328 -19.194860 0.302987
38.817104 -19.142479 0.906597
39.117950 -19.503490 -0.915603
39.000290 -19.444826 -0.304243
38.897213 -19.605810 0.304104
38.791424 -19.552488 0.909948
39.053158 -19.898579 -0.918116
38.971676 -19.857061 -0.305360
38.822433 -19.994867 0.304872
38.725983 -19.945190 0.912461
38.984444 -20.294018 -0.920629
38.903347 -20.251801 -0.306198
38.761513 -20.393419 0.305779
38.656631 -20.338238 0.914974
38.947105 -20.708542 -0.923980
38.866405 -20.665634 -0.307315
38.714203 -20.801893 0.306826
38.609779 -20.745783 0.918116
38.905487 -21.123957 -0.927330
38.790043 -21.061274 -0.308153
38.680241 -21.220707 0.308013
38.576283 -21.163673 0.921676
38.789619 -21.501438 -0.929006
38.674740 -21.437759 -0.308711
38.598282 -21.616077 0.308851
38.486080 -21.553242 0.923980
38.809349 -21.957273 -0.934032
38.695072 -21.892618 -0.310387
38.538406 -22.026514 0.309898
38.444092 -21.972609 0.927540
38.685528 -22.335100 -0.935707
38.615131 -22.294456 -0.311294
38.517487 -22.462734 0.311294
38.389069 -22.387842 0.930891
38.626980 -22.753029 -0.939058
38.591431 -22.732090 -0.312691
38.466095 -22.884920 0.312481
38.321121 -22.798670 0.934032
38.632626 -23.212824 -0.944084
38.485874 -23.124645 -0.313459
38.393158 -23.297539 0.313528
38.266010 -23.220385 0.937592
38.564980 -23.632650 -0.947435
38.461662 -23.569336 -0.314925
38.324440 -23.715883 0.314645
38.189445 -23.632345 0.940733
38.492939 -24.053059 -0.950786
38.424122 -24.010057 -0.316321
38.259796 -24.140133 0.315832
38.159325 -24.076742 0.945131
38.416489 -24.474001 -0.954137
38.339642 -24.425045 -0.317368
38.207470 -24.575871 0.317159
38.107529 -24.511585 0.949110
38.369148 -24.917215 -0.958325
38.292767 -24.867613 -0.318764
38.125359 -24.996078 0.318276
38.025951 -24.930906 0.952461
38.308651 -25.355942 -0.962304
38.207718 -25.289137 -0.319881
38.105324 -25.461163 0.319951
37.973202 -25.372883 0.956650
38.293137 -25.829046 -0.967540
38.184540 -25.755798 -0.321557
38.046997 -25.905279 0.321347
37.915619 -25.815826 0.960838
38.231068 -26.275486 -0.971728
38.123150 -26.201315 -0.322953
37.983810 -26.350307 0.322744
37.886047 -26.282486 0.965864
38.164112 -26.722799 -0.975917
38.056877 -26.647713 -0.324349
37.948410 -26.819283 0.324419
37.818542 -26.727503 0.970053
38.092251 -27.170938 -0.980105
38.018269 -27.118168 -0.326025
37.842773 -27.242899 0.325536
37.786713 -27.202539 0.975289
38.080166 -27.666861 -0.985969
37.974331 -27.589968 -0.327700
37.829395 -27.737659 0.327491
37.701080 -27.643576 0.979268
37.965870 -28.093266 -0.989320
37.860737 -28.015471 -0.328817
38.002541 -28.377844 0.331121
37.931046 -28.324457 0.991624
38.222298 -28.802567 -1.002514
38.181831 -28.772076 -0.333774
38.167366 -29.023140 0.334751
38.064426 -28.944862 1.001676
38.445404 -29.500195 -1.015079
38.341831 -29.420723 -0.337404
38.387043 -29.722425 0.338940
38.324223 -29.673784 1.015288
38.627693 -30.179262 -1.026807
38.485508 -30.068174 -0.340965
39.979511 -31.517305 0.355416
39.885349 -31.443075 1.063875
40.240711 -32.008907 -1.077069
40.170300 -31.952898 -0.358348
40.202065 -32.265568 0.359884
40.131851 -32.209217 1.077906
40.457115 -32.761524 -1.090472
40.356205 -32.679813 -0.362537
40.476517 -33.070702 0.364910
40.337009 -32.956718 1.091100
40.694271 -33.545769 -1.104713
40.625046 -33.488701 -0.367563
40.670742 -33.825500 0.369309
40.601318 -33.767761 1.106179
40.951412 -34.362316 -1.119791
40.882797 -34.304737 -0.372590
40.954056 -34.670166 0.374614
40.854504 -34.585892 1.121257
41.258183 -35.237816 -1.136545
41.129356 -35.127789 -0.377616
43.172577 -37.199871 0.397862
43.224751 -37.244827 1.195184
43.061829 -37.433079 -1.195184
43.153244 -37.512543 -0.399188
43.207180 -37.891682 0.401213
43.258892 -37.937031 1.205236
43.152851 -38.178417 -1.206912
43.183735 -38.205742 -0.402539
43.352337 -38.693439 0.405681
43.373722 -38.712528 1.217802
43.182106 -38.881340 -1.217173
43.235111 -38.929070 -0.406170
43.368324 -39.393013 0.409032
43.456078 -39.472721 1.229739
43.283432 -39.661957 -1.229739
43.306614 -39.683201 -0.410079
43.434116 -40.150085 0.412942
43.513748 -40.223698 1.241257
43.345139 -40.419994 -1.241467
43.390160 -40.461975 -0.414198
43.519104 -40.938686 0.417130
43.605289 -41.019760 1.254032
43.389629 -41.175220 -1.252985
43.477879 -41.258968 -0.418457
43.564709 -41.704136 0.421040
43.650101 -41.785881 1.265760
43.460171 -41.968998 -1.265550
43.547771 -42.053593 -0.422646
43.657539 -42.529293 0.425508
43.706322 -42.576813 1.278116
43.520126 -42.767109 -1.278116
43.628468 -42.873573 -0.427044
43.732151 -43.352169 0.429906
43.780426 -43.400028 1.291310
43.569435 -43.569435 -1.290681
43.620354 -43.620354 -0.430674
43.535210 -43.916794 0.431721
43.280373 -43.659721 1.287749
43.530933 -44.297401 -1.300943
43.392235 -44.156258 -0.432210
42.780491 -43.915401 0.428021
42.500072 -43.627544 1.275812
42.295418 -43.798187 -1.275393
42.150845 -43.648476 -0.423623
41.987648 -43.860870 0.423902
41.848106 -43.715099 1.267645
42.214409 -44.484707 -1.284608
42.098740 -44.362816 -0.426974
41.849957 -44.487816 0.426415
41.732193 -44.362629 1.275812
42.104164 -45.151188 -1.293194
41.948696 -44.984470 -0.429417
41.553856 -44.952705 1.282304
41.971970 -45.804367 -1.301362
41.804504 -45.621609 -0.432000
41.475933 -45.661442 1.292147
41.851631 -46.480946 -1.310158
41.692513 -46.304226 -0.435002
41.585022 -47.003315 -0.438144
0.128507 -0.178507 0.004607
0.176695 -0.254704 0.002164
0.136769 -0.197152 0.005026
0.168804 -0.247923 0.006283
0.155556 -0.232806 0.001955
0.166635 -0.249386 0.006283
0.148007 -0.225748 0.005654
0.151469 -0.235485 0.001955
0.140623 -0.218622 0.005445
0.128064 -0.202970 0.001676
0.117369 -0.186019 0.004607
0.147336 -0.238093 0.001955
0.136786 -0.221043 0.005445
0.114127 -0.188076 0.001536
0.140038 -0.230776 0.005654
0.138046 -0.232034 0.001885
0.127795 -0.214804 0.005236
0.115843 -0.198639 0.004817