# This PCD file was generated using the MATLAB® pcwrite function
# from Computer Vision System Toolbox®.
# .PCD v.7 - Point Cloud Data file format
VERSION .7
FIELDS x y z
SIZE 4 4 4
TYPE F F F
COUNT 1 1 1
WIDTH 751
HEIGHT 1
VIEWPOINT 0 0 0 1 0 0 0
POINTS 751
DATA ascii
38.402393 41.181522 -0.393115
38.484966 40.554691 -0.390322
38.559547 39.929581 -0.387530
38.800835 39.484016 -1.159582
38.696259 39.377598 -0.385435
38.875275 38.875275 -1.151624
38.755577 38.755577 -0.382643
38.949196 38.275269 -1.143875
38.892601 38.219650 -0.380688
38.994049 37.656116 -1.135498
38.936916 37.600941 -0.377896
39.147121 37.149231 -1.130472
39.031445 37.039455 -0.375662
38.957981 36.328903 -1.115812
39.089901 36.451923 -0.373148
39.325119 36.034832 -1.117278
38.883060 35.629761 -0.368192
39.430046 35.502972 -1.111414
39.333698 35.416222 -0.369518
39.498749 34.945541 -1.104713
39.401600 34.859592 -0.367284
39.590927 34.415867 -1.098849
39.553364 34.383217 -0.365888
39.707294 33.913231 -1.093823
39.608582 33.828926 -0.363654
39.787281 33.385494 -1.087959
39.718437 33.327724 -0.361978
36.003822 29.679260 -0.977383
39.791710 32.801754 -0.360024
35.779724 28.973848 -0.964398
36.097549 29.231220 -0.324280
36.062500 28.685408 -0.965236
36.053879 28.678551 -0.321627
35.893894 28.043385 -0.954137
35.814217 27.981133 -0.317298
36.042068 27.656052 -0.951624
36.064964 27.673620 -0.317368
36.122345 27.220140 -0.947435
36.153347 27.243502 -0.316042
36.334396 26.886040 -0.946807
36.389713 26.926971 -0.316042
36.697052 26.661968 -0.950158
37.246235 27.060974 -0.321417
36.895763 26.317492 -0.949320
40.346581 28.778936 -0.345991
40.580082 28.414480 -1.037697
40.538845 28.385607 -0.345503
40.661709 27.946018 -1.033508
40.587227 27.894827 -0.343827
35.135197 23.698988 -0.887749
35.224949 23.759527 -0.296634
30.405146 20.124727 -0.763770
30.302671 20.056902 -0.253699
29.455900 19.312134 0.737801
30.252598 19.646267 -0.755603
40.926533 26.578001 -1.022200
29.889490 19.410461 -0.248812
29.427238 18.928236 0.244274
30.355433 19.338543 -0.753927
30.142076 19.202620 -0.249510
29.701237 18.740086 0.245182
29.763090 18.779112 0.737173
30.175413 18.855690 -0.745341
30.215218 18.880564 -0.248742
30.025206 18.580160 0.246508
29.917332 18.513407 0.736964
30.884378 18.925972 -0.758744
30.242409 18.532572 -0.247625
30.271692 18.369314 0.247206
30.248695 18.355360 0.741152
30.911243 18.573349 -0.755393
29.982981 18.015593 -0.244204
30.276150 18.012417 0.245950
30.244471 17.993570 0.737173
30.934317 18.221704 -0.752042
30.147669 17.758335 -0.244274
30.302610 17.671961 0.244903
28.534866 16.641041 0.691938
31.074835 17.941065 -0.751623
38.062126 21.975180 -0.920629
30.777792 17.769567 -0.248114
30.585899 17.481281 0.245950
28.184233 16.108616 0.680000
31.082287 17.585512 -0.748063
37.451893 21.189262 -0.901362
28.799368 16.293898 -0.231010
30.966501 17.520002 -0.248393
28.084963 15.728334 0.224727
28.140549 15.759464 0.675602
28.488861 15.791634 -0.682304
28.441940 15.765625 -0.227031
27.993202 15.357597 0.222912
27.987745 15.354603 0.668691
28.238987 15.332520 -0.673089
28.429041 15.435710 -0.225844
28.231859 15.169526 0.223749
28.155901 15.128711 0.669529
28.186333 14.986939 -0.668691
28.235975 15.013334 -0.223261
28.115372 14.792212 0.221795
28.162979 14.817260 0.666597
28.307177 14.735784 -0.668482
30.071941 15.654462 -0.710157
28.037729 14.595518 -0.220678
28.136707 14.491356 0.220957
28.140110 14.493109 0.663037
30.216312 15.395981 -0.710367
28.155121 14.345750 -0.220608
28.083504 14.155251 0.219561
28.051245 14.138991 0.658011
30.116884 15.015724 -0.704922
28.145000 14.032579 -0.219561
28.143181 13.878681 0.219072
27.796957 13.707942 0.649215
30.767960 15.006536 -0.717068
28.922487 14.106440 -0.224657
31.025614 15.132203 -0.240993
28.182161 13.593461 0.218444
28.077612 13.543033 0.652985
30.184856 14.397438 -0.700524
29.577000 14.107505 -0.228776
30.660074 14.624105 -0.237153
28.372066 13.381135 0.219002
28.131428 13.267643 0.651519
28.696472 13.381385 -0.663246
29.508663 13.760116 -0.227310
28.596731 13.183274 0.219840
28.064548 12.937934 0.647330
28.894032 13.167768 -0.665131
29.336437 13.369385 -0.225076
29.221262 13.163218 0.223749
28.030535 12.626835 0.643979
28.752104 12.801261 -0.659267
28.775980 12.811892 -0.219910
28.703468 12.629828 0.218932
28.258619 12.434091 0.646702
28.862720 12.549868 -0.659267
28.932541 12.580227 -0.220259
28.720713 12.339393 0.218234
30.374496 13.049913 0.230800
28.604883 12.289628 0.652147
28.722656 12.192044 -0.653613
28.737461 12.198329 -0.217955
28.956406 12.142428 0.219212
29.531618 12.383636 0.670786
28.707878 11.891192 -0.650890
28.852055 11.950912 -0.218025
28.959457 11.847627 0.218444
28.435621 11.633320 0.643561
28.847633 11.655200 -0.651728
28.881073 11.668711 -0.217466
28.987440 11.564816 0.217885
29.399662 11.729276 0.663037
29.041265 11.439659 -0.653822
33.673729 13.264435 -0.758116
28.898066 11.383250 -0.216838
29.049978 11.296918 0.217606
29.472944 11.461401 0.662409
29.158657 11.192960 -0.654241
29.108328 11.173640 -0.217676
28.997837 10.986298 0.216489
29.412901 11.143552 0.658849
29.479973 11.022111 -0.659267
29.429523 11.003248 -0.219351
29.101986 10.736289 0.216559
29.471506 10.872613 0.658011
29.575035 10.764433 -0.659267
29.270712 10.653667 -0.217466
29.571030 10.617085 0.219351
29.678181 10.655556 0.660524
29.714968 10.522622 -0.660315
29.475681 10.437886 -0.218304
29.738079 10.385002 0.219910
29.883303 10.435717 0.663037
29.730038 10.236873 -0.658639
29.906023 10.297470 -0.220817
30.234743 10.263312 0.222912
30.228848 10.261312 0.668691
30.150078 10.088075 -0.665969
30.061127 10.058312 -0.221306
30.361141 10.011603 0.223191
30.440676 10.037829 0.671414
30.360575 9.864749 -0.668691
30.318943 9.851222 -0.222563
30.142593 9.648720 0.220957
30.222412 9.674271 0.664712
30.636206 9.659558 -0.672880
30.632643 9.658435 -0.224238
30.684044 9.527649 0.224308
30.229300 9.386447 0.663037
30.862747 9.435689 -0.676021
30.973957 9.469688 -0.226123
30.392574 9.147126 0.221585
30.606842 9.211614 0.669529
31.145222 9.225635 -0.680419
30.863655 9.142231 -0.224727
30.653645 8.934723 0.222912
30.695662 8.946969 0.669739
31.224543 8.953494 -0.680419
31.355593 8.991072 -0.227729
31.192413 8.797171 0.226263
30.897659 8.714042 0.672461
31.368927 8.699373 -0.681885
31.538857 8.746499 -0.228497
31.441652 8.571979 0.227519
31.368002 8.551899 0.681047
43.174408 11.770695 0.937383
31.636789 8.477053 -0.686074
31.642960 8.478705 -0.228706
31.515259 8.297276 0.227519
31.973196 8.417840 0.692566
43.188469 11.370575 0.935498
31.980583 8.270741 -0.691938
31.860962 8.239805 -0.229753
31.741539 8.061324 0.228636
31.919464 8.106511 0.689843
32.109745 8.005858 -0.693194
32.057789 7.992905 -0.230661
32.140926 7.864834 0.231010
32.241486 7.889441 0.695288
32.256157 7.744019 -0.694870
32.243000 7.740860 -0.231499
32.480873 7.648231 0.232965
33.029247 7.777355 0.710786
32.468632 7.495974 -0.698011
32.582142 7.522180 -0.233453
32.858482 7.435115 0.235199
32.559536 7.367471 0.699267
32.659698 7.240481 -0.700733
32.529388 7.211592 -0.232616
33.078468 7.182039 0.236316
32.681210 7.095787 0.700524
32.966125 7.007166 -0.705969
32.816051 6.975267 -0.234221
32.865757 6.836087 0.234361
32.741890 6.810323 0.700524
33.202366 6.755097 -0.709739
33.248035 6.764389 -0.236874
33.159542 6.595843 0.236036
33.005993 6.565300 0.704922
33.328747 6.478452 -0.711205
33.295982 6.472084 -0.236804
33.127419 6.289437 0.235408
33.012917 6.267698 0.703875
35.065788 6.657448 0.747644
33.462658 6.201937 -0.712880
35.733479 6.622808 -0.761257
33.292198 6.170344 -0.236385
33.220406 6.007228 0.235687
43.906826 7.939648 0.311504
33.056515 5.977592 0.703665
37.611626 6.801290 0.800629
34.116104 6.015590 -0.725655
33.394016 5.888266 -0.236735
35.196171 6.206035 -0.249510
44.000137 7.758411 -0.311923
33.232140 5.710326 0.235408
44.023716 7.564658 0.311853
37.994705 6.528685 0.807540
43.867332 7.537786 0.932357
35.163231 5.884307 -0.746807
33.503304 5.606531 -0.237153
35.179951 5.887105 -0.249022
44.036579 7.369196 -0.311713
35.491524 5.780162 0.251046
44.009094 7.167336 0.311294
43.951176 7.157904 0.932775
35.242867 5.581922 -0.747435
37.632549 5.960410 -0.798116
35.417641 5.609603 -0.250348
44.069580 6.979936 -0.311504
44.089733 6.786059 0.311434
33.251072 5.117829 0.704712
43.962559 6.766485 0.931728
37.791897 5.648036 -0.800419
44.308083 6.621887 -0.938430
44.217823 6.608398 -0.312132
36.606312 5.307663 0.258237
44.167065 6.403920 0.311574
36.579388 5.303759 0.774241
36.839794 5.177495 -0.779267
44.275074 6.222456 -0.936545
36.747952 5.164588 -0.259075
44.353027 6.233411 -0.312691
36.700779 4.994757 0.258586
36.624279 4.984345 0.774241
36.853836 4.851900 -0.778639
36.841194 4.850235 -0.259424
36.742970 4.674296 0.258586
36.706051 4.669600 0.775079
36.894772 4.530108 -0.778639
36.832489 4.522461 -0.259075
36.782360 4.353479 0.258586
36.745403 4.349105 0.775079
36.972633 4.212500 -0.779477
36.910294 4.205397 -0.259354
36.868652 4.037774 0.258935
36.781956 4.028279 0.775079
36.998043 3.888651 -0.779267
36.955532 3.884183 -0.259424
36.892532 3.714883 0.258865
36.865448 3.712155 0.776126
37.080330 3.570430 -0.780315
37.067650 3.569209 -0.259982
36.963379 3.396457 0.259144
36.936260 3.393965 0.776964
37.179790 3.252810 -0.781781
37.097385 3.245601 -0.259982
37.041435 3.077906 0.259493
37.004326 3.074822 0.777801
37.246632 2.931373 -0.782618
37.204048 2.928022 -0.260541
37.066887 2.754545 0.259493
37.029747 2.751786 0.777801
37.320660 2.609715 -0.783665
37.218208 2.602551 -0.260471
37.159359 2.435553 0.259982
37.082283 2.430501 0.778430
37.342014 2.283935 -0.783665
37.279427 2.280107 -0.260750
37.219135 2.113456 0.260261
37.142006 2.109076 0.779267
37.390472 1.959552 -0.784294
37.297905 1.954700 -0.260750
37.316067 1.792419 0.260820
37.248875 1.789192 0.781152
37.456093 1.635368 -0.785341
37.443417 1.634815 -0.261658
37.380249 1.468674 0.261169
37.293037 1.465248 0.781781
37.538879 1.310887 -0.786807
37.536205 1.310793 -0.262216
37.421627 1.143334 0.261378
37.344379 1.140974 0.782618
37.548889 0.983252 -0.786807
37.546215 0.983182 -0.262216
37.470169 0.817602 0.261658
37.442871 0.817006 0.784503
37.596024 0.656241 -0.787644
37.543365 0.655322 -0.262146
37.515873 0.491110 0.261937
37.478565 0.490621 0.785131
37.680298 0.328831 -0.789320
37.627651 0.328372 -0.262705
37.558727 0.163882 0.262216
37.481422 0.163545 0.785131
37.761715 0.000000 -0.790995
37.719082 0.000000 -0.263333
37.598724 -0.164056 0.262495
37.561401 -0.163894 0.786807
37.800270 -0.329878 -0.791833
37.717644 -0.329157 -0.263333
37.715851 -0.493728 0.263333
37.648514 -0.492846 0.788692
37.835934 -0.660429 -0.792671
37.743332 -0.658812 -0.263543
37.950043 -0.828073 0.265009
37.872677 -0.826385 0.793508
38.098579 -0.997646 -0.798325
38.056026 -0.996532 -0.265777
37.821430 -1.155549 0.264171
37.784077 -1.154408 0.791833
38.058449 -1.329030 -0.797697
37.935951 -1.324753 -0.265009
37.849873 -1.487126 0.264450
37.772564 -1.484088 0.791833
38.045403 -1.661098 -0.797697
37.992878 -1.658805 -0.265497
37.915359 -1.821205 0.265009
37.838066 -1.817493 0.793508
38.059410 -1.994609 -0.798325
38.016899 -1.992381 -0.265777
37.977894 -2.156541 0.265567
37.900620 -2.152153 0.795184
38.120388 -2.331543 -0.800000
38.077915 -2.328945 -0.266335
37.997543 -2.490490 0.265846
37.920300 -2.485428 0.796021
38.218269 -2.672482 -0.802514
38.165871 -2.668818 -0.267103
38.094028 -2.830875 0.266684
38.016811 -2.825137 0.798534
38.283195 -3.012953 -0.804398
38.190971 -3.005695 -0.267452
38.107735 -3.166509 0.266963
38.070415 -3.163408 0.800210
38.325165 -3.353017 -0.805864
38.242981 -3.345827 -0.268011
38.158314 -3.506257 0.267522
38.081184 -3.499169 0.801048
38.384010 -3.695960 -0.807749
38.282005 -3.686138 -0.268499
38.245659 -3.851135 0.268360
38.208359 -3.847379 0.804398
38.429840 -4.039139 -0.809425
38.337883 -4.029474 -0.269128
38.290115 -4.193450 0.268918
38.213085 -4.185013 0.805236
38.393131 -4.374345 -0.809425
38.331070 -4.367273 -0.269337
38.331509 -4.536833 0.269477
38.254536 -4.527723 0.806911
38.512268 -4.728712 -0.812775
38.460228 -4.722322 -0.270524
38.409496 -4.886305 0.270314
38.332584 -4.876521 0.809425
38.598396 -5.081575 -0.815498
38.536522 -5.073430 -0.271362
38.444660 -5.232089 0.270873
38.367821 -5.221631 0.811100
38.146660 -5.361164 -0.806911
38.104588 -5.355250 -0.268639
38.476707 -5.578857 0.271431
38.399948 -5.567727 0.812775
38.306072 -5.724881 -0.811309
38.293762 -5.723041 -0.270314
38.317841 -5.897680 0.270663
38.231319 -5.884363 0.810262
38.481773 -6.094914 -0.816126
38.439892 -6.088281 -0.271711
38.373482 -6.249519 0.271431
38.296928 -6.237051 0.812775
38.506004 -6.443696 -0.817801
38.414886 -6.428448 -0.271920
38.435749 -6.604470 0.272269
38.359283 -6.591330 0.815288
38.595997 -6.805516 -0.820943
38.514893 -6.791215 -0.273037
38.494736 -6.960982 0.273107
38.379009 -6.940055 0.816964
38.702255 -7.173039 -0.824503
38.611481 -7.156215 -0.274154
38.589710 -7.326486 0.274224
38.513432 -7.312004 0.821152
38.795212 -7.541025 -0.827854
38.704617 -7.523416 -0.275271
38.681229 -7.694175 0.275341
38.605049 -7.679021 0.824503
38.845493 -7.903205 -0.830367
38.764877 -7.886803 -0.276179
38.690933 -8.047726 0.275899
38.614872 -8.031905 0.826178
38.931515 -8.275149 -0.833718
38.841293 -8.255972 -0.277226
38.814674 -8.427492 0.277296
38.738716 -8.410999 0.830367
38.974949 -8.640538 -0.836231
38.884922 -8.620580 -0.278064
38.934715 -8.810027 0.278692
39.005135 -8.825961 0.837697
39.102638 -9.027555 -0.840629
39.188210 -9.047311 -0.280786
39.128891 -9.213632 0.280647
39.053143 -9.195794 0.840419
39.314014 -9.438460 -0.846911
39.263340 -9.426294 -0.281903
39.202412 -9.592769 0.281764
39.117077 -9.571888 0.843561
39.346565 -9.810200 -0.849425
39.296021 -9.797598 -0.282741
39.233513 -9.964043 0.282601
39.158031 -9.944873 0.846283
39.501438 -10.215767 -0.854660
39.412331 -10.192721 -0.284207
39.377151 -10.367139 0.284277
39.263123 -10.337117 0.850472
39.555645 -10.598903 -0.857801
39.505405 -10.585441 -0.285534
39.439545 -10.752454 0.285394
39.364334 -10.731950 0.854660
39.615795 -10.986432 -0.861152
39.536793 -10.964523 -0.286441
39.498199 -11.139645 0.286511
39.461632 -11.129332 0.858849
39.681789 -11.378571 -0.864713
39.622242 -11.361495 -0.287768
39.591492 -11.539867 0.287907
39.506985 -11.515236 0.861990
39.724777 -11.767015 -0.867854
39.722935 -11.766469 -0.289234
39.642487 -11.931035 0.289024
39.567745 -11.908540 0.865550
39.888283 -12.195072 -0.873718
39.762184 -12.156519 -0.290281
39.766060 -12.347691 0.290700
39.653278 -12.312671 0.869739
39.932907 -12.590796 -0.877069
39.883472 -12.575210 -0.291956
39.847271 -12.755212 0.292096
39.772846 -12.731389 0.874765
40.011681 -13.000584 -0.881257
39.962421 -12.984578 -0.293353
39.838909 -13.136902 0.292864
39.840637 -13.137471 0.878744
40.086330 -13.412699 -0.885446
40.037251 -13.396276 -0.294749
40.253017 -13.664059 0.296773
40.141033 -13.626044 0.887959
40.393147 -13.908476 -0.894870
40.287563 -13.872121 -0.297471
40.028400 -13.978542 0.296005
39.916767 -13.939560 0.885655
40.270237 -14.260439 -0.894870
40.146122 -14.216488 -0.297332
40.093121 -14.394901 0.297402
40.057076 -14.381960 0.891519
40.322762 -14.676285 -0.898849
40.283642 -14.662046 -0.299287
40.191139 -14.827293 0.299077
40.080124 -14.786338 0.894870
40.342987 -15.083625 -0.902199
40.266556 -15.055048 -0.300124
40.200481 -15.230600 0.300124
40.173946 -15.220547 0.899896
40.433834 -15.521094 -0.907226
40.348362 -15.488285 -0.301730
40.336319 -15.685936 0.302149
40.216637 -15.639395 0.903875
40.520100 -15.961292 -0.912252
40.407051 -15.916760 -0.303196
40.420807 -16.126266 0.303824
40.236492 -16.052732 0.907435
40.638824 -16.419151 -0.918116
40.479862 -16.354925 -0.304802
40.463646 -16.554113 0.305221
40.390984 -16.524387 0.914137
40.641785 -16.834377 -0.921466
40.520370 -16.784086 -0.306198
40.492859 -16.980064 0.306547
40.420425 -16.949690 0.918116
40.751015 -17.297779 -0.927330
40.666912 -17.262081 -0.308432
35.749294 -15.359109 0.271641
40.563644 -17.427517 0.308223
35.806625 -15.383740 0.816335
40.818562 -17.748415 -0.932357
40.707306 -17.700039 -0.309898
40.629688 -17.877489 0.309898
35.744225 -15.727836 0.818011
40.594311 -17.861925 0.929006
40.926994 -18.221872 -0.938430
40.807079 -18.168484 -0.311853
40.736534 -18.350471 0.311923
35.696770 -16.080223 0.820105
40.655670 -18.314043 0.934032
37.554962 -17.114782 -0.864503
40.893787 -18.636374 -0.941362
38.481323 -17.536949 -0.295238
40.783470 -18.586098 -0.312900
36.797066 -16.963678 0.282881
40.765553 -18.793179 0.313389
34.156853 -15.746525 0.787854
38.151806 -17.588224 0.880000
40.703129 -18.764400 0.938849
36.235298 -16.896797 -0.837487
40.992371 -19.115057 -0.947435
36.251427 -16.904318 -0.279250
33.825798 -15.953282 0.261099
36.674763 -17.296942 0.283090
34.027184 -16.048262 0.788063
38.060169 -17.950340 0.881466
37.412979 -17.845076 -0.868273
34.441814 -16.427902 -0.266405
36.147659 -17.241549 -0.279599
34.153645 -16.473763 0.264729
36.333282 -17.525095 0.281624
34.137981 -16.466208 0.793927
37.139011 -18.113907 -0.865550
34.557789 -16.854959 -0.268429
37.020424 -18.056068 -0.287558
34.905437 -17.213457 0.271711
34.127491 -16.829815 0.797068
37.221104 -18.557758 -0.871205
34.856842 -17.378981 -0.271920
35.387894 -17.836967 0.276667
37.754230 -19.029697 0.295168
33.800770 -17.036989 0.792880
35.187038 -17.928692 -0.827226
37.155731 -18.931791 -0.873508
34.766228 -17.714277 -0.272409
33.977406 -17.499514 0.266824
33.624142 -17.317572 0.792252
34.674519 -18.050411 -0.818849
34.876415 -18.155514 -0.274503
33.354370 -17.548584 0.263124
33.781418 -17.773264 0.799582
34.021336 -18.089466 -0.807121
33.268654 -17.689257 -0.263054
34.813774 -18.510813 -0.275271
33.358521 -17.924179 0.264380
33.580997 -18.043720 0.798534
33.844612 -18.376123 -0.806702
33.693027 -18.293821 -0.267662
35.151829 -19.085886 -0.279250
36.988510 -20.083122 -0.293841
33.709324 -18.493568 0.268429
33.185596 -18.206242 0.792880
32.327599 -17.919481 -0.774241
33.759499 -18.713196 -0.269477
33.581554 -18.806574 0.268709
33.409267 -18.710089 0.802095
35.345783 -19.794590 0.848587
32.370132 -18.314138 -0.779058
33.829903 -19.140038 -0.271362
33.346703 -19.059212 0.268150
33.236042 -18.995962 0.801885
35.970268 -20.558702 0.867854
32.243713 -18.615917 -0.779896
32.423203 -18.719543 -0.261378
32.323936 -18.850763 0.261239
32.049904 -18.690952 0.777173
32.209248 -18.972698 -0.783037
31.845037 -18.758162 -0.258027
31.951952 -19.009413 0.259563
31.919947 -18.990372 0.778011
32.136723 -19.309692 -0.785341
31.757275 -19.081696 -0.258656
31.648066 -19.204517 0.258446
31.855577 -19.330439 0.780524
32.367645 -19.834919 -0.795184
32.194908 -19.729065 -0.263612
31.844915 -19.706232 0.261448
30.861015 -19.097376 0.760210
32.337460 -20.206688 -0.798744
32.123280 -20.072853 -0.264450
32.483616 -20.495634 0.268150
30.557899 -19.280600 0.756859
32.159897 -20.488113 -0.798744
33.026405 -21.040140 -0.273386
32.269882 -20.756685 0.267871
31.389101 -20.190147 0.781781
33.087627 -21.282677 0.824084
32.239811 -20.936779 -0.805236
32.329964 -20.995323 -0.269128
32.020618 -20.993637 0.267312
31.679934 -20.770275 0.793508
32.689491 -21.636703 -0.821152
31.778614 -21.033806 -0.266056
31.536875 -21.072266 0.264799
31.588915 -21.107038 0.795812
31.745174 -21.412392 -0.802095
34.372646 -23.184645 -0.868482
31.287115 -21.103426 -0.263473
32.464321 -21.897461 -0.273386
31.178205 -21.228485 0.263333
30.899412 -21.038662 0.783037
31.087461 -21.365820 -0.790157
31.052319 -21.341667 -0.263054
30.638468 -21.254662 0.260331
32.232426 -22.360428 0.273875
30.969296 -21.484165 0.789529
32.046391 -22.439123 -0.819477
31.512011 -22.064947 -0.268569
30.476320 -21.538534 0.260541
30.641836 -21.655508 0.785969
32.069118 -22.874678 -0.825131
31.554348 -22.507498 -0.270594
30.295319 -21.809509 0.260610
30.500376 -21.957129 0.787226
31.423416 -22.830448 -0.813613
30.968416 -22.499870 -0.267243
30.821562 -22.599304 0.266824
32.129768 -23.558521 0.834555
30.483604 -22.556681 -0.794346
30.537779 -22.596767 -0.265218
30.430878 -22.723814 0.265148
31.474358 -23.503017 0.822828
30.085987 -22.671417 -0.789110
30.586994 -23.048954 -0.267382
30.064262 -22.861397 0.263682
30.575689 -23.250296 0.804608
30.696041 -23.553900 -0.810472
30.686159 -23.546318 -0.270035
29.673857 -22.975954 0.262007
30.308390 -23.467262 0.802932
30.859612 -24.110170 -0.820315
30.038239 -23.468443 -0.266126
30.257524 -23.853109 0.268988
30.149557 -23.767994 0.804189
33.219471 -26.188120 0.886074
35.252998 -27.791222 0.940315
30.554146 -24.303865 -0.817801
29.730558 -23.648754 -0.265218
30.141800 -24.191353 0.269826
30.861057 -24.768618 0.828901
31.086790 -25.173586 -0.837906
31.364847 -25.398752 -0.281764
30.293503 -24.750830 0.273107
30.550833 -24.961077 0.826388
31.297943 -25.800034 -0.849634
32.339409 -26.658550 -0.877906
31.396639 -25.881392 -0.284067
30.791365 -25.608908 0.279599
30.401026 -25.284266 0.828273
31.967682 -26.824070 -0.874137
31.820711 -26.700747 -0.290002
30.734623 -26.018778 0.281135
30.408144 -25.742393 0.834555
31.777998 -27.140974 -0.875393
33.100815 -28.270767 -0.911833
31.867838 -27.217705 -0.292585
30.279135 -26.090172 0.279041
30.015717 -25.863195 0.829948
31.600306 -27.469727 -0.877069
33.742245 -29.331684 -0.312132
30.343515 -26.610548 0.281764
30.811155 -27.020658 0.858430
32.261887 -28.292915 0.898849
31.419291 -27.797440 -0.878744
30.346947 -26.848709 -0.282881
33.544910 -29.678028 -0.312691
33.623985 -30.010555 0.314645
30.484678 -27.208614 0.855917
32.065971 -28.619974 0.900315
34.318333 -30.900364 -0.967330
33.418407 -30.090071 -0.313947
35.885590 -32.311531 -0.337125
35.729458 -32.454353 0.336985
34.397793 -31.244755 0.973404
36.280533 -33.244984 -0.343548
53.853901 -49.782032 0.512006
34.028385 -31.455515 0.970681
54.038406 -50.391632 -0.515845
53.985542 -50.784527 0.517451
50.525749 -47.947144 -1.459058
54.169640 -51.405067 -0.521361
54.197647 -51.882961 0.523804
54.049862 -51.741486 1.567331
54.265671 -52.403751 -0.526666
55.424961 -58.405720 -0.562131
55.676991 -59.706261 -0.569950
49.849552 -57.345348 -1.591624
50.023281 -57.545204 -0.532321
0.151872 -0.210963 0.005445
0.159595 -0.230056 0.001955
0.153865 -0.221796 0.005654
0.129417 -0.190074 0.004817
0.133334 -0.199548 0.001676
0.138862 -0.207822 0.005236
0.148007 -0.225748 0.005654
0.129831 -0.201844 0.001676
0.140623 -0.218622 0.005445
0.128064 -0.202970 0.001676
0.117369 -0.186019 0.004607
0.105240 -0.170066 0.001396
0.115742 -0.187036 0.004607
0.129690 -0.213723 0.001745
0.119292 -0.196587 0.004817
0.117595 -0.197659 0.001606
0.127795 -0.214804 0.005236
0.130953 -0.224548 0.005445