# This PCD file was generated using the MATLAB® pcwrite function
# from Computer Vision System Toolbox®.
# .PCD v.7 - Point Cloud Data file format
VERSION .7
FIELDS x y z
SIZE 4 4 4
TYPE F F F
COUNT 1 1 1
WIDTH 770
HEIGHT 1
VIEWPOINT 0 0 0 1 0 0 0
POINTS 770
DATA ascii
15.292971 16.984566 -0.478744
15.309335 17.002739 -0.159731
15.285254 16.680927 -0.473927
15.274722 16.669434 -0.157846
15.293868 16.400665 -0.469738
15.283211 16.389236 -0.156450
15.250592 16.070770 -0.464084
15.267332 16.088411 -0.154844
15.244407 15.786046 -0.459686
15.233487 15.774737 -0.153099
15.220410 15.488402 -0.454869
15.265431 15.534216 -0.152052
15.213600 15.213600 -0.450681
15.258992 15.258992 -0.150656
15.203164 14.940108 -0.446492
15.248923 14.985075 -0.149259
15.217892 14.695747 -0.443142
15.235246 14.712505 -0.147863
15.200512 14.424747 -0.438953
15.217983 14.441327 -0.146467
15.208820 14.182455 -0.435602
15.197160 14.171580 -0.145071
15.221438 13.947878 -0.432461
15.209661 13.937086 -0.144023
15.164259 13.653960 -0.427435
15.204372 13.690079 -0.142837
15.185491 13.434987 -0.424712
15.210920 13.457485 -0.141789
15.219153 13.229809 -0.422409
15.207027 13.219267 -0.140672
15.151567 12.940660 -0.417382
15.192541 12.975656 -0.139486
15.141377 12.705124 -0.414032
15.121348 12.688318 -0.137810
15.159098 12.496196 -0.411519
15.216066 12.543157 -0.137670
15.174332 12.287931 -0.409005
15.192833 12.302914 -0.136484
15.155795 12.055464 -0.405655
15.174402 12.070265 -0.135367
15.134367 11.824264 -0.402304
15.176717 11.857351 -0.134459
15.102135 11.588276 -0.398744
15.160613 11.633147 -0.133412
15.082916 11.365792 -0.395602
15.069885 11.355972 -0.131736
15.149379 11.209950 -0.394765
15.168409 11.224032 -0.131736
15.117211 10.983297 -0.391414
15.144429 11.003072 -0.130689
15.147367 10.804512 -0.389738
15.166602 10.818233 -0.130061
15.118230 10.585898 -0.386597
15.104795 10.576491 -0.128734
15.175449 10.527584 0.128944
15.135878 10.402600 -0.384712
15.155312 10.415956 -0.128385
15.175817 10.332847 0.128176
15.156331 10.319578 0.384084
15.126617 10.203032 -0.382199
15.154437 10.221797 -0.127617
15.124063 10.105577 0.126989
15.170993 10.136933 0.382199
15.123371 10.009941 -0.379896
15.142998 10.022931 -0.126780
15.153136 9.934832 0.126500
15.158543 9.938376 0.379686
15.075990 9.790462 -0.376545
15.095702 9.803264 -0.125663
15.096282 9.710255 0.125314
15.143790 9.740813 0.377173
15.118692 9.631669 -0.375498
15.138508 9.644293 -0.125314
15.121245 9.540795 0.124825
15.092931 9.522930 0.373822
15.108903 9.441091 -0.373194
15.120329 9.448230 -0.124476
15.169914 9.387427 0.124546
15.149953 9.375075 0.373194
15.122519 9.267092 -0.371519
15.133994 9.274123 -0.123917
15.123022 9.176875 0.123498
15.128621 9.180273 0.370681
15.091406 9.067831 -0.368796
15.154348 9.105651 -0.123429
15.133779 9.003652 0.122940
15.139420 9.007009 0.369005
15.032131 8.854602 -0.365445
15.052295 8.866479 -0.121963
15.108115 8.810792 0.122102
15.113806 8.814111 0.366492
15.108829 8.723086 -0.365445
15.129095 8.734787 -0.121963
15.114973 8.638919 0.121544
15.085986 8.622352 0.363979
15.088657 8.536752 -0.363142
15.143820 8.567961 -0.121474
15.119987 8.467600 0.120985
15.125763 8.470834 0.363142
15.092626 8.365979 -0.361466
15.148045 8.396698 -0.120915
15.158237 8.316093 0.120706
15.128985 8.300045 0.361466
15.077194 8.186249 -0.359372
15.115286 8.206931 -0.120078
15.089291 8.107768 0.119589
15.095156 8.110920 0.358953
15.077437 8.016816 -0.357697
15.098036 8.027768 -0.119380
15.088672 7.938534 0.119030
15.094578 7.941642 0.357278
15.075877 7.848005 -0.356021
15.105427 7.863387 -0.118891
15.130703 7.792824 0.118821
15.092200 7.772994 0.355602
15.090341 7.688912 -0.354765
15.137832 7.713110 -0.118612
15.082047 7.601977 0.117913
15.123746 7.622995 0.354765
15.112126 7.534628 -0.353717
15.097175 7.527174 -0.117774
15.120906 7.456806 0.117704
15.153825 7.473040 0.353927
15.105414 7.367403 -0.352042
15.126335 7.377606 -0.117495
15.104342 7.285470 0.117076
15.110402 7.288393 0.351414
15.051821 7.179350 -0.349320
15.117935 7.210885 -0.116936
15.131166 7.136321 0.116796
15.146301 7.143459 0.350786
15.077654 7.030826 -0.348482
15.089657 7.036423 -0.116238
15.092972 6.957955 0.116029
15.126348 6.973341 0.348901
15.102044 6.882398 -0.347644
15.086790 6.875446 -0.115749
15.107529 6.805446 0.115679
15.122815 6.812331 0.347435
15.024527 6.689351 -0.344503
15.073133 6.710991 -0.115191
15.093119 6.641131 0.115121
15.108479 6.647890 0.345759
15.045655 6.542037 -0.343665
15.066930 6.551288 -0.114702
15.076997 6.477589 0.114562
15.083243 6.480273 0.343875
15.056156 6.390959 -0.342618
15.049888 6.388298 -0.114144
15.068397 6.318703 0.114074
15.074679 6.321338 0.342409
15.055934 6.236372 -0.341361
15.058869 6.237588 -0.113795
15.085942 6.171822 0.113795
15.092255 6.174405 0.341571
15.017084 6.067296 -0.339267
15.084913 6.094701 -0.113585
15.092788 6.021411 0.113445
15.108418 6.027647 0.340733
15.041553 5.925025 -0.338639
15.063093 5.933510 -0.113027
15.070200 5.860480 0.112887
15.039308 5.848467 0.338011
15.027349 5.768458 -0.337173
15.058286 5.780334 -0.112608
15.045959 5.700404 0.112328
15.061725 5.706377 0.337382
15.020926 5.616095 -0.335916
15.005123 5.610186 -0.111840
15.066986 5.558505 0.112119
15.064049 5.557421 0.336335
15.088154 5.491639 -0.336335
15.062905 5.482449 -0.111910
15.067861 5.409915 0.111770
15.083743 5.415617 0.335707
15.012985 5.316377 -0.333613
15.034765 5.324090 -0.111351
15.038972 5.251844 0.111211
15.045479 5.254117 0.333822
15.058807 5.185163 -0.333613
15.071198 5.189430 -0.111281
15.084229 5.120406 0.111211
15.052887 5.109766 0.332984
14.989709 5.015486 -0.331100
15.002114 5.019637 -0.110444
15.052364 4.963525 0.110653
15.068419 4.968820 0.332356
15.023397 4.881398 -0.330890
15.045347 4.888530 -0.110444
15.066534 4.822835 0.110444
15.073119 4.824944 0.331519
14.989142 4.726058 -0.329215
15.001602 4.729987 -0.109815
15.060298 4.676347 0.110094
15.076458 4.681365 0.330681
14.991570 4.583383 -0.328377
15.013618 4.590124 -0.109606
15.023929 4.521689 0.109536
15.030573 4.523689 0.328796
15.030996 4.452384 -0.328377
15.005163 4.444732 -0.109257
15.062815 4.390410 0.109536
15.031083 4.381161 0.327958
15.030836 4.310023 -0.327539
15.014542 4.305351 -0.109047
14.994687 4.228939 0.108768
15.039876 4.241684 0.327330
15.029338 4.168005 -0.326702
15.051541 4.174162 -0.109047
15.059963 4.105817 0.108977
15.028090 4.097127 0.326283
14.949252 4.005640 -0.324189
15.019780 4.024538 -0.108559
15.027528 3.956418 0.108489
15.034266 3.958192 0.325655
14.983639 3.875032 -0.324189
14.996242 3.878292 -0.108140
15.051789 3.822668 0.108419
15.058545 3.824383 0.325445
15.016884 3.744130 -0.324189
15.039217 3.749698 -0.108210
15.006869 3.672158 0.107860
15.052500 3.683323 0.324608
15.010098 3.603606 -0.323351
15.032473 3.608977 -0.107930
15.009142 3.534184 0.107651
15.045143 3.542661 0.323770
15.002008 3.463486 -0.322513
15.014677 3.466411 -0.107581
15.000400 3.394244 0.107372
15.007226 3.395789 0.322304
14.992618 3.323783 -0.321676
15.063880 3.339582 -0.107721
15.019676 3.261091 0.107302
15.026518 3.262577 0.322094
14.942818 3.176194 -0.320000
14.965294 3.180971 -0.106813
15.008401 3.121752 0.107023
15.044629 3.129287 0.321885
14.999357 3.051654 -0.320628
15.090472 3.070191 -0.107511
15.035072 2.990662 0.107023
15.002724 2.984227 0.320419
14.956717 2.907291 -0.319162
14.969450 2.909766 -0.106464
15.031125 2.853748 0.106813
15.038016 2.855057 0.320628
14.981519 2.776660 -0.319162
15.092595 2.797247 -0.107162
14.966894 2.706455 0.106185
15.062359 2.723718 0.320628
14.926412 2.631929 -0.317487
14.978560 2.641124 -0.106185
15.029364 2.582517 0.106464
15.046141 2.585400 0.319791
14.998114 2.509824 -0.318534
15.050351 2.518565 -0.106534
14.982240 2.440013 0.105976
14.979319 2.439537 0.317906
14.970072 2.371026 -0.317487
14.982867 2.373053 -0.105906
14.963428 2.303092 0.105696
15.000037 2.308727 0.317906
14.990192 2.240299 -0.317487
15.052455 2.249604 -0.106255
14.973061 2.170990 0.105626
14.989930 2.173436 0.317278
14.969569 2.103836 -0.316649
14.982390 2.105638 -0.105626
14.991436 2.040245 0.105626
14.988513 2.039847 0.316859
14.997271 1.974428 -0.316859
15.049767 1.981339 -0.105976
15.008669 1.909344 0.105626
15.025578 1.911495 0.317278
14.924621 1.832513 -0.314974
14.957306 1.836526 -0.105208
14.985038 1.773596 0.105347
14.962259 1.770900 0.315602
14.959910 1.704466 -0.315393
15.012505 1.710459 -0.105487
15.009885 1.643850 0.105417
15.006959 1.643529 0.316231
14.914557 1.567583 -0.314136
14.937355 1.569979 -0.104859
14.934114 1.503786 0.104789
14.951097 1.505496 0.314765
15.017235 1.445995 -0.316021
15.069931 1.451069 -0.105696
15.036288 1.381641 0.105417
15.033357 1.381371 0.316231
14.859965 1.300079 -0.312461
14.872825 1.301203 -0.104230
14.958084 1.242921 0.104789
15.014949 1.247646 0.315602
14.950480 1.176628 -0.314136
15.013209 1.181565 -0.105138
14.968361 1.112341 0.104789
15.025265 1.116570 0.315602
14.920285 1.043328 -0.313299
14.933170 1.044229 -0.104509
14.937584 0.979061 0.104509
14.944649 0.979524 0.313717
14.968739 0.915527 -0.314136
15.041525 0.919979 -0.105208
14.985494 0.850938 0.104789
15.042462 0.854173 0.315602
14.896285 0.780681 -0.312461
14.909176 0.781357 -0.104230
14.952396 0.718215 0.104509
14.949481 0.718075 0.313508
14.952472 0.652839 -0.313508
15.025319 0.656020 -0.104998
14.998062 0.589275 0.104789
15.005129 0.589553 0.314555
14.947608 0.521982 -0.313299
14.960516 0.522433 -0.104509
14.962653 0.457150 0.104509
14.929757 0.456145 0.312880
14.991571 0.392568 -0.314136
15.024484 0.393430 -0.104928
14.966073 0.326561 0.104509
14.973150 0.326715 0.313717
14.914456 0.260333 -0.312461
14.927362 0.260558 -0.104230
14.938356 0.195554 0.104300
14.935444 0.195516 0.312880
14.966146 0.130608 -0.313508
15.029061 0.131157 -0.104928
14.969493 0.065317 0.104509
14.976572 0.065348 0.313717
14.916728 0.000000 -0.312461
14.899637 0.000000 -0.104021
14.969493 -0.065317 0.104509
14.966575 -0.065304 0.313508
14.966146 -0.130608 -0.313508
15.039061 -0.131244 -0.104998
14.938356 -0.195554 0.104300
14.975431 -0.196039 0.313717
14.914456 -0.260333 -0.312461
14.927362 -0.260558 -0.104230
14.896091 -0.325034 0.104021
14.893188 -0.324971 0.312042
14.961588 -0.391783 -0.313508
14.984498 -0.392383 -0.104649
14.962653 -0.457150 0.104509
15.009702 -0.458588 0.314555
14.867674 -0.519191 -0.311623
14.920542 -0.521037 -0.104230
14.878158 -0.584564 0.103951
14.895237 -0.585235 0.312251
14.952472 -0.652839 -0.313508
15.025319 -0.656020 -0.104998
14.992349 -0.720134 0.104789
15.049344 -0.722872 0.315602
14.936221 -0.782774 -0.313299
14.919162 -0.781880 -0.104300
14.945560 -0.848670 0.104509
14.942645 -0.848505 0.313508
14.968739 -0.915527 -0.314136
15.011581 -0.918148 -0.104998
14.937584 -0.979061 0.104509
14.944649 -0.979524 0.313717
14.880391 -1.040538 -0.312461
14.903244 -1.042136 -0.104300
14.898555 -1.107154 0.104300
14.895650 -1.106938 0.312880
14.920580 -1.174275 -0.313508
14.993271 -1.179996 -0.104998
14.958084 -1.242921 0.104789
14.965131 -1.243507 0.314555
14.820127 -1.296593 -0.311623
14.832977 -1.297717 -0.103951
14.906837 -1.369746 0.104509
14.953710 -1.374053 0.314555
14.927669 -1.437371 -0.314136
15.010209 -1.445319 -0.105277
14.934114 -1.503786 0.104789
14.990887 -1.509503 0.315602
14.874784 -1.563403 -0.313299
14.897575 -1.565798 -0.104579
14.880661 -1.629697 0.104509
14.887698 -1.630468 0.313717
14.949977 -1.703335 -0.315183
14.972763 -1.705931 -0.105208
14.994968 -1.774771 0.105417
14.962259 -1.770900 0.315602
14.805541 -1.817892 -0.312461
14.828279 -1.820684 -0.104300
14.929311 -1.899248 0.105068
14.906565 -1.896355 0.314765
14.888236 -1.960073 -0.314555
14.910967 -1.963066 -0.104998
14.912169 -2.029457 0.105068
14.968700 -2.037151 0.316440
14.850763 -2.087139 -0.314136
14.873464 -2.090329 -0.104859
14.854305 -2.153772 0.104789
14.910775 -2.161960 0.315602
14.920977 -2.229955 -0.316021
14.973335 -2.237780 -0.105696
14.923895 -2.297007 0.105417
14.920985 -2.296559 0.316231
14.881199 -2.356950 -0.315602
14.943360 -2.366796 -0.105626
14.903282 -2.427154 0.105417
14.910244 -2.428288 0.316440
14.879786 -2.490022 -0.316021
14.902412 -2.493809 -0.105487
14.911099 -2.562196 0.105626
14.927899 -2.565082 0.317278
14.857490 -2.619776 -0.316021
14.909626 -2.628969 -0.105696
14.927533 -2.699338 0.105906
14.924623 -2.698812 0.317697
14.912705 -2.763907 -0.317697
14.935278 -2.768090 -0.106045
14.864112 -2.822040 0.105626
14.910326 -2.830814 0.317906
14.878204 -2.892030 -0.317487
14.890922 -2.894502 -0.105906
14.887958 -2.961399 0.105976
14.885056 -2.960822 0.317906
14.930778 -3.037701 -0.319162
15.002281 -3.052249 -0.106883
14.890919 -3.097316 0.106185
14.897804 -3.098748 0.318744
14.864583 -3.159564 -0.318325
14.916388 -3.170576 -0.106464
14.873095 -3.229265 0.106255
14.919046 -3.239243 0.319791
14.875488 -3.297816 -0.319162
14.985779 -3.322267 -0.107162
14.883361 -3.367761 0.106534
14.890211 -3.369311 0.319791
14.885109 -3.436498 -0.320000
14.858782 -3.430420 -0.106464
14.843672 -3.495221 0.106464
14.860242 -3.499122 0.319791
14.854554 -3.566263 -0.320000
14.964408 -3.592637 -0.107442
14.900024 -3.646013 0.107093
14.897120 -3.645302 0.321257
14.861670 -3.705431 -0.320838
14.854866 -3.703734 -0.106883
14.857947 -3.773438 0.107023
14.864741 -3.775163 0.321257
14.867486 -3.844993 -0.321676
14.938154 -3.863269 -0.107721
14.863133 -3.913136 0.107302
14.879573 -3.917465 0.322304
14.833366 -3.974589 -0.321676
14.855577 -3.980540 -0.107372
14.838067 -4.045321 0.107372
14.806237 -4.036644 0.321466
14.836655 -4.114568 -0.322513
14.897364 -4.131404 -0.107930
14.869571 -4.193653 0.107860
14.885917 -4.198263 0.323979
14.838626 -4.254908 -0.323351
14.860744 -4.261250 -0.107930
14.870810 -4.334446 0.108140
14.839115 -4.325208 0.323770
14.762586 -4.372877 -0.322513
14.813404 -4.387930 -0.107860
14.870721 -4.475579 0.108419
14.877396 -4.477588 0.325445
14.800351 -4.524921 -0.324189
14.851051 -4.540422 -0.108419
14.840649 -4.608144 0.108489
14.847303 -4.610210 0.325655
14.798441 -4.665930 -0.325026
14.858548 -4.684882 -0.108768
14.866536 -4.758816 0.108977
14.835073 -4.748744 0.326283
14.861753 -4.828876 -0.327330
14.883672 -4.835998 -0.109257
14.824442 -4.888368 0.108977
14.821552 -4.887415 0.326911
14.828529 -4.961556 -0.327539
14.840903 -4.965697 -0.109257
14.856972 -5.043262 0.109536
14.854075 -5.042279 0.328587
14.822480 -5.103789 -0.328377
14.834825 -5.108040 -0.109536
14.812396 -5.172720 0.109536
14.818947 -5.175008 0.328796
14.815074 -5.246293 -0.329215
14.855668 -5.260668 -0.110025
14.804338 -5.315300 0.109815
14.820271 -5.321021 0.329843
14.834493 -5.399313 -0.330681
14.809195 -5.390106 -0.110025
14.804298 -5.461594 0.110164
14.810792 -5.463990 0.330681
14.786810 -5.528562 -0.330681
14.799060 -5.533142 -0.110304
14.821532 -5.615376 0.110653
14.837341 -5.621366 0.332356
14.738002 -5.657389 -0.330681
14.796889 -5.679994 -0.110653
14.818564 -5.762624 0.111002
14.815675 -5.761501 0.332984
14.808999 -5.833420 -0.333403
14.783975 -5.823563 -0.110932
14.795575 -5.902836 0.111211
14.801977 -5.905390 0.333822
14.831688 -5.992391 -0.335079
14.816037 -5.986067 -0.111561
14.780521 -6.046871 0.111491
14.823907 -6.064620 0.335498
14.741883 -6.106288 -0.334241
14.763235 -6.115132 -0.111561
14.810186 -6.210427 0.112119
14.807300 -6.209216 0.336335
14.798471 -6.281579 -0.336754
14.810562 -6.286711 -0.112328
14.782990 -6.351274 0.112328
14.789294 -6.353982 0.337173
14.816441 -6.442372 -0.338430
14.791819 -6.431666 -0.112608
14.772767 -6.500173 0.112678
14.806492 -6.515012 0.338848
14.759657 -6.571423 -0.338430
14.771670 -6.576771 -0.112887
14.742833 -6.641162 0.112887
14.749074 -6.643973 0.338848
14.701749 -6.699973 -0.338430
14.713716 -6.705426 -0.112887
14.766048 -6.807241 0.113515
14.799487 -6.822657 0.341361
14.742393 -6.874491 -0.340733
14.763394 -6.884284 -0.113725
14.769393 -6.965698 0.114004
14.775556 -6.968605 0.342199
14.763057 -7.041617 -0.342618
14.774961 -7.047295 -0.114283
14.780098 -7.129073 0.114562
14.750201 -7.114653 0.343037
14.736990 -7.187710 -0.343456
14.784801 -7.211030 -0.114842
14.717323 -7.257781 0.114562
14.759288 -7.278475 0.344712
14.745284 -7.351727 -0.345131
14.757108 -7.357623 -0.115121
14.760582 -7.439946 0.115400
14.766632 -7.442996 0.346388
14.716200 -7.498278 -0.345969
14.727979 -7.504280 -0.115400
14.730655 -7.586786 0.115679
14.736671 -7.589885 0.347225
14.685678 -7.644880 -0.346806
14.697412 -7.650988 -0.115679
14.734685 -7.752293 0.116238
14.740661 -7.755436 0.348901
14.724336 -7.829068 -0.349320
14.736036 -7.835289 -0.116517
14.745751 -7.923178 0.116866
14.742877 -7.921634 0.350576
14.690599 -7.976345 -0.350157
14.702252 -7.982672 -0.116796
14.746184 -8.090034 0.117425
14.752075 -8.093266 0.352461
14.690389 -8.143015 -0.351833
14.710745 -8.154299 -0.117425
14.709924 -8.237953 0.117704
14.680887 -8.221692 0.352461
14.723188 -8.329979 -0.354346
14.708652 -8.321755 -0.117983
14.698248 -8.400741 0.118193
14.747463 -8.428869 0.355812
14.753837 -8.518131 -0.356859
14.713413 -8.494793 -0.118612
14.728037 -8.589137 0.119030
14.733802 -8.592499 0.357278
14.713399 -8.666854 -0.357697
14.724883 -8.673619 -0.119310
14.695492 -8.742899 0.119380
14.692627 -8.741195 0.358115
14.671486 -8.815518 -0.358534
14.691489 -8.827538 -0.119659
14.678479 -8.907120 0.119868
14.726901 -8.936502 0.360838
14.662194 -8.985004 -0.360210
14.724737 -9.023331 -0.120566
14.702231 -9.098017 0.120706
14.673861 -9.080461 0.361466
14.625621 -9.139103 -0.361257
14.645433 -9.151483 -0.120566
14.689935 -9.268659 0.121264
14.737803 -9.298862 0.365026
14.671793 -9.346963 -0.364398
14.691521 -9.359531 -0.121614
14.684183 -9.445184 0.121893
14.689729 -9.448751 0.365864
14.690286 -9.539983 -0.366911
14.735083 -9.569075 -0.122661
14.701552 -9.638760 0.122731
14.698687 -9.636881 0.368168
14.673172 -9.711961 -0.368587
14.692710 -9.724893 -0.123010
14.675081 -9.805575 0.123219
14.722097 -9.836991 0.370890
14.654170 -9.884362 -0.370262
14.681897 -9.903065 -0.123638
14.663344 -9.983916 0.123848
14.660486 -9.981970 0.371519
14.666229 -10.079820 -0.372775
14.660848 -10.076121 -0.124197
14.641392 -10.157095 0.124406
14.671396 -10.177910 0.374032
14.643227 -10.253298 -0.374450
14.629699 -10.243826 -0.124685
14.642026 -10.347961 0.125174
14.647336 -10.351714 0.375707
14.626448 -10.432943 -0.376335
14.670004 -10.464012 -0.125802
14.656669 -10.551291 0.126082
14.694382 -10.578441 0.379267
14.631907 -10.630703 -0.378848
14.642851 -10.638654 -0.126361
14.660806 -10.749747 0.126919
14.666010 -10.753564 0.380943
14.659134 -10.847188 -0.381990
14.678068 -10.861199 -0.127478
14.662587 -10.949074 0.127757
14.659729 -10.946939 0.383246
14.635778 -11.028850 -0.383875
14.646618 -11.037019 -0.128036
14.654039 -11.143190 0.128525
14.667099 -11.153122 0.385969
14.610364 -11.210926 -0.385759
14.652879 -11.243549 -0.128944
14.619493 -11.319622 0.129083
14.632454 -11.329657 0.387644
14.590758 -11.399549 -0.387854
14.609364 -11.414085 -0.129433
14.645803 -11.545821 0.130201
14.650800 -11.549760 0.390786
14.623738 -11.632247 -0.391414
14.665719 -11.665640 -0.130829
14.606880 -11.723261 0.130759
14.643019 -11.752265 0.393299
14.614909 -11.834920 -0.393927
14.602217 -11.824642 -0.131178
14.627920 -11.951512 0.131876
14.632811 -11.955508 0.395812
14.580506 -12.019241 -0.395812
14.621929 -12.053389 -0.132295
14.584574 -12.129862 0.132435
14.627851 -12.165855 0.398534
14.589946 -12.242418 -0.398953
14.577471 -12.231950 -0.132853
14.630810 -12.385895 0.133831
14.635589 -12.389940 0.401676
14.604195 -12.473161 -0.402304
14.614647 -12.482087 -0.134180
14.613072 -12.591429 0.134669
14.617798 -12.595500 0.404189
14.555155 -12.652603 -0.403979
14.550447 -12.648510 -0.134599
14.562782 -12.771217 0.135227
14.567460 -12.775319 0.405864
14.563994 -12.885134 -0.407330
14.581813 -12.900898 -0.135925
14.570146 -13.004352 0.136344
14.604600 -13.035104 0.410053
14.607023 -13.152223 -0.411728
14.617303 -13.161478 -0.137321
14.604148 -13.265473 0.137740
14.608701 -13.269609 0.413403
14.550663 -13.333226 -0.413403
14.568245 -13.349338 -0.137950
14.575947 -13.473866 0.138578
14.609813 -13.505173 0.416754
14.550747 -13.568790 -0.416754
14.560898 -13.578257 -0.138997
14.574347 -13.710177 0.139695
14.578789 -13.714355 0.419267
14.576827 -13.832892 -0.420943
14.586923 -13.842473 -0.140393
14.569726 -13.947478 0.140812
14.574108 -13.951673 0.422618
14.541861 -14.042912 -0.423456
14.551889 -14.052596 -0.141231
14.533412 -14.157824 0.141650
14.566386 -14.189945 0.425969
14.532856 -14.281398 -0.426807
14.571352 -14.319227 -0.142627
14.579750 -14.453070 0.143325
14.576908 -14.450253 0.429948
14.520788 -14.520788 -0.430157
14.537761 -14.537761 -0.143535
14.530510 -14.657869 0.144093
14.562870 -14.690513 0.433299
14.505640 -14.761046 -0.433508
14.543512 -14.799586 -0.144861
14.513688 -14.898717 0.145210
14.545740 -14.931620 0.436649
14.480451 -14.994946 -0.436649
14.531898 -15.048222 -0.146048
14.521420 -15.169273 0.146606
14.525503 -15.173538 0.440000
14.514215 -15.294790 -0.441676
14.530811 -15.312280 -0.147374
14.525525 -15.441089 0.148003
14.502143 -15.416232 0.443351
14.516561 -15.567105 -0.445864
14.539850 -15.592081 -0.148840
14.532770 -15.721462 0.149469
14.529937 -15.718397 0.448377
14.488232 -15.811131 -0.449215
14.504568 -15.828959 -0.149888
14.522769 -15.988322 0.150795
14.553549 -16.022207 0.453403
14.456741 -16.055838 -0.452566
14.479633 -16.081263 -0.151074
14.489232 -16.233812 0.151912
14.466435 -16.208271 0.455079
14.475073 -16.361094 -0.457592
14.464643 -16.349304 -0.152401
14.505255 -16.540073 0.153588
14.482651 -16.514297 0.460105
14.403896 -16.569788 -0.459896
14.426387 -16.595659 -0.153518
14.464804 -16.787231 0.154705
14.468510 -16.791533 0.464293
14.440557 -16.907721 -0.465759
14.430384 -16.895809 -0.155124
14.446980 -17.065462 0.156101
14.476462 -17.100288 0.469320
14.414564 -17.178608 -0.469738
14.436658 -17.204939 -0.156799
14.450970 -17.375402 0.157776
14.454545 -17.379702 0.473508
14.419003 -17.647978 0.159103
14.422518 -17.652281 0.477487
14.414666 -17.960302 0.160778
14.449403 -18.003584 0.483560
14.405965 -18.273880 0.162454
14.440294 -18.317427 0.488587
14.417366 -18.620285 0.164409
14.420675 -18.624561 0.493403
14.399593 -18.936426 0.166084
14.390735 -18.924776 0.498011
14.395339 -19.277697 0.167969
14.398515 -19.281950 0.504084
14.374387 -19.604191 0.169714
14.418880 -19.664869 0.510786
0.157744 -0.219120 0.001885
14.378034 -19.972349 0.171809
0.134348 -0.186621 0.004817
14.386913 -19.984684 0.515812
0.176695 -0.254704 0.002164
0.136769 -0.197152 0.005026
0.146297 -0.214866 0.005445
0.155556 -0.232806 0.001955
0.138862 -0.207822 0.005236
0.148007 -0.225748 0.005654
0.129831 -0.201844 0.001676
0.118988 -0.184988 0.004607
0.128064 -0.202970 0.001676
0.117369 -0.186019 0.004607
0.147336 -0.238093 0.001955
0.136786 -0.221043 0.005445
0.150441 -0.247918 0.002025
0.140038 -0.230776 0.005654
0.138046 -0.232034 0.001885
0.127795 -0.214804 0.005236
0.115843 -0.198639 0.004817