# This PCD file was generated using the MATLAB® pcwrite function
# from Computer Vision System Toolbox®.
# .PCD v.7 - Point Cloud Data file format
VERSION .7
FIELDS x y z
SIZE 4 4 4
TYPE F F F
COUNT 1 1 1
WIDTH 904
HEIGHT 1
VIEWPOINT 0 0 0 1 0 0 0
POINTS 904
DATA ascii
29.968451 32.704826 -0.309689
29.974073 32.143257 -0.920629
29.761683 31.915497 -0.304662
30.012560 31.626638 -0.913299
29.956461 31.567524 -0.303824
30.051275 31.119007 -0.906179
30.015457 31.081915 -0.301660
30.013359 30.541817 -0.896964
29.921087 30.447920 -0.298030
29.402121 29.402121 -0.870995
29.789682 29.789682 -0.294120
29.514961 29.004272 -0.866807
29.456526 28.946848 -0.288326
29.745369 28.724770 -0.866179
29.420280 28.410835 -0.285534
30.110939 28.574213 -0.869529
29.775892 28.256268 -0.286581
29.978926 27.955801 -0.858639
29.970144 27.947611 -0.286092
30.015348 27.504000 -0.852775
30.072809 27.556652 -0.284766
29.927309 26.946671 -0.843561
30.074339 27.079056 -0.282532
29.981609 26.525488 -0.838534
30.279541 26.789076 -0.282252
30.151581 26.210369 -0.836859
30.232929 26.281084 -0.279669
30.196701 25.790419 -0.831833
30.248213 25.834414 -0.277715
30.336365 25.455233 -0.829529
30.296320 25.421631 -0.276109
30.372198 25.036907 -0.824503
30.362688 25.029068 -0.274713
30.403051 24.619905 -0.819477
30.486692 24.687637 -0.273875
30.241171 24.054914 -0.809425
30.239243 24.053379 -0.269756
30.126923 23.537731 -0.800838
30.258875 23.640825 -0.268080
30.013906 23.030481 -0.792461
29.853159 22.907135 -0.262705
30.030094 22.629299 -0.787644
29.956087 22.573532 -0.261867
30.162132 22.318804 -0.785969
30.087629 22.263674 -0.261309
29.927063 21.743284 -0.774870
30.102789 21.870956 -0.259773
29.399403 20.970390 -0.756440
29.494686 21.038355 -0.252931
29.548523 20.690100 -0.755603
29.660772 20.768696 -0.252791
30.255278 20.793875 -0.769006
30.228212 20.775274 -0.256073
30.401230 20.699461 0.256771
30.395304 20.695425 0.770262
30.485315 20.562605 -0.770262
30.474678 20.555429 -0.256631
30.489248 20.372265 0.256003
30.383549 20.301638 0.765445
30.463505 20.163355 -0.765236
30.452768 20.156248 -0.254956
30.465162 19.973835 0.254327
30.375612 19.915125 0.760838
30.537683 19.831404 -0.762723
30.459772 19.780807 -0.253559
30.411230 19.561161 0.252442
30.380075 19.541121 0.756650
30.498777 19.429865 -0.757487
30.496292 19.428280 -0.252442
30.513117 19.252342 0.251884
30.481802 19.232584 0.754974
30.573908 19.104698 -0.755184
30.588350 19.113722 -0.251814
30.611935 18.943239 0.251325
30.546455 18.902719 0.752461
30.466677 18.670004 -0.748482
30.557878 18.725893 -0.250208
30.682039 18.618319 0.250557
30.676058 18.614689 0.751623
30.628441 18.403423 -0.748482
30.617270 18.396711 -0.249371
30.662874 18.242493 0.249091
30.674080 18.249161 0.747644
30.718958 18.094849 -0.746807
30.699099 18.083151 -0.248742
30.656775 17.878502 0.247765
30.693981 17.900200 0.744294
30.737160 17.746107 -0.743456
30.725832 17.739567 -0.247695
30.672716 17.530901 0.246648
30.710136 17.552290 0.740943
30.673309 17.354124 -0.738220
30.661884 17.347660 -0.245950
30.684937 17.184391 0.245531
30.687677 17.185925 0.736754
30.718651 17.027626 -0.735707
30.742134 17.040644 -0.245391
30.693457 16.839006 0.244414
30.696238 16.840532 0.733404
30.769426 16.706434 -0.733404
30.722698 16.681065 -0.244065
30.733528 16.513721 0.243576
30.736343 16.515234 0.730890
30.658045 16.301172 -0.727330
30.690510 16.318434 -0.242669
30.628675 16.114527 0.241621
30.560768 16.078798 0.723351
30.666107 15.963765 -0.724189
30.689827 15.976112 -0.241552
30.519215 15.718429 0.239667
30.593260 15.756564 0.720838
30.626085 15.604771 -0.720000
30.614239 15.598734 -0.239876
30.583784 15.415496 0.239108
30.515326 15.380991 0.715812
30.680569 15.296767 -0.718116
30.632856 15.272979 -0.238969
30.645395 15.112637 0.238550
29.052303 14.327011 0.678534
30.603554 15.092002 0.714765
30.741001 14.993388 -0.716440
30.729019 14.987544 -0.238689
28.857668 13.919287 0.223680
30.731075 14.822911 0.238201
28.942093 13.960009 0.673089
30.735313 14.659992 -0.713299
30.714230 14.649936 -0.237572
29.023258 13.688257 0.224029
29.035685 13.694118 0.672461
30.708035 14.319391 -0.709739
29.019268 13.531907 -0.223540
30.677771 14.305280 -0.236316
28.923655 13.333987 0.222353
29.272114 13.494630 0.675184
29.176058 13.296295 -0.671623
30.622580 13.955513 -0.704922
28.936064 13.186924 -0.222004
29.513018 13.294645 0.225983
29.634884 13.349542 0.680838
29.016973 12.919189 -0.665341
29.004362 12.913573 -0.221655
29.774357 13.101030 0.227100
29.457415 12.961573 0.674137
29.055260 12.633587 -0.663665
29.638659 12.887256 -0.225634
29.850800 12.824915 0.226821
29.707191 12.763217 0.677278
29.569334 12.551437 -0.672880
30.072161 12.764874 -0.228078
29.961580 12.563933 0.226821
29.854319 12.518954 0.678116
30.037973 12.442136 -0.681047
30.034592 12.440735 -0.226961
29.996037 12.271703 0.226263
29.888401 12.227668 0.676440
30.275183 12.231968 -0.683979
30.142012 12.178164 -0.226961
30.027681 11.979830 0.225704
29.919680 11.936742 0.674765
30.157522 11.879364 -0.678953
29.809853 11.742414 -0.223680
30.056520 11.688342 0.225146
29.948164 11.646204 0.673089
30.185369 11.587078 -0.677278
30.172585 11.582170 -0.225634
30.045162 11.383094 0.224308
29.899065 11.327743 0.669739
30.163595 11.277706 -0.674555
30.150743 11.272901 -0.224727
29.927574 11.040865 0.222702
30.071817 11.094079 0.671414
30.072964 10.945663 -0.670367
30.013050 10.923857 -0.222981
30.051018 10.789418 0.222912
30.045158 10.787314 0.668691
30.016546 10.629416 -0.667016
29.975269 10.614799 -0.222004
30.059061 10.497094 0.222283
30.024885 10.485159 0.666178
30.004177 10.331267 -0.664712
30.142397 10.378860 -0.222563
30.073769 10.208669 0.221725
30.039503 10.197038 0.664503
30.169041 10.094419 -0.666388
30.155958 10.090042 -0.222004
30.009762 9.895735 0.220608
30.060881 9.912592 0.663037
30.094337 9.778243 -0.662828
30.081184 9.773970 -0.220817
30.018784 9.609089 0.220049
30.022453 9.610263 0.660315
30.064100 9.479175 -0.660315
30.089037 9.487037 -0.220259
30.025095 9.323040 0.219491
30.028790 9.324187 0.658639
30.069189 9.193073 -0.658639
30.065489 9.191942 -0.219491
30.028706 9.037615 0.218932
29.994131 9.027209 0.656126
30.071579 8.907607 -0.656964
30.058266 8.903664 -0.218863
30.029627 8.752838 0.218374
29.994978 8.742739 0.654451
30.119335 8.636580 -0.656335
30.096371 8.629995 -0.218583
30.066368 8.479593 0.218095
30.070129 8.480654 0.654451
30.039408 8.330666 -0.652985
30.064537 8.337634 -0.217815
30.023449 8.185332 0.217257
30.036888 8.188995 0.652147
30.033705 8.047507 -0.651309
30.049221 8.051664 -0.217187
30.064726 7.915382 0.217047
30.020191 7.903656 0.650262
30.054392 7.772594 -0.650262
30.050570 7.771606 -0.216698
30.016350 7.623182 0.216210
30.049259 7.631539 0.649424
30.091972 7.502771 -0.649634
30.078434 7.499396 -0.216419
30.042877 7.351446 0.215930
30.046732 7.352389 0.647958
30.078527 7.221215 -0.647958
30.064945 7.217955 -0.215861
30.018284 7.068368 0.215302
29.983238 7.060115 0.645236
30.052725 6.938218 -0.646074
30.078072 6.944070 -0.215512
30.039812 6.797315 0.215023
30.004702 6.789371 0.644398
30.073084 6.667042 -0.645236
30.098473 6.672671 -0.215232
30.068668 6.528548 0.214813
30.062807 6.527275 0.644398
30.100780 6.398118 -0.644608
30.116430 6.401445 -0.214953
30.046173 6.249613 0.214255
30.079470 6.256538 0.643561
30.067293 6.117260 -0.642723
30.102552 6.124434 -0.214464
30.050529 5.977422 0.213906
30.054476 5.978207 0.641885
30.129345 5.856552 -0.642932
30.115587 5.853878 -0.214185
30.062250 5.707497 0.213627
30.076033 5.710114 0.641257
30.090832 5.577006 -0.641047
30.116364 5.581738 -0.213836
30.120752 5.446719 0.213696
30.124718 5.447436 0.641257
30.098970 5.307261 -0.640210
30.094992 5.306559 -0.213347
30.088293 5.170115 0.213138
30.082428 5.169106 0.639372
30.114555 5.039448 -0.639582
30.140154 5.043732 -0.213347
30.122395 4.905744 0.213068
30.175730 4.914430 0.640419
30.157387 4.776461 -0.639582
30.143513 4.774263 -0.213068
30.094875 4.632044 0.212579
30.128532 4.637225 0.638534
30.148479 4.505721 -0.638534
30.184029 4.511033 -0.213068
30.134150 4.369244 0.212579
30.138170 4.369827 0.637906
30.156950 4.238283 -0.637906
30.143026 4.236326 -0.212510
30.121590 4.099369 0.212230
30.135530 4.101265 0.637068
30.192787 3.974956 -0.637906
30.178846 3.973120 -0.212510
30.126455 3.832569 0.212021
30.130501 3.833084 0.636231
30.146938 3.701579 -0.636231
30.162743 3.703519 -0.212160
30.158754 3.569524 0.212021
30.123089 3.565303 0.635393
30.168159 3.437227 -0.636021
30.193913 3.440162 -0.212160
30.188755 3.306206 0.212021
30.153055 3.302297 0.635393
30.206949 3.174878 -0.636231
30.232729 3.177588 -0.212230
30.216457 3.042637 0.212021
30.180725 3.039039 0.635393
30.183746 2.906364 -0.635184
30.219492 2.909806 -0.211951
30.152239 2.770602 0.211393
30.206095 2.775550 0.635393
30.207958 2.642854 -0.635184
30.233772 2.645112 -0.211881
30.225096 2.511512 0.211742
30.229166 2.511850 0.635393
30.199970 2.376789 -0.634555
30.215828 2.378037 -0.211602
30.195999 2.243950 0.211393
30.249935 2.247958 0.635393
30.219563 2.113158 -0.634555
30.235430 2.114267 -0.211602
30.264324 1.983629 0.211742
30.268400 1.983896 0.635393
30.236851 1.849365 -0.634555
30.252729 1.850336 -0.211602
30.240547 1.717183 0.211462
30.244633 1.717415 0.634555
30.251839 1.585432 -0.634555
30.237766 1.584694 -0.211393
30.244392 1.452742 0.211393
30.178577 1.449581 0.632880
30.264523 1.321378 -0.634555
30.280415 1.322071 -0.211602
30.185974 1.186010 0.210904
30.150118 1.184601 0.632042
30.304876 1.058270 -0.635184
30.290798 1.057778 -0.211602
30.155193 0.921324 0.210625
30.159307 0.921450 0.632042
30.312958 0.793773 -0.635184
30.178919 0.790263 -0.210764
30.162085 0.658139 0.210625
30.166201 0.658229 0.632042
30.148792 0.526249 -0.631623
30.144674 0.526177 -0.210485
30.166679 0.394903 0.210625
30.130808 0.394434 0.631205
30.202225 0.263571 -0.632671
30.198114 0.263535 -0.210834
30.128979 0.131463 0.210345
22.654814 0.098851 0.474555
30.163095 0.131612 0.631833
30.173382 0.000000 -0.632042
30.159266 0.000000 -0.210555
30.088980 -0.131289 0.210066
22.754791 -0.099287 0.476649
30.093113 -0.131307 0.630367
30.212221 -0.263658 -0.632880
30.188114 -0.263448 -0.210764
30.166679 -0.394903 0.210625
30.130808 -0.394434 0.631205
30.168785 -0.526598 -0.632042
30.184666 -0.526875 -0.210764
30.162085 -0.658139 0.210625
30.206182 -0.659101 0.632880
30.163042 -0.789847 -0.632042
30.188915 -0.790525 -0.210834
29.955292 -0.915217 0.209228
30.159307 -0.921450 0.632042
30.075066 -1.050244 -0.630367
30.100918 -1.051147 -0.210276
30.146006 -1.184440 0.210625
30.589684 -1.201872 0.641257
30.184616 -1.317889 -0.632880
30.200491 -1.318582 -0.211043
30.504086 -1.465216 0.213208
30.617975 -1.470687 0.642095
30.062141 -1.575490 -0.630576
30.147890 -1.579984 -0.210764
29.232195 -1.659924 0.204411
30.524122 -1.733285 0.640419
30.196936 -1.846924 -0.633718
30.172880 -1.845452 -0.211043
30.533739 -2.001287 0.213627
30.547739 -2.002205 0.641257
30.618500 -2.141054 -0.642932
30.604519 -2.140076 -0.214185
30.564974 -2.271370 0.213976
30.568985 -2.271668 0.642095
30.668419 -2.413657 -0.644398
30.614586 -2.409420 -0.214395
30.583851 -2.541322 0.214255
30.547997 -2.538343 0.642095
30.576469 -2.675094 -0.642932
30.602356 -2.677359 -0.214464
30.600340 -2.811776 0.214534
30.604330 -2.812143 0.643770
30.631575 -2.949485 -0.644608
30.647503 -2.951019 -0.214953
30.574638 -3.078704 0.214534
30.538834 -3.075099 0.642932
30.604670 -3.216681 -0.644608
30.620583 -3.218353 -0.214953
30.586369 -3.349752 0.214813
30.590343 -3.350188 0.644608
30.605236 -3.487026 -0.645236
30.591331 -3.485442 -0.214953
30.595694 -3.621239 0.215093
30.599657 -3.621708 0.645445
30.623257 -3.760063 -0.646283
30.609377 -3.758359 -0.215302
30.602608 -3.893143 0.215372
30.606558 -3.893646 0.646283
30.628927 -4.032375 -0.647121
30.644814 -4.034466 -0.215791
30.607101 -4.165444 0.215651
30.650667 -4.171373 0.647958
30.632174 -4.305071 -0.647958
30.648050 -4.307302 -0.216070
30.648756 -4.443858 0.216210
30.613098 -4.438688 0.647958
30.544001 -4.564831 -0.646911
30.559845 -4.567200 -0.215721
30.658226 -4.718752 0.216559
30.652250 -4.717833 0.649634
30.581999 -4.843713 -0.648587
30.568209 -4.841529 -0.216070
30.645491 -4.990935 0.216768
30.649384 -4.991569 0.650472
30.647034 -5.128554 -0.650890
30.633284 -5.126254 -0.216838
30.600769 -5.258174 0.216768
30.644072 -5.265615 0.651309
30.689726 -5.411427 -0.652775
30.676014 -5.409009 -0.217466
30.671801 -5.546365 0.217606
30.675659 -5.547063 0.652985
30.680655 -5.686323 -0.653613
30.666973 -5.683787 -0.217746
30.661530 -5.821273 0.217885
30.665375 -5.822003 0.653822
30.678936 -5.963381 -0.654660
30.694735 -5.966452 -0.218304
30.609562 -6.088621 0.217885
30.652624 -6.097186 0.654660
30.655119 -6.236855 -0.655288
30.690495 -6.244051 -0.218653
30.672747 -6.379941 0.218723
30.676556 -6.380733 0.656335
30.726658 -6.531153 -0.658011
30.713087 -6.528268 -0.219212
30.654993 -6.655851 0.219002
30.697866 -6.665160 0.658011
30.668493 -6.799041 -0.658011
30.684237 -6.802531 -0.219421
30.634756 -6.931938 0.219281
30.677540 -6.941618 0.658849
30.715151 -7.091151 -0.660315
30.701653 -7.088035 -0.219980
30.689899 -7.226512 0.220119
30.693649 -7.227395 0.660524
30.661821 -7.361252 -0.660524
30.648354 -7.358018 -0.220049
30.703375 -7.513068 0.220678
30.707100 -7.513979 0.662199
30.712826 -7.657568 -0.663037
30.699409 -7.654222 -0.220887
30.675411 -7.790562 0.220957
30.679121 -7.791504 0.663037
30.722267 -7.945318 -0.664712
30.737938 -7.949371 -0.221655
30.722301 -8.088507 0.221795
30.725979 -8.089476 0.665550
30.729019 -8.233816 -0.666388
30.715693 -8.230245 -0.222004
30.689137 -8.366819 0.222074
30.654217 -8.357299 0.665550
30.694532 -8.512347 -0.667225
30.719790 -8.519352 -0.222563
30.691950 -8.656025 0.222632
30.695589 -8.657051 0.668063
30.734407 -8.812949 -0.669739
30.750011 -8.817424 -0.223331
30.682446 -8.943117 0.223121
30.686062 -8.944172 0.669529
30.771364 -9.114893 -0.672252
30.758188 -9.110991 -0.223959
30.727716 -9.247993 0.224029
30.731298 -9.249071 0.672252
30.728893 -9.394766 -0.673089
30.715759 -9.390750 -0.224238
30.684044 -9.527649 0.224308
30.725801 -9.540615 0.673927
30.722021 -9.686616 -0.674765
30.747086 -9.694519 -0.225076
30.752111 -9.843828 0.225425
30.708029 -9.829718 0.675393
30.750422 -9.991418 -0.677278
30.775438 -9.999546 -0.225914
30.693527 -10.121207 0.225634
30.706533 -10.125496 0.677278
30.775835 -10.297450 -0.679791
30.762869 -10.293112 -0.226472
30.755541 -10.440100 0.226751
28.127125 -9.547872 0.622199
30.777946 -10.447705 0.680838
30.798239 -10.604684 -0.682304
30.775879 -10.596985 -0.227240
27.944353 -9.758605 0.206645
30.776552 -10.747653 0.227589
30.751675 -10.738965 0.682304
30.695101 -10.869705 -0.682095
28.269129 -10.010624 -0.209368
30.710512 -10.875162 -0.227449
30.728647 -11.032712 0.227938
27.965616 -10.040682 0.622409
30.760296 -11.044075 0.684608
28.419468 -10.343841 -0.633508
30.777578 -11.202123 -0.686074
27.833017 -10.130390 -0.206785
30.811769 -11.214567 -0.228916
28.032475 -10.341725 0.208600
30.753162 -11.345441 0.228846
27.933210 -10.305105 0.623665
27.747511 -10.374369 -0.620524
30.772297 -11.505291 -0.688168
28.146313 -10.523476 -0.209787
30.750198 -11.497028 -0.229195
27.941158 -10.585958 0.208600
27.832870 -10.544931 0.623456
28.197279 -10.823921 -0.632671
28.044073 -10.765111 -0.209717
27.847717 -10.829385 0.208600
27.739790 -10.787414 0.623456
28.101749 -11.069573 -0.632671
27.986279 -11.024088 -0.209996
27.789305 -11.086808 0.208879
27.681740 -11.043895 0.624294
28.004082 -11.314384 -0.632671
27.889011 -11.267892 -0.209996
27.663731 -11.317532 0.208670
27.584311 -11.285040 0.624294
27.507099 -11.393813 -0.623665
27.706472 -11.476397 -0.209368
27.591581 -11.570110 0.208879
27.484781 -11.525326 0.624294
27.535465 -11.688111 -0.626597
27.430376 -11.643504 -0.208042
27.489563 -11.810449 0.208879
27.419903 -11.780519 0.625131
25.800411 -11.218338 -0.589320
27.441587 -11.931942 -0.626807
27.584496 -11.994080 -0.209996
27.385452 -12.049888 0.208879
27.316055 -12.019352 0.625131
27.162884 -12.093695 -0.622828
25.916653 -11.538837 -0.198058
27.396561 -12.197735 -0.209368
25.847824 -11.643596 0.197919
27.315725 -12.304837 0.209159
27.246590 -12.273694 0.625969
25.400547 -11.575696 -0.584712
27.975172 -12.749021 -0.643979
26.351837 -12.009224 -0.202177
26.426323 -12.182701 0.203155
27.138447 -12.510995 0.625969
25.969084 -12.109583 -0.600210
27.844730 -12.984211 -0.643561
30.825829 -14.374320 -0.712461
25.856331 -12.057005 -0.199175
27.224823 -12.695143 -0.209717
27.105860 -12.783954 0.209228
27.073448 -12.768667 0.627016
25.699991 -12.258267 -0.596440
30.852623 -14.715946 -0.716021
25.759157 -12.286488 -0.199245
27.717718 -13.220674 -0.214395
25.786362 -12.437864 0.199873
26.975254 -13.011318 0.209089
26.997011 -13.021812 0.627854
25.241589 -12.311145 -0.588273
30.794916 -15.019685 -0.717697
26.468840 -12.909716 -0.205598
27.933838 -13.624243 -0.216978
30.782946 -15.013845 -0.239108
27.506416 -13.564664 0.214115
26.442976 -13.040233 0.617592
30.868464 -15.390449 -0.722513
26.059853 -12.992964 -0.203294
30.838686 -15.375602 -0.240574
25.663589 -12.935513 0.200641
27.842405 -14.033728 0.217676
27.042400 -13.630491 0.634346
26.465998 -13.485100 -0.622199
30.866606 -15.727321 -0.725655
25.945478 -13.219881 -0.203294
30.845894 -15.716768 -0.241691
26.083128 -13.433693 0.204830
27.037970 -13.925469 0.637068
26.515808 -13.803256 -0.626178
30.870075 -16.069944 -0.729006
26.042004 -13.556609 -0.204970
30.876095 -16.073078 -0.243018
25.938356 -13.646829 0.204621
27.009165 -14.210209 0.213068
30.849916 -16.230927 0.243367
27.048140 -14.230714 0.640210
25.423313 -13.517816 -0.603142
26.765100 -14.231256 -0.634974
30.861078 -16.409126 -0.732147
25.613686 -13.619039 -0.202526
30.902412 -16.431105 -0.244344
26.223478 -14.090384 0.207832
30.848042 -16.575251 0.244484
27.768394 -14.920496 0.660315
25.102299 -13.629436 -0.598325
28.757376 -15.613981 -0.685445
30.883646 -16.768452 -0.736126
30.889669 -16.771721 -0.245391
26.432667 -14.501458 0.210485
27.361975 -15.011293 0.217885
30.824961 -16.911154 0.245461
27.435530 -15.051646 0.655498
25.629482 -14.206654 -0.613822
26.276558 -14.565334 -0.629320
27.089775 -15.016108 -0.648796
27.514866 -15.251739 -0.219630
30.890816 -17.123058 -0.246578
27.299734 -15.288586 0.218444
30.859432 -17.282112 0.246927
27.242075 -15.256294 0.654032
24.703979 -13.976839 -0.594555
27.253561 -15.419324 -0.655917
28.315163 -16.019949 -0.681466
27.180546 -15.378013 -0.218025
28.451235 -16.096933 -0.228217
30.888170 -17.475687 -0.247765
27.165279 -15.526236 0.218444
27.038462 -15.453754 0.652356
25.239103 -14.571803 -0.610472
27.083334 -15.636570 -0.655079
30.918985 -17.851084 -0.747854
25.668367 -14.819639 -0.206925
27.140575 -15.669619 -0.218793
30.916353 -17.849566 -0.249231
27.192879 -15.858418 0.219770
30.907282 -18.024593 0.249789
27.144396 -15.830144 0.658220
27.548857 -16.227516 -0.669739
30.874016 -18.186186 -0.750576
25.589762 -15.073522 -0.207343
27.063112 -15.941392 -0.219281
30.923117 -18.215109 -0.250557
26.993298 -16.059324 0.219281
30.894907 -18.380539 0.250976
27.091141 -16.117535 0.660315
30.863108 -18.361620 0.752252
25.255180 -15.174843 -0.617173
30.911243 -18.573349 -0.755393
27.222971 -16.357210 -0.221725
30.960129 -18.602722 -0.252163
25.544144 -15.500567 0.208600
27.108595 -16.449900 0.221376
30.955605 -18.784323 0.252791
26.992195 -16.379267 0.661362
25.224089 -15.457342 -0.619686
26.852274 -16.455095 -0.659686
25.740580 -15.773848 -0.210764
27.138876 -16.630724 -0.222214
30.933031 -18.955786 -0.253280
25.467428 -15.759723 0.209089
27.295641 -16.891056 0.224098
30.918053 -19.132671 0.253839
25.462463 -15.756651 0.627225
26.992762 -16.703629 0.664922
30.946033 -19.149986 0.762304
25.105196 -15.687469 -0.620105
25.686750 -16.050863 -0.211462
27.128397 -16.951704 -0.223331
30.919081 -19.320385 -0.254537
30.893684 -19.492464 0.255025
26.862881 -16.949215 0.665341
30.921484 -19.510002 0.765864
25.692501 -16.367929 -0.638116
26.898287 -17.136099 -0.668063
30.920382 -19.698456 -0.767959
25.284260 -16.107849 -0.209298
27.046904 -17.230778 -0.223889
30.943277 -19.713041 -0.256142
26.601416 -17.110605 0.220817
30.840149 -19.837051 0.256003
25.410625 -16.344664 0.632880
26.520554 -17.058592 0.660524
25.682846 -16.678635 -0.641466
26.974115 -17.517195 -0.673718
30.982080 -20.119999 -0.773822
26.811646 -17.411686 -0.223191
30.962963 -20.107584 -0.257748
25.087973 -16.448397 0.209438
30.933472 -20.280872 0.258237
25.710159 -16.856319 0.643979
24.977739 -16.532406 -0.627435
26.928604 -17.823654 -0.676440
30.947054 -20.483408 -0.777383
25.091013 -16.607380 -0.210066
30.944748 -20.481882 -0.259075
24.943481 -16.666700 0.209438
26.731096 -17.861147 0.224448
30.938231 -20.672264 0.259773
23.666748 -15.813616 0.596231
25.088249 -16.763432 0.632042
25.064598 -16.906284 -0.633299
31.015781 -20.920410 -0.783665
26.644619 -17.972021 -0.224378
31.021830 -20.924488 -0.261239
24.929338 -16.973783 0.210555
26.995764 -18.380760 0.228008
23.734451 -16.160213 0.601466
24.874895 -16.936712 0.630367
30.907677 -21.044289 0.783247
25.196251 -17.316904 -0.640419
31.029785 -21.326181 -0.788692
23.701292 -16.289446 -0.200781
31.027596 -21.324675 -0.262844
23.695721 -16.438307 0.201340
23.674671 -16.423704 0.603561
30.969296 -21.484165 0.789529
25.142452 -17.604935 -0.642932
23.591003 -16.518599 -0.201060
23.657530 -16.719488 0.202247
23.497789 -16.606596 0.602723
24.003002 -17.121174 -0.617592
26.322721 -18.775814 -0.677278
23.568069 -16.810942 -0.202107
25.570745 -18.239435 -0.219281
23.478264 -16.901932 0.201968
23.522369 -16.933683 0.607121
30.987213 -22.307602 0.799791
23.666645 -17.194824 -0.612775
23.638901 -17.174667 -0.203992
25.968813 -18.867447 -0.224098
23.491159 -17.224430 0.203364
23.784899 -17.439810 0.617801
23.435326 -17.341228 -0.610681
23.375587 -17.297026 -0.203015
23.139647 -17.279194 0.201619
26.112225 -19.498924 0.227519
23.784008 -17.760361 0.621780
23.426826 -17.653379 -0.614451
23.455353 -17.674877 -0.205040
30.994289 -23.355871 -0.270943
22.964098 -17.462305 0.201409
23.277952 -17.700966 0.612566
24.797983 -18.856825 0.652566
31.029312 -23.595236 0.816545
23.208427 -17.808453 -0.612775
23.308153 -17.884975 -0.205109
26.314890 -20.192125 -0.231568
30.987627 -23.777641 -0.272688
22.842464 -17.686525 0.201689
22.656193 -17.542299 0.600210
22.949718 -17.930286 -0.610053
21.638248 -16.905653 -0.191705
25.270889 -19.743782 -0.223889
30.999588 -24.219532 -0.274643
22.710812 -17.903761 0.201898
24.595528 -19.389549 0.218653
22.918373 -18.067389 0.611309
21.837803 -17.370573 -0.584503
25.100563 -19.965889 -0.671833
31.054905 -24.702187 -0.831205
24.792421 -19.720783 -0.221166
31.029657 -24.682104 -0.276807
22.553709 -18.101265 0.201898
25.197454 -20.223095 0.225565
22.471342 -18.035158 0.603561
21.848551 -17.692608 -0.588901
22.047094 -17.853384 -0.198058
24.557215 -19.886040 -0.220608
31.015139 -25.115564 -0.278622
25.298792 -20.669979 0.228078
31.083363 -25.396173 0.280228
22.529884 -18.407686 0.609424
21.917048 -18.067019 -0.594974
31.051079 -25.596533 -0.842932
21.774715 -17.949690 -0.197011
25.154348 -20.735645 -0.227589
22.003717 -18.300299 0.199804
22.353018 -18.590809 0.609006
25.489204 -21.199146 0.694451
21.819820 -18.309002 -0.596650
21.647888 -18.164736 -0.197290
25.738466 -21.597137 -0.234570
21.820284 -18.472235 0.199594
31.100965 -26.328911 0.284486
22.174671 -18.772245 0.608587
26.028151 -22.034456 0.714346
21.438745 -18.310419 -0.590576
21.503757 -18.365944 -0.197430
24.545307 -20.963673 -0.225355
21.627953 -18.635838 0.199315
22.244804 -19.167349 0.615079
22.100595 -19.211754 -0.613403
31.132488 -27.063059 -0.864084
21.886044 -19.025248 -0.202457
21.299103 -18.678812 0.197779
21.527969 -18.879522 0.599791
21.752392 -19.244890 -0.608377
23.654322 -20.927576 -0.661571
21.202419 -18.758316 -0.197639
21.060686 -18.797380 0.197081
22.851181 -20.395458 0.213836
23.910557 -21.340988 0.223749
21.287807 -19.000095 0.597697
21.524183 -19.380463 -0.606702
21.283150 -19.163433 -0.199943
21.184526 -19.242668 0.199804
21.269203 -19.319584 0.601885
20.543413 -18.824570 -0.583665
24.907137 -22.823187 -0.707644
27.147968 -24.876530 -0.771309
21.719662 -19.902403 -0.205668
21.125944 -19.528622 0.200851
22.068893 -20.400276 0.629529
20.268679 -18.900848 -0.580524
21.577515 -20.121357 -0.618011
20.652925 -19.259165 -0.197151
21.275198 -20.013708 0.203923
23.535788 -22.140257 0.676859
21.379347 -20.288242 -0.617383
23.380941 -22.187685 -0.675184
31.140745 -29.551462 -0.899267
21.049850 -19.975563 -0.202596
20.478519 -19.603918 0.197919
21.785967 -20.855526 0.210555
20.496193 -19.620836 0.594346
20.834703 -20.119839 -0.606702
20.946665 -20.227959 -0.203294
23.564997 -22.756454 -0.228706
20.958485 -20.416851 0.204272
20.682262 -20.147768 0.604817
21.022011 -20.658274 -0.617383
20.862068 -20.501097 -0.204202
20.942856 -20.760889 0.205877
20.775467 -20.594954 0.612775
20.536947 -20.536947 -0.608377
20.654085 -20.654085 -0.203923
20.746809 -20.928654 0.205738
20.594954 -20.775467 0.612775
20.160736 -20.515715 -0.602513
20.830515 -21.197287 -0.207483
20.682005 -21.230673 0.206925
20.468681 -21.011690 0.614451
21.307446 -22.064505 -0.642513
20.978172 -21.723532 -0.210834
24.451378 -25.320145 -0.245740
21.332659 -22.284386 0.215372
22.708735 -23.721855 0.229265
21.162573 -22.106712 0.641047
22.139509 -23.330175 -0.673718
20.822218 -21.942039 -0.211183
23.382835 -24.640368 -0.237153
20.712578 -22.018118 0.211043
23.247692 -24.713024 0.236874
21.283966 -22.625523 0.650681
20.237272 -21.701817 -0.621571
20.561750 -22.049776 -0.210485
22.101213 -23.908958 0.227310
21.119646 -22.847105 0.651728
20.364578 -22.224037 -0.631414
20.091562 -21.926094 -0.207623
20.520134 -22.590906 0.213068
21.275742 -23.422766 0.662828
20.230072 -22.467772 -0.633299
20.046665 -22.264076 -0.209159
20.541948 -23.015308 0.215372
20.790924 -23.294262 0.654032
20.172356 -22.800699 -0.637697
20.076899 -22.692806 -0.211532
20.439222 -23.306465 0.216419
20.309990 -23.159103 0.645236
21.819559 -24.880440 0.693194
20.405519 -23.473866 -0.651519
22.287996 -25.639406 -0.711623
20.061796 -23.078457 -0.213487
20.300333 -23.559696 0.217117
22.108435 -25.658100 0.236455
20.081013 -23.305162 0.644398
21.983280 -25.739115 -0.236316
22.329500 -26.376671 0.241272
20.012531 -23.639755 0.648796
21.886385 -26.083178 -0.237712
21.407896 -25.740198 0.233733
20.988178 -25.235542 0.687540
21.308996 -26.080908 0.235129
20.343340 -24.899006 0.673508
21.545218 -26.370029 0.713299
21.700237 -27.037935 0.242040
20.325535 -25.325092 0.680210
21.251699 -26.479069 0.711205
21.389175 -27.132038 0.241203
20.896029 -26.506485 0.707016
21.096493 -27.246498 0.240574
21.135227 -27.296522 0.723142
20.732681 -28.275810 0.734451
0.134348 -0.186621 0.004817
21.998016 -30.557173 0.788692
0.153895 -0.221839 0.001885
0.136769 -0.197152 0.005026
0.168804 -0.247923 0.006283
0.155556 -0.232806 0.001955
0.166635 -0.249386 0.006283
0.148007 -0.225748 0.005654
0.129831 -0.201844 0.001676
0.118988 -0.184988 0.004607
0.128064 -0.202970 0.001676
0.117369 -0.186019 0.004607
0.147336 -0.238093 0.001955
0.157830 -0.255050 0.006283
0.145253 -0.239369 0.001955
0.140038 -0.230776 0.005654
0.138046 -0.232034 0.001885
0.102236 -0.171844 0.004188
0.130953 -0.224548 0.005445