# This PCD file was generated using the MATLAB® pcwrite function
# from Computer Vision System Toolbox®.
# .PCD v.7 - Point Cloud Data file format
VERSION .7
FIELDS x y z
SIZE 4 4 4
TYPE F F F
COUNT 1 1 1
WIDTH 749
HEIGHT 1
VIEWPOINT 0 0 0 1 0 0 0
POINTS 749
DATA ascii
28.991043 31.089088 -0.296773
28.842613 30.393772 -0.877697
28.937721 30.493996 -0.293492
28.856726 29.882013 -0.870158
28.959602 29.988546 -0.291049
28.808060 29.315296 -0.860943
28.911802 29.420864 -0.287977
28.723448 28.723448 -0.850891
28.856325 28.856325 -0.284905
28.744820 28.247456 -0.844189
28.907337 28.407160 -0.282950
28.731323 27.745516 -0.836650
28.866404 27.875961 -0.280158
28.711273 27.245981 -0.829110
28.789408 27.320127 -0.277086
28.706650 26.769382 -0.822199
28.821947 26.876900 -0.275131
28.681170 26.281450 -0.814870
28.760489 26.354132 -0.272339
28.641951 25.789328 -0.807330
28.721848 25.861267 -0.269826
28.648762 25.346283 -0.801257
28.706774 25.397608 -0.267592
28.634947 24.891979 -0.794765
28.693359 24.942757 -0.265428
28.546982 24.381426 -0.786388
28.628588 24.451122 -0.262844
28.544214 23.951441 -0.780524
28.595741 23.994677 -0.260610
28.597851 23.574247 -0.776335
28.626574 23.597927 -0.259005
28.553850 23.122452 -0.769634
28.543875 23.114374 -0.256422
28.504162 22.673235 -0.762932
28.533197 22.696331 -0.254537
28.488220 22.257437 -0.757278
28.509535 22.274090 -0.252582
28.459274 21.837570 -0.751414
28.480690 21.854002 -0.250627
28.425188 21.419916 -0.745550
28.414759 21.412056 -0.248393
28.418144 21.028320 -0.740524
28.439762 21.044317 -0.246997
28.406445 20.638491 -0.735498
28.395805 20.630760 -0.245042
28.325006 20.204031 -0.728796
28.314247 20.196356 -0.242808
28.369204 19.864330 -0.725445
28.358353 19.856731 -0.241691
28.343723 19.480101 -0.720419
28.324528 19.466908 -0.239946
28.313713 19.097839 -0.715393
28.335814 19.112747 -0.238619
28.245855 18.695524 -0.709529
28.268040 18.710207 -0.236665
28.265783 18.531860 0.235967
28.285357 18.544691 0.708482
28.240231 18.339420 -0.705341
28.262510 18.353888 -0.235268
28.216171 18.149252 0.234221
28.143402 18.102444 0.700943
28.230553 17.984846 -0.701152
28.219191 17.977608 -0.233593
28.204336 17.795610 0.232825
28.165016 17.770802 0.697592
28.182936 17.610653 -0.696126
28.171471 17.603489 -0.231917
28.188490 17.443567 0.231429
28.157490 17.424383 0.693613
28.199150 17.280462 -0.692775
28.187597 17.273382 -0.230800
28.134464 17.072412 0.229753
28.103338 17.053524 0.688587
28.143200 16.910141 -0.687749
28.131546 16.903137 -0.229125
28.110498 16.723989 0.228357
28.079243 16.705393 0.684398
28.126022 16.567493 -0.683770
28.105658 16.555498 -0.227729
28.082607 16.377293 0.226961
28.085770 16.379137 0.681047
28.087702 16.216442 -0.679372
28.075859 16.209604 -0.226332
28.120274 16.072062 0.226123
28.054031 16.034201 0.676859
28.088921 15.891947 -0.676021
28.076990 15.885197 -0.225215
28.050062 15.708790 0.224448
28.018425 15.691072 0.672671
28.051647 15.549282 -0.671833
28.074608 15.562010 -0.224098
28.054573 15.391266 0.223400
28.057869 15.393074 0.670367
28.010546 15.208485 -0.667644
27.998430 15.201907 -0.222423
28.011642 15.051199 0.222004
28.014988 15.052997 0.666178
28.000956 14.888372 -0.664294
28.024075 14.900664 -0.221585
27.964928 14.713060 0.220608
28.003716 14.733467 0.662828
27.952450 14.551125 -0.660105
27.975639 14.563196 -0.220189
27.950018 14.395205 0.219491
27.953457 14.396976 0.658639
27.944744 14.238559 -0.656964
27.932373 14.232255 -0.218863
27.931700 14.078736 0.218374
27.935183 14.080491 0.655288
27.924776 13.922780 -0.653613
27.957067 13.938880 -0.218095
27.945873 13.781380 0.217536
27.940426 13.778693 0.652566
27.928392 13.621587 -0.650890
27.915863 13.615476 -0.216838
27.920965 13.467475 0.216419
27.924526 13.469193 0.649424
27.946936 13.330005 -0.648587
27.934334 13.323994 -0.216070
27.892717 13.155060 0.215302
27.860151 13.139701 0.645236
27.908157 13.013787 -0.645027
27.895473 13.007874 -0.214883
27.897478 12.860913 0.214464
27.901119 12.862592 0.643561
27.911489 12.719998 -0.642513
27.898733 12.714185 -0.214045
27.862768 12.551262 0.213347
27.866453 12.552921 0.640210
27.847893 12.398681 -0.638534
27.871593 12.409232 -0.212998
27.824791 12.243201 0.212230
27.828518 12.244841 0.636859
27.835838 12.103367 -0.635812
27.822926 12.097752 -0.211811
27.820320 11.952553 0.211393
27.824081 11.954169 0.634346
27.839165 11.817024 -0.633508
27.826183 11.811514 -0.211043
27.812904 11.662918 0.210555
27.779821 11.649046 0.630995
27.830385 11.527723 -0.630995
27.817335 11.522317 -0.210206
27.802559 11.374328 0.209717
27.806393 11.375896 0.629320
27.744526 11.209517 -0.626807
27.740665 11.207956 -0.208879
27.789305 11.086808 0.208879
27.756029 11.073533 0.625969
27.813383 10.955983 -0.626178
27.790895 10.947124 -0.208530
27.773157 10.800390 0.208042
27.777061 10.801908 0.624294
27.711924 10.637610 -0.621780
27.698656 10.632518 -0.207134
27.716732 10.500931 0.206925
27.720678 10.502425 0.620943
27.719416 10.363865 -0.619896
27.762287 10.379894 -0.206925
27.732260 10.230971 0.206366
27.736233 10.232437 0.619267
27.705458 10.083961 -0.617592
27.729654 10.092769 -0.206017
27.707546 9.948026 0.205528
27.673916 9.935951 0.615917
27.717007 9.815106 -0.615917
27.741262 9.823696 -0.205458
27.680016 9.666294 0.204691
27.684057 9.667706 0.614241
27.688166 9.533800 -0.613403
27.712475 9.542171 -0.204621
27.649687 9.385803 0.203853
27.691631 9.400043 0.612566
27.694458 9.266437 -0.611728
27.680893 9.261897 -0.203783
27.654564 9.119108 0.203294
27.668163 9.123592 0.610262
27.622133 8.974975 -0.608377
27.608498 8.970545 -0.202666
27.628328 8.843898 0.202526
27.632465 8.845222 0.607749
27.623121 8.709537 -0.606702
27.609432 8.705221 -0.202107
27.628054 8.578739 0.201968
27.632215 8.580031 0.606074
27.621586 8.444766 -0.605026
27.655659 8.455184 -0.201898
27.615685 8.311378 0.201340
27.619875 8.312639 0.604189
27.617538 8.180688 -0.603351
27.613335 8.179442 -0.201060
27.619961 8.050485 0.200851
27.614576 8.048915 0.602513
27.572550 7.906301 -0.600838
27.597151 7.913356 -0.200432
27.564047 7.773865 0.199943
27.577917 7.777777 0.600210
27.524883 7.633326 -0.598325
27.559160 7.642831 -0.199664
27.524712 7.504097 0.199175
27.480762 7.492116 0.596650
27.561478 7.385076 -0.597697
27.547533 7.381339 -0.199106
27.540796 7.250887 0.198826
27.545095 7.252018 0.596650
27.537760 7.121749 -0.595812
27.562492 7.128145 -0.198756
27.486719 6.980737 0.197989
27.491051 6.981837 0.594136
27.530952 6.864238 -0.594346
27.555727 6.870414 -0.198268
27.517450 6.733477 0.197779
27.482952 6.725036 0.592671
27.502312 6.602721 -0.592461
27.527122 6.608677 -0.197639
27.497293 6.474753 0.197221
27.491934 6.473491 0.591623
27.490692 6.346726 -0.590995
27.515539 6.352463 -0.197151
27.513737 6.225723 0.196941
27.518124 6.226716 0.590995
27.466944 6.089275 -0.589320
27.482063 6.092627 -0.196522
27.449753 5.959926 0.196104
27.493252 5.969370 0.589320
27.470140 5.838959 -0.588273
27.465715 5.838018 -0.196034
27.461555 5.712012 0.195824
27.465990 5.712934 0.587644
27.441671 5.583071 -0.586597
27.476419 5.590141 -0.195755
27.431896 5.456543 0.195266
27.475576 5.465232 0.586807
27.459906 5.337665 -0.585969
27.484892 5.342522 -0.195475
27.439171 5.209489 0.194987
27.443644 5.210339 0.585131
27.456287 5.088722 -0.584922
27.441977 5.086070 -0.194847
27.404865 4.955607 0.194428
27.399523 4.954641 0.583246
27.470110 4.843721 -0.584294
27.455770 4.841193 -0.194638
27.407646 4.709495 0.194149
27.372744 4.703497 0.581780
27.383144 4.582367 -0.581571
27.378620 4.581610 -0.193800
27.358873 4.455675 0.193521
27.412746 4.464449 0.581780
27.264093 4.318208 -0.578220
27.338547 4.330000 -0.193241
27.337414 4.207630 0.193102
27.371609 4.212893 0.580105
27.350180 4.087512 -0.579267
27.365402 4.089787 -0.193171
27.284023 3.955995 0.192473
27.367754 3.968135 0.579267
27.295704 3.836161 -0.577383
27.330732 3.841084 -0.192683
27.317507 3.717750 0.192473
27.322088 3.718373 0.577592
27.338053 3.599123 -0.577592
27.363211 3.602435 -0.192683
27.299311 3.472911 0.192124
27.313824 3.474757 0.576754
27.318802 3.354327 -0.576545
27.304279 3.352544 -0.192054
27.298786 3.231024 0.191915
27.303392 3.231570 0.575917
27.267567 3.106747 -0.574869
27.292753 3.109617 -0.191775
27.286182 2.988323 0.191636
27.290800 2.988829 0.575079
27.214094 2.860317 -0.573194
27.239290 2.862965 -0.191217
27.271423 2.746088 0.191356
27.266106 2.745553 0.574032
27.238018 2.622723 -0.573194
27.273191 2.626110 -0.191287
27.214685 2.500678 0.190798
27.219336 2.501106 0.572566
27.269829 2.385801 -0.573403
27.255222 2.384523 -0.191007
27.195610 2.259781 0.190519
27.240126 2.263480 0.572566
27.209875 2.141464 -0.571728
27.235117 2.143450 -0.190728
27.214294 2.022372 0.190519
27.218960 2.022718 0.571728
27.227526 1.903934 -0.571728
27.242811 1.905003 -0.190658
27.151079 1.779576 0.189960
27.195669 1.782498 0.570890
27.243103 1.666260 -0.571728
27.228455 1.665364 -0.190449
27.165575 1.542573 0.189960
27.210188 1.545106 0.570890
27.166750 1.423749 -0.569843
27.192020 1.425073 -0.190100
27.178001 1.305453 0.189960
27.222635 1.307597 0.570890
27.138187 1.184879 -0.569006
27.163460 1.185982 -0.189820
27.108423 1.065093 0.189402
27.113129 1.065278 0.568377
27.147493 0.948011 -0.569006
27.132799 0.947498 -0.189541
27.116686 0.828490 0.189402
27.081419 0.827412 0.567540
27.114756 0.710025 -0.568168
27.130039 0.710425 -0.189471
27.122883 0.591823 0.189402
27.087608 0.591054 0.567540
27.119919 0.473380 -0.568168
27.115210 0.473298 -0.189332
27.127014 0.355112 0.189402
27.091736 0.354650 0.567540
27.043037 0.236001 -0.566492
27.028313 0.235873 -0.188703
27.049084 0.118025 0.188843
27.093798 0.118220 0.567540
27.014074 0.000000 -0.565864
26.999342 0.000000 -0.188494
27.049084 -0.118025 0.188843
27.053808 -0.118045 0.566702
27.093025 -0.236437 -0.567540
27.078308 -0.236309 -0.189053
27.047024 -0.354065 0.188843
27.061745 -0.354258 0.566911
27.049944 -0.472159 -0.566702
27.035223 -0.471902 -0.188773
27.042904 -0.590078 0.188843
27.047626 -0.590181 0.566702
27.044794 -0.708193 -0.566702
27.030075 -0.707807 -0.188773
27.036724 -0.826047 0.188843
27.051439 -0.826496 0.566911
27.037584 -0.944173 -0.566702
27.062843 -0.945055 -0.189053
26.948551 -1.058811 0.188285
26.993248 -1.060568 0.565864
27.028316 -1.180082 -0.566702
27.053566 -1.181184 -0.189053
26.938284 -1.293939 0.188285
26.982964 -1.296085 0.565864
27.007004 -1.415377 -0.566492
27.002285 -1.415130 -0.188773
26.965902 -1.531235 0.188564
26.970627 -1.531503 0.565864
27.003605 -1.651611 -0.566702
27.028831 -1.653154 -0.189053
26.951513 -1.766495 0.188564
26.956234 -1.766805 0.565864
26.988163 -1.887196 -0.566702
26.973475 -1.886169 -0.188773
26.935072 -2.001621 0.188564
26.979671 -2.004936 0.566702
26.930799 -2.119500 -0.565864
26.955988 -2.121482 -0.188773
26.876717 -2.233283 0.188285
26.921295 -2.236987 0.565864
26.871439 -2.350946 -0.565026
26.856754 -2.349662 -0.188215
26.896036 -2.471399 0.188564
26.900747 -2.471832 0.565864
26.929514 -2.593017 -0.566702
26.904903 -2.590647 -0.188703
26.873446 -2.706014 0.188564
26.878153 -2.706488 0.565864
26.905861 -2.827920 -0.566702
26.891216 -2.826381 -0.188773
26.848808 -2.940423 0.188564
26.893265 -2.945292 0.566702
26.880157 -3.062607 -0.566702
26.905270 -3.065468 -0.189053
26.822124 -3.174608 0.188564
26.866539 -3.179864 0.566702
26.892101 -3.301935 -0.567540
26.877495 -3.300141 -0.189053
26.833080 -3.413599 0.188843
26.837767 -3.414195 0.566702
26.862263 -3.536484 -0.567540
26.847673 -3.534563 -0.189053
26.841904 -3.653023 0.189122
26.846577 -3.653659 0.567540
26.830379 -3.770764 -0.567540
26.845512 -3.772891 -0.189262
26.848587 -3.892860 0.189402
26.813671 -3.887797 0.567540
26.786564 -4.003279 -0.567330
26.772007 -4.001103 -0.188983
26.813595 -4.127007 0.189402
26.857775 -4.133807 0.569215
26.869106 -4.255648 -0.569843
26.854591 -4.253349 -0.189820
26.776560 -4.360839 0.189402
26.820677 -4.368025 0.569215
26.830946 -4.489960 -0.569843
26.806589 -4.485885 -0.189751
26.816326 -4.607888 0.189960
26.820951 -4.608683 0.570053
26.751358 -4.716986 -0.569006
26.776270 -4.721379 -0.189820
26.775095 -4.841726 0.189960
26.779713 -4.842561 0.570053
26.748499 -4.957541 -0.569843
26.734049 -4.954863 -0.189820
26.771120 -5.082656 0.190239
26.765902 -5.081665 0.570681
26.733660 -5.196497 -0.570472
26.729057 -5.195602 -0.190100
26.764978 -5.323885 0.190519
26.769566 -5.324798 0.571728
26.667700 -5.425605 -0.570053
26.682699 -5.428657 -0.190100
26.756660 -5.565393 0.190798
26.761232 -5.566344 0.572566
26.726912 -5.680980 -0.572356
26.751684 -5.686246 -0.190937
26.746164 -5.807161 0.191077
26.740950 -5.806029 0.573194
26.715361 -5.922653 -0.573194
26.701046 -5.919479 -0.190937
26.694469 -6.040341 0.191077
26.699017 -6.041370 0.573403
26.740593 -6.173552 -0.574869
26.726320 -6.170257 -0.191496
26.640741 -6.273062 0.191077
26.684206 -6.283297 0.574241
26.685699 -6.406670 -0.574869
26.681181 -6.405585 -0.191566
26.662689 -6.524319 0.191636
26.667204 -6.525423 0.575079
26.677280 -6.651393 -0.575917
26.701887 -6.657528 -0.192124
26.604740 -6.756743 0.191636
26.609243 -6.757887 0.575079
26.656939 -6.893953 -0.576754
26.681499 -6.900305 -0.192404
26.622126 -7.009021 0.192194
26.626604 -7.010200 0.576754
26.634392 -7.136664 -0.577592
26.620268 -7.132879 -0.192404
26.598537 -7.251594 0.192473
26.602999 -7.252810 0.577592
26.600002 -7.376833 -0.578220
26.595552 -7.375599 -0.192683
26.572741 -7.494288 0.192753
26.577183 -7.495541 0.578430
26.611498 -7.630724 -0.579896
26.597464 -7.626700 -0.193171
26.583132 -7.748277 0.193311
26.587549 -7.749564 0.580105
26.591825 -7.876858 -0.580943
26.616188 -7.884074 -0.193800
26.591108 -8.003016 0.193870
26.557203 -7.992811 0.580943
26.550758 -8.117382 -0.581571
26.575062 -8.124812 -0.194009
26.558458 -8.246620 0.194149
26.562828 -8.247977 0.582618
26.564728 -8.375826 -0.583456
26.550833 -8.371446 -0.194358
26.523577 -8.490264 0.194428
26.489840 -8.479465 0.582618
26.452589 -8.594967 -0.582618
26.467258 -8.599733 -0.194288
26.495960 -8.737058 0.194777
26.490795 -8.735354 0.584294
26.528276 -8.876237 -0.585969
26.514482 -8.871622 -0.195196
26.484991 -8.990442 0.195266
26.489294 -8.991903 0.585969
26.478167 -9.117164 -0.586597
26.473875 -9.115686 -0.195475
26.490492 -9.250894 0.195894
26.485329 -9.249090 0.587644
26.472992 -9.374578 -0.588273
26.459301 -9.369730 -0.195964
26.436991 -9.491849 0.196104
26.431835 -9.489999 0.588273
26.437151 -9.622336 -0.589320
26.414116 -9.613952 -0.196243
26.428205 -9.749880 0.196662
26.432434 -9.751439 0.590157
26.408363 -9.873682 -0.590576
26.404146 -9.872106 -0.196802
26.416925 -10.008478 0.197221
26.421125 -10.010069 0.591833
26.442533 -10.150337 -0.593299
26.438353 -10.148733 -0.197709
26.365860 -10.253122 0.197500
26.397993 -10.265617 0.593299
26.399460 -10.399024 -0.594346
26.413912 -10.404716 -0.198198
26.340397 -10.508753 0.197989
26.344547 -10.510409 0.594136
26.381865 -10.658965 -0.596021
26.405552 -10.668536 -0.198826
26.330986 -10.772290 0.198617
26.288839 -10.755048 0.594974
26.361738 -10.919390 -0.597697
26.348402 -10.913865 -0.199106
26.309753 -11.032595 0.199175
26.313843 -11.034310 0.597697
26.293056 -11.160740 -0.598325
26.325798 -11.174638 -0.199664
26.322727 -11.309135 0.200013
26.317595 -11.306931 0.600000
26.350527 -11.457535 -0.601885
26.328154 -11.447806 -0.200432
26.332869 -11.586740 0.200851
26.300283 -11.572401 0.601885
26.286072 -11.703313 -0.602723
26.309467 -11.713730 -0.201060
26.258106 -11.828415 0.201060
26.262104 -11.830215 0.603351
26.283016 -11.977860 -0.605026
26.315439 -11.992637 -0.201898
26.271942 -12.111531 0.201968
26.239582 -12.096613 0.605236
26.249979 -12.240566 -0.606702
26.236971 -12.234501 -0.202107
26.192383 -12.353129 0.202177
26.241531 -12.376310 0.607749
26.214352 -12.503605 -0.608377
26.246540 -12.518957 -0.203015
26.236700 -12.655082 0.203364
26.240591 -12.656959 0.610262
26.221058 -12.788865 -0.611100
26.244146 -12.800125 -0.203853
26.232889 -12.936629 0.204202
26.200874 -12.920841 0.611938
26.206879 -13.066268 -0.613403
26.203039 -13.064354 -0.204411
26.190434 -13.201066 0.204760
26.185328 -13.198492 0.614241
26.207663 -13.353471 -0.616126
26.194954 -13.346995 -0.205249
26.145357 -13.465744 0.205319
26.184702 -13.486007 0.616964
26.161081 -13.618597 -0.617801
26.148441 -13.612018 -0.205808
26.168447 -13.767886 0.206436
26.172194 -13.769856 0.619477
26.138344 -13.898005 -0.620105
26.134611 -13.896020 -0.206645
26.117773 -14.033587 0.206994
26.156717 -14.054511 0.621990
26.130289 -14.187590 -0.622828
26.117807 -14.180813 -0.207483
26.099520 -14.318686 0.207832
26.094431 -14.315895 0.623456
26.075439 -14.453853 -0.624503
26.063032 -14.446975 -0.208042
26.078270 -14.604533 0.208670
26.081909 -14.606571 0.626178
26.087542 -14.759621 -0.627854
26.075222 -14.752650 -0.209159
26.054012 -14.891094 0.209508
26.048933 -14.888191 0.628482
26.027014 -15.026704 -0.629529
26.049410 -15.039634 -0.209996
26.052645 -15.193453 0.210555
26.064838 -15.200564 0.632042
26.058565 -15.349669 -0.633508
26.055031 -15.347586 -0.211113
26.022192 -15.481577 0.211393
26.025711 -15.483671 0.634346
25.992182 -15.617679 -0.635184
26.014393 -15.631024 -0.211881
25.988688 -15.770323 0.212230
26.000715 -15.777621 0.637068
25.991297 -15.927487 -0.638534
25.979313 -15.920143 -0.212719
25.986132 -16.080706 0.213347
26.023573 -16.103876 0.641047
25.910666 -16.190781 -0.640000
25.941158 -16.209835 -0.213557
25.980125 -16.392239 0.214464
26.017338 -16.415718 0.644398
25.911736 -16.507595 -0.643561
25.933655 -16.521561 -0.214674
25.945421 -16.688656 0.215372
25.940363 -16.685402 0.646074
25.942776 -16.847437 -0.647958
25.931063 -16.839828 -0.215861
25.924238 -16.996675 0.216419
25.927546 -16.998844 0.649424
25.894814 -17.139402 -0.650472
25.908201 -17.148264 -0.216908
25.874704 -17.288925 0.217257
25.877972 -17.291109 0.651938
25.868587 -17.448584 -0.653613
25.898502 -17.468761 -0.218095
25.855097 -17.604109 0.218374
25.825264 -17.583797 0.654451
25.847168 -17.764267 -0.656964
25.835726 -17.756403 -0.218863
25.831951 -17.920261 0.219491
25.867987 -17.945261 0.659477
25.756681 -18.035023 -0.658639
25.778086 -18.050011 -0.219700
25.805244 -18.237343 0.220608
25.808378 -18.239559 0.661990
25.793663 -18.398441 -0.663665
25.782410 -18.390415 -0.221097
25.774961 -18.555317 0.221725
25.778051 -18.557541 0.665341
25.761539 -18.716854 -0.667016
25.750383 -18.708748 -0.222214
25.733021 -18.868231 0.222772
25.776379 -18.900024 0.669529
25.757961 -19.059889 -0.671205
25.779060 -19.075502 -0.223889
25.735645 -19.217718 0.224238
25.770681 -19.243881 0.673718
25.742361 -19.398260 -0.675184
25.731409 -19.390007 -0.224936
25.726158 -19.562626 0.225634
25.721142 -19.558811 0.676859
25.706944 -19.725632 -0.678744
25.696089 -19.717302 -0.226123
25.712599 -19.908821 0.227031
25.683870 -19.886578 0.680419
25.683517 -20.066162 -0.682723
25.680645 -20.063919 -0.227519
25.663532 -20.231497 0.228148
25.666380 -20.233742 0.684608
25.609148 -20.370436 -0.685445
25.590664 -20.355732 -0.228287
25.634178 -20.573603 0.229474
25.675964 -20.607140 0.689634
25.609114 -20.737850 -0.690262
25.637421 -20.760775 -0.230312
25.647259 -20.954689 0.231219
25.650002 -20.956930 0.693822
25.612318 -21.113165 -0.695288
25.632744 -21.130003 -0.231917
25.555679 -21.254435 0.232057
25.581444 -21.275864 0.696964
25.580273 -21.464397 -0.699477
25.600582 -21.481438 -0.233314
25.582930 -21.657549 0.234012
25.577942 -21.653326 0.701990
25.544037 -21.816669 -0.703665
25.533810 -21.807934 -0.234431
25.544468 -22.010523 0.235408
25.509193 -21.980127 0.705341
25.503590 -22.169931 -0.707854
25.493469 -22.161135 -0.235827
25.531858 -22.390839 0.237084
25.504330 -22.366697 0.710576
25.488861 -22.550640 -0.712880
25.478853 -22.541784 -0.237502
25.477238 -22.739305 0.238410
25.509567 -22.768158 0.716231
25.469418 -22.932766 -0.717906
25.459520 -22.923857 -0.239178
25.425873 -23.095238 0.239806
25.487522 -23.151234 0.721257
25.474716 -23.343277 -0.723770
25.435448 -23.307295 -0.240853
25.399597 -23.479145 0.241482
25.401987 -23.481356 0.724608
25.416279 -23.701063 -0.727959
25.406609 -23.692045 -0.242529
25.397676 -23.891748 0.243437
25.458265 -23.948744 0.732147
25.382534 -24.087126 -0.732985
25.372976 -24.078056 -0.244204
25.361580 -24.278431 0.245112
25.385525 -24.301353 0.736126
25.286440 -24.418831 -0.736335
25.305758 -24.437487 -0.245601
25.349308 -24.694202 0.247067
25.351528 -24.696365 0.741362
25.329100 -24.890837 -0.743875
25.319775 -24.881672 -0.247835
25.331696 -25.111593 0.249022
25.333857 -25.113737 0.747226
25.301802 -25.301802 -0.749529
25.271381 -25.271381 -0.249510
25.280552 -25.502136 0.250697
25.282663 -25.504265 0.752252
25.283260 -25.728432 -0.755603
25.274172 -25.719185 -0.251744
25.203577 -25.872196 0.252163
25.247498 -25.917282 0.757906
25.161953 -26.055965 -0.758744
25.187698 -26.082626 -0.253141
25.218866 -26.343971 0.254607
25.220863 -26.346058 0.763979
25.215780 -26.571888 -0.767330
25.206930 -26.562563 -0.255654
25.179861 -26.766981 0.256561
25.209204 -26.798174 0.770681
25.194313 -27.017593 -0.773822
25.185585 -27.008234 -0.257818
25.162531 -27.220673 0.258795
25.191557 -27.252073 0.777383
25.173725 -27.472300 -0.780524
25.138100 -27.433422 -0.259773
25.085394 -27.616865 0.260471
25.114115 -27.648483 0.782409
25.120344 -27.898968 -0.786388
25.118551 -27.896976 -0.262076
25.083151 -28.103296 0.262984
25.078260 -28.097818 0.788901
25.061419 -28.326780 -0.792252
25.059679 -28.324816 -0.264031
25.047937 -28.561699 0.265218
25.069422 -28.586197 0.796440
25.075636 -28.846220 -0.800629
25.041162 -28.806562 -0.266475
25.006617 -29.021606 0.267452
25.001741 -29.015949 0.802304
24.965801 -29.231197 -0.805236
24.970669 -29.236897 -0.268429
24.959162 -29.482952 0.269686
25.005974 -29.538250 0.810681
24.907413 -29.683498 -0.270524
24.931120 -29.976412 0.272199
24.977402 -30.032063 0.818220
24.871040 -30.440634 0.274433
24.897820 -30.473410 0.824294
24.848557 -30.960659 0.277156
24.849970 -30.962421 0.831623
24.806490 -31.466883 0.279739
24.820223 -31.484303 0.839791
24.795483 -32.023811 0.848377
0.151872 -0.210963 0.005445
0.131071 -0.188937 0.004817
0.140670 -0.206602 0.005236
0.155556 -0.232806 0.001955
0.166635 -0.249386 0.006283
0.148036 -0.225792 0.001885
0.148007 -0.225748 0.005654
0.151469 -0.235485 0.001955
0.162257 -0.252256 0.006283
0.128064 -0.202970 0.001676
0.117369 -0.186019 0.004607
0.147336 -0.238093 0.001955
0.136786 -0.221043 0.005445
0.108940 -0.179527 0.001466
0.119292 -0.196587 0.004817
0.138046 -0.232034 0.001885
0.127795 -0.214804 0.005236
0.110806 -0.190002 0.004607