# This PCD file was generated using the MATLAB® pcwrite function
# from Computer Vision System Toolbox®.
# .PCD v.7 - Point Cloud Data file format
VERSION .7
FIELDS x y z
SIZE 4 4 4
TYPE F F F
COUNT 1 1 1
WIDTH 773
HEIGHT 1
VIEWPOINT 0 0 0 1 0 0 0
POINTS 773
DATA ascii
1.010109 1.161998 -0.032251
1.029988 1.184865 -0.010961
1.059960 1.198066 -0.033508
1.060166 1.198300 -0.011170
1.043615 1.159052 -0.032670
1.043818 1.159278 -0.010891
1.006409 1.098302 -0.031204
1.060651 1.157497 -0.010961
1.009136 1.082166 -0.030995
0.995693 1.067750 -0.010193
1.025423 1.080571 -0.031204
1.053157 1.109796 -0.010681
1.000089 1.035622 -0.030157
1.028069 1.064597 -0.010332
1.009088 1.026855 -0.030157
1.086383 1.105511 -0.010821
0.933176 0.933176 -0.027644
1.039422 1.039422 -0.010262
1.005463 0.988065 -0.029529
1.055585 1.037320 -0.010332
0.999663 0.965363 -0.029110
1.057404 1.021123 -0.010262
0.993545 0.942839 -0.028691
1.073528 1.018740 -0.010332
0.965175 0.900040 -0.027644
1.053124 0.982054 -0.010053
0.958250 0.878075 -0.027225
1.032163 0.945803 -0.009774
0.951017 0.856299 -0.026806
1.040377 0.936760 -0.009774
0.935989 0.828093 -0.026178
1.018555 0.901141 -0.009495
0.943180 0.819894 -0.026178
1.026380 0.892219 -0.009495
0.950299 0.811632 -0.026178
1.034127 0.883228 -0.009495
1.003298 0.841867 -0.027435
1.064776 0.893453 -0.009704
1.002892 0.826720 -0.027225
1.049384 0.865045 -0.009495
0.963450 0.780186 -0.025969
0.994723 0.805510 -0.008936
0.954573 0.759301 -0.025550
1.001714 0.796799 -0.008936
1.000554 0.781719 -0.026597
1.071669 0.837279 -0.009495
1.015270 0.779044 -0.026806
1.071001 0.821808 -0.009425
0.990091 0.746087 -0.025969
1.086118 0.818448 -0.009495
0.948343 0.701737 -0.024712
1.061065 0.785147 -0.009215
0.946342 0.687558 -0.024503
1.067876 0.775858 -0.009215
0.993003 0.708302 -0.025550
1.066465 0.760702 -0.009145
0.958198 0.670937 -0.024503
1.081254 0.757102 -0.009215
1.059692 0.735135 0.027016
0.988735 0.679538 -0.025131
1.079579 0.741974 -0.009145
1.082595 0.737113 0.027435
0.994627 0.670884 -0.025131
1.027982 0.693382 -0.008657
1.055941 0.705557 0.008866
1.080673 0.722083 0.027225
0.908736 0.601479 -0.022827
1.000639 0.662308 -0.008378
1.061850 0.696180 0.026597
0.947490 0.615307 -0.023665
1.039926 0.675336 -0.008657
1.068094 0.687021 0.008866
1.025843 0.659844 0.025550
0.986552 0.628503 -0.024503
1.079515 0.687727 -0.008936
1.082505 0.683010 0.008936
1.048473 0.661537 0.025969
0.975041 0.609273 -0.024084
1.017633 0.635888 -0.008378
1.054411 0.652489 0.008657
1.045704 0.647101 0.025759
0.997370 0.611189 -0.024503
1.082827 0.663557 -0.008866
1.094261 0.664014 0.008936
1.025669 0.622391 0.025131
0.994096 0.597313 -0.024293
1.062862 0.638632 -0.008657
1.100013 0.654439 0.008936
1.056838 0.628753 0.025759
1.007885 0.593690 -0.024503
1.094242 0.644558 -0.008866
1.071130 0.624664 0.008657
1.036375 0.604396 0.025131
0.935102 0.539882 -0.022618
1.065185 0.614985 -0.008587
1.076540 0.615293 0.008657
1.093691 0.625096 0.026387
1.009391 0.571086 -0.024293
1.079215 0.610590 -0.008657
1.046970 0.586331 0.008378
1.090381 0.610643 0.026178
1.005592 0.557409 -0.024084
1.075756 0.596301 -0.008587
1.025745 0.562743 0.008168
1.060607 0.581869 0.025340
1.001632 0.543842 -0.023874
1.080919 0.586891 -0.008587
1.057043 0.567970 0.008378
1.100872 0.591520 0.026178
0.953374 0.506918 -0.022618
1.059511 0.563352 -0.008378
1.035410 0.544756 0.008168
1.079448 0.567925 0.025550
0.975498 0.507812 -0.023037
1.090997 0.567937 -0.008587
1.031235 0.531121 0.008098
1.039922 0.535595 0.024503
0.997708 0.508358 -0.023456
1.069182 0.544775 -0.008378
1.044760 0.526602 0.008168
1.053484 0.531000 0.024712
1.002107 0.499632 -0.023456
1.100742 0.548810 -0.008587
1.076221 0.530733 0.008378
1.120845 0.552740 0.026178
0.970485 0.473337 -0.022618
1.042576 0.508498 -0.008098
1.053791 0.508289 0.008168
1.062591 0.512533 0.024712
0.983602 0.469154 -0.022827
1.074050 0.512296 -0.008308
1.049142 0.494808 0.008098
1.057980 0.498976 0.024503
1.014842 0.473229 -0.023456
1.078480 0.502903 -0.008308
1.062502 0.489820 0.008168
1.071374 0.493910 0.024712
1.000738 0.456063 -0.023037
1.091927 0.497620 -0.008378
1.057618 0.476422 0.008098
1.066528 0.480436 0.024503
1.022946 0.455445 -0.023456
1.087093 0.484005 -0.008308
1.034277 0.455093 0.007889
1.070680 0.471110 0.024503
0.953533 0.414608 -0.021780
1.027082 0.446588 -0.007819
1.065772 0.457892 0.008098
1.074750 0.461749 0.024503
1.049145 0.445336 -0.023874
1.067760 0.453237 -0.008098
1.088171 0.456308 0.008238
1.078738 0.452353 0.024503
0.997571 0.413207 -0.022618
1.071674 0.443902 -0.008098
1.036580 0.424076 0.007819
1.091898 0.446707 0.024712
1.001139 0.404486 -0.022618
1.075507 0.434533 -0.008098
1.049529 0.418720 0.007889
1.086469 0.433457 0.024503
0.939516 0.370085 -0.021152
1.107170 0.436126 -0.008308
1.081103 0.420418 0.008098
1.090210 0.423959 0.024503
0.942709 0.361872 -0.021152
1.073591 0.412113 -0.008028
1.056677 0.400339 0.007889
1.103217 0.417972 0.024712
0.945831 0.353632 -0.021152
1.049047 0.392223 -0.007819
1.013222 0.373797 0.007540
1.022404 0.377185 0.022827
0.901907 0.328267 -0.020105
1.005447 0.365953 -0.007470
1.063503 0.381837 0.007889
1.100934 0.395276 0.024503
0.998981 0.353758 -0.022199
1.055733 0.373855 -0.007819
1.057354 0.369245 0.007819
1.066587 0.372469 0.023665
1.039842 0.358046 -0.023037
1.087320 0.374394 -0.008028
1.032129 0.350360 0.007610
1.079264 0.366361 0.023874
0.986040 0.329924 -0.021780
1.062097 0.355373 -0.007819
1.063637 0.350735 0.007819
1.072925 0.353797 0.023665
0.988882 0.321307 -0.021780
1.065157 0.346091 -0.007819
1.038086 0.332294 0.007610
1.085493 0.347469 0.023874
1.010718 0.318678 -0.022199
1.068137 0.336782 -0.007819
0.993197 0.308396 0.007261
1.040743 0.323159 0.022827
0.956095 0.292308 -0.020942
1.099724 0.336219 -0.008028
1.043727 0.314126 0.007610
1.091392 0.328472 0.023874
1.016126 0.300990 -0.022199
1.073852 0.318089 -0.007819
1.036829 0.302208 0.007540
1.007831 0.293756 0.021990
0.999493 0.286600 -0.021780
1.105424 0.316975 -0.008028
1.049051 0.295863 0.007610
1.096958 0.309374 0.023874
1.001956 0.277867 -0.021780
1.079240 0.299300 -0.007819
1.041945 0.284067 0.007540
1.099616 0.299790 0.023874
1.004343 0.269113 -0.021780
1.110788 0.297635 -0.008028
1.054054 0.277509 0.007610
1.063517 0.280001 0.023037
1.006653 0.260338 -0.021780
1.084299 0.280419 -0.007819
1.085512 0.275685 0.007819
1.094991 0.278092 0.023665
0.989485 0.246706 -0.021361
1.038191 0.258850 -0.007470
1.019884 0.249564 0.007330
1.058531 0.259021 0.022827
1.030486 0.247398 -0.022199
1.089028 0.261452 -0.007819
1.051224 0.247530 0.007540
1.109409 0.261231 0.023874
1.003381 0.231649 -0.021571
1.081524 0.249690 -0.007749
1.063097 0.240554 0.007610
1.101895 0.249333 0.023665
1.015125 0.225048 -0.021780
1.093425 0.242406 -0.007819
1.055384 0.229146 0.007540
1.064948 0.231223 0.022827
0.977933 0.207866 -0.020942
1.095499 0.232855 -0.007819
1.027973 0.213819 0.007330
1.106079 0.230065 0.023665
0.989507 0.201317 -0.021152
1.087690 0.221293 -0.007749
1.059222 0.210692 0.007540
1.117850 0.222354 0.023874
1.010854 0.196490 -0.021571
1.089580 0.211793 -0.007749
1.031548 0.195845 0.007330
1.070636 0.203267 0.022827
1.042022 0.193127 -0.022199
1.101219 0.204099 -0.007819
1.102099 0.199292 0.007819
1.072369 0.193916 0.022827
0.915670 0.161457 -0.019476
1.063566 0.187535 -0.007540
1.074230 0.184586 0.007610
1.083874 0.186244 0.023037
1.025512 0.171612 -0.021780
1.104613 0.184849 -0.007819
1.105409 0.180027 0.007819
1.075590 0.175171 0.022827
0.977597 0.154836 -0.020733
1.056801 0.167381 -0.007470
1.037754 0.159726 0.007330
1.077078 0.165778 0.022827
1.028351 0.153688 -0.021780
1.107671 0.165543 -0.007819
1.029212 0.149229 0.007261
1.038906 0.150634 0.021990
1.029653 0.144708 -0.021780
1.099171 0.154478 -0.007749
1.040384 0.141590 0.007330
1.119433 0.152348 0.023665
1.030877 0.135717 -0.021780
1.070734 0.140965 -0.007540
1.071339 0.136292 0.007540
1.041377 0.132480 0.021990
0.952635 0.116969 -0.020105
1.032223 0.126741 -0.007261
1.042696 0.123411 0.007330
1.042493 0.123387 0.021990
1.013221 0.115442 -0.021361
1.073031 0.122256 -0.007540
1.073555 0.117573 0.007540
1.083284 0.118639 0.022827
0.914759 0.096145 -0.019267
1.024333 0.107662 -0.007191
1.044691 0.105195 0.007330
1.044488 0.105174 0.021990
1.015081 0.097741 -0.021361
1.075002 0.103511 -0.007540
1.075443 0.098819 0.007540
1.045366 0.096056 0.021990
1.025856 0.089751 -0.021571
1.105749 0.096741 -0.007749
1.046368 0.086947 0.007330
1.076055 0.089413 0.022618
1.056501 0.083148 -0.022199
1.116520 0.087872 -0.007819
1.037115 0.077071 0.007261
1.096735 0.081501 0.023037
0.997345 0.069741 -0.020942
1.067368 0.074638 -0.007470
1.097618 0.071942 0.007679
1.077451 0.070620 0.022618
1.037832 0.063477 -0.021780
1.077959 0.065931 -0.007540
1.038302 0.058959 0.007261
1.048081 0.059514 0.021990
0.998411 0.052324 -0.020942
1.108452 0.058091 -0.007749
1.048765 0.050376 0.007330
1.058547 0.050846 0.022199
0.998829 0.043610 -0.020942
1.078946 0.047108 -0.007540
1.039173 0.040829 0.007261
1.048960 0.041214 0.021990
1.029147 0.035939 -0.021571
1.109297 0.038737 -0.007749
1.089465 0.033286 0.007610
1.099246 0.033585 0.023037
0.959461 0.025124 -0.020105
1.029622 0.026962 -0.007191
1.039727 0.022687 0.007261
1.049520 0.022901 0.021990
0.999628 0.017449 -0.020942
1.119802 0.019546 -0.007819
1.049884 0.013744 0.007330
1.059677 0.013872 0.022199
1.039732 0.009074 -0.021780
1.119930 0.009773 -0.007819
1.079963 0.004712 0.007540
1.049760 0.004580 0.021990
0.999781 0.000000 -0.020942
1.109973 0.000000 -0.007749
1.049964 -0.004581 0.007330
1.049760 -0.004580 0.021990
0.969750 -0.008463 -0.020314
1.079933 -0.009424 -0.007540
1.039886 -0.013613 0.007261
1.049680 -0.013741 0.021990
0.959643 -0.016751 -0.020105
1.079809 -0.018848 -0.007540
1.049725 -0.022905 0.007330
1.049520 -0.022901 0.021990
1.009432 -0.026433 -0.021152
1.109593 -0.029056 -0.007749
1.079470 -0.032981 0.007540
1.089253 -0.033280 0.022827
1.029147 -0.035939 -0.021571
1.109297 -0.038737 -0.007749
1.049165 -0.041222 0.007330
1.048960 -0.041214 0.021990
1.058759 -0.046226 -0.022199
1.118907 -0.048853 -0.007819
1.078730 -0.051815 0.007540
1.088506 -0.052285 0.022827
0.958474 -0.050231 -0.020105
1.068508 -0.055998 -0.007470
1.048286 -0.059526 0.007330
1.048081 -0.059514 0.021990
1.057791 -0.064697 -0.022199
1.117884 -0.068373 -0.007819
1.037748 -0.068018 0.007261
1.097404 -0.071928 0.023037
0.997345 -0.069741 -0.020942
1.107269 -0.077428 -0.007749
1.047087 -0.077812 0.007330
1.076794 -0.080020 0.022618
1.036567 -0.081580 -0.021780
1.106551 -0.087087 -0.007749
1.036403 -0.086118 0.007261
1.086018 -0.090241 0.022827
0.995976 -0.087137 -0.020942
1.105749 -0.096741 -0.007749
1.045570 -0.096074 0.007330
1.045366 -0.096056 0.021990
1.005130 -0.096783 -0.021152
1.075002 -0.103511 -0.007540
1.034742 -0.104193 0.007261
1.084278 -0.109181 0.022827
1.034076 -0.108686 -0.021780
1.103892 -0.116024 -0.007749
1.043734 -0.114307 0.007330
1.043530 -0.114285 0.021990
1.003287 -0.114310 -0.021152
1.112773 -0.126785 -0.007819
1.072488 -0.126937 0.007540
1.082207 -0.128088 0.022827
0.952635 -0.116969 -0.020105
1.071924 -0.131616 -0.007540
1.041580 -0.132506 0.007330
1.120720 -0.142574 0.023665
1.001140 -0.131803 -0.021152
1.100477 -0.144881 -0.007749
1.030475 -0.140242 0.007261
1.040181 -0.141562 0.021990
0.910847 -0.128011 -0.019267
1.029854 -0.144736 -0.007261
1.039109 -0.150664 0.007330
1.048800 -0.152069 0.022199
0.969023 -0.144821 -0.020524
1.097781 -0.164064 -0.007749
1.067404 -0.164289 0.007540
1.077078 -0.165778 0.022827
1.026971 -0.162656 -0.021780
1.096307 -0.173638 -0.007749
1.075800 -0.175205 0.007610
1.075590 -0.175171 0.022827
1.025512 -0.171612 -0.021780
1.104613 -0.184849 -0.007819
1.064375 -0.182893 0.007540
1.074021 -0.184550 0.022827
1.014130 -0.178818 -0.021571
1.093110 -0.192745 -0.007749
1.033218 -0.186836 0.007330
1.072369 -0.193916 0.022827
1.042022 -0.193127 -0.022199
1.101219 -0.204099 -0.007819
1.061021 -0.201441 0.007540
1.070636 -0.203267 0.022827
0.971598 -0.188859 -0.020733
1.050315 -0.204161 -0.007470
1.029799 -0.204840 0.007330
1.068822 -0.212602 0.022827
1.038492 -0.211284 -0.022199
1.058293 -0.215312 -0.007540
1.018183 -0.211782 0.007261
1.115867 -0.232101 0.023874
1.017050 -0.216181 -0.021780
1.124842 -0.239093 -0.008028
1.065156 -0.231268 0.007610
1.094259 -0.237587 0.023456
1.034647 -0.229376 -0.022199
1.093425 -0.242406 -0.007819
1.014331 -0.229520 0.007261
1.062890 -0.240507 0.022827
1.013123 -0.233898 -0.021780
1.091268 -0.251939 -0.007819
1.022023 -0.240655 0.007330
1.051019 -0.247482 0.022618
0.991600 -0.238062 -0.021361
1.050134 -0.252115 -0.007540
1.087877 -0.266202 0.007819
1.107087 -0.270902 0.023874
0.970083 -0.241869 -0.020942
1.115813 -0.278203 -0.008028
1.017668 -0.258455 0.007330
1.017469 -0.258404 0.021990
0.929218 -0.240312 -0.020105
1.006849 -0.260389 -0.007261
1.044384 -0.274963 0.007540
1.015176 -0.267273 0.021990
1.033314 -0.276876 -0.022408
1.110788 -0.297635 -0.008028
1.051593 -0.286697 0.007610
1.089971 -0.297160 0.023665
1.021224 -0.283211 -0.022199
1.079240 -0.299300 -0.007819
1.039426 -0.293149 0.007540
1.048846 -0.295805 0.022827
0.999493 -0.286600 -0.021780
1.105424 -0.316975 -0.008028
1.008028 -0.293813 0.007330
1.046225 -0.304947 0.022827
1.016126 -0.300990 -0.022199
1.093028 -0.323770 -0.007959
1.034152 -0.311244 0.007540
1.091392 -0.328472 0.023874
0.994339 -0.304000 -0.021780
1.099724 -0.336219 -0.008028
1.040946 -0.323222 0.007610
1.088484 -0.337983 0.023874
0.991648 -0.312665 -0.021780
1.106285 -0.348810 -0.008098
1.028562 -0.329245 0.007540
1.085493 -0.347469 0.023874
0.950848 -0.308949 -0.020942
1.065157 -0.346091 -0.007819
1.035147 -0.341340 0.007610
1.082420 -0.356928 0.023874
0.957597 -0.320407 -0.021152
1.062097 -0.355373 -0.007819
1.022660 -0.347146 0.007540
1.079264 -0.366361 0.023874
1.020936 -0.351536 -0.022618
1.096775 -0.377650 -0.008098
1.029032 -0.359354 0.007610
1.076025 -0.375765 0.023874
0.998981 -0.353758 -0.022199
1.121716 -0.397220 -0.008308
1.054091 -0.378457 0.007819
1.063296 -0.381762 0.023665
0.977066 -0.355623 -0.021780
1.080620 -0.393314 -0.008028
1.060130 -0.391103 0.007889
1.097443 -0.404868 0.024503
1.011384 -0.378141 -0.022618
1.086513 -0.406231 -0.008098
1.047326 -0.396796 0.007819
1.056471 -0.400261 0.023665
0.961377 -0.369038 -0.021571
0.998907 -0.383444 -0.007470
1.053143 -0.409545 0.007889
1.090210 -0.423959 0.024503
0.967422 -0.381078 -0.021780
1.042042 -0.410471 -0.007819
1.040241 -0.415014 0.007819
1.058611 -0.422343 0.023874
1.028948 -0.415722 -0.023246
1.075507 -0.434533 -0.008098
1.092111 -0.446794 0.008238
1.082645 -0.442922 0.024503
0.979098 -0.405555 -0.022199
1.108628 -0.459209 -0.008378
1.078949 -0.452441 0.008168
1.051079 -0.440754 0.023874
0.993927 -0.421897 -0.022618
1.058555 -0.449330 -0.008028
1.047396 -0.449997 0.007959
1.038006 -0.445963 0.023665
0.990208 -0.430555 -0.022618
1.100445 -0.478487 -0.008378
1.061735 -0.467175 0.008098
1.079831 -0.475137 0.024712
1.022946 -0.455445 -0.023456
1.087093 -0.484005 -0.008308
1.030266 -0.464101 0.007889
1.075643 -0.484542 0.024712
1.000738 -0.456063 -0.023037
1.119225 -0.510060 -0.008587
1.053420 -0.485633 0.008098
1.062294 -0.489724 0.024503
0.951414 -0.443652 -0.021990
1.051291 -0.490225 -0.008098
1.058187 -0.499073 0.008168
1.067023 -0.503241 0.024712
0.956531 -0.456242 -0.022199
1.110153 -0.529516 -0.008587
1.044785 -0.503944 0.008098
1.053586 -0.508189 0.024503
0.970485 -0.473337 -0.022618
1.105490 -0.539183 -0.008587
1.049316 -0.517465 0.008168
1.058078 -0.521786 0.024712
1.002107 -0.499632 -0.023456
1.100742 -0.548810 -0.008587
1.071549 -0.540105 0.008378
1.080268 -0.544500 0.025340
0.962076 -0.490202 -0.022618
1.069182 -0.544775 -0.008378
1.040125 -0.535699 0.008168
1.075475 -0.553906 0.025340
0.975498 -0.507812 -0.023037
1.099867 -0.572554 -0.008657
1.026561 -0.540100 0.008098
1.035208 -0.544650 0.024503
0.988684 -0.525693 -0.023456
1.059511 -0.563352 -0.008378
1.065852 -0.572703 0.008447
1.065644 -0.572591 0.025340
1.027990 -0.558153 -0.024503
1.089707 -0.591662 -0.008657
1.016978 -0.557933 0.008098
1.025545 -0.562633 0.024503
1.049313 -0.581644 -0.025131
1.075756 -0.596301 -0.008587
1.055694 -0.591217 0.008447
1.055489 -0.591102 0.025340
1.026794 -0.580932 -0.024712
1.114028 -0.630287 -0.008936
1.041813 -0.595445 0.008378
1.085011 -0.620135 0.026178
0.969736 -0.559877 -0.023456
1.004565 -0.579986 -0.008098
1.045215 -0.609552 0.008447
1.045012 -0.609433 0.025340
1.007885 -0.593690 -0.024503
1.102858 -0.649633 -0.008936
1.065638 -0.633988 0.008657
1.108391 -0.659423 0.027016
0.959817 -0.576716 -0.023456
1.028576 -0.618031 -0.008378
1.077163 -0.653638 0.008796
1.068406 -0.648324 0.026178
0.954748 -0.585070 -0.023456
1.023143 -0.626983 -0.008378
1.020398 -0.631441 0.008378
1.062707 -0.657623 0.026178
0.975041 -0.609273 -0.024084
1.043074 -0.651785 -0.008587
1.065591 -0.672338 0.008796
1.090750 -0.688212 0.027016
1.028712 -0.655362 -0.025550
1.079515 -0.687727 -0.008936
1.042863 -0.670792 0.008657
1.084702 -0.697704 0.027016
0.939105 -0.609862 -0.023456
1.031540 -0.669890 -0.008587
1.036970 -0.679867 0.008657
1.053489 -0.690698 0.026387
0.975432 -0.645625 -0.024503
1.067348 -0.706462 -0.008936
1.064255 -0.711113 0.008936
1.072361 -0.716528 0.027016
0.994627 -0.670884 -0.025131
1.094303 -0.738117 -0.009215
1.058009 -0.720373 0.008936
1.041275 -0.708979 0.026387
1.005213 -0.690864 -0.025550
1.087820 -0.747638 -0.009215
1.051682 -0.729578 0.008936
1.059692 -0.735135 0.027016
1.015526 -0.711079 -0.025969
1.081254 -0.757102 -0.009215
1.045276 -0.738728 0.008936
1.028743 -0.727043 0.026387
1.009282 -0.719914 -0.025969
1.074606 -0.766509 -0.009215
1.071252 -0.771191 0.009215
1.079157 -0.776882 0.027853
1.027226 -0.746324 -0.026597
1.100236 -0.799368 -0.009495
1.040288 -0.762771 0.009006
1.040085 -0.762622 0.027016
1.012637 -0.749312 -0.026387
1.085180 -0.802991 -0.009425
1.057629 -0.789769 0.009215
1.065434 -0.795597 0.027853
1.045983 -0.788205 -0.027435
1.110076 -0.836502 -0.009704
1.058657 -0.805021 0.009285
1.026617 -0.780658 0.027016
0.967679 -0.742526 -0.025550
1.071001 -0.821808 -0.009425
1.043685 -0.808107 0.009215
1.051386 -0.814070 0.027853
1.008433 -0.787874 -0.026806
1.071669 -0.837279 -0.009495
1.036593 -0.817184 0.009215
1.052094 -0.829404 0.028063
1.001519 -0.796644 -0.026806
1.064321 -0.846599 -0.009495
1.060617 -0.851235 0.009495
1.068207 -0.857327 0.028691
1.025608 -0.830521 -0.027644
1.025808 -0.830683 -0.009215
1.053148 -0.860458 0.009495
1.076170 -0.879268 0.029110
0.987463 -0.814002 -0.026806
1.049384 -0.865045 -0.009495
1.045599 -0.869616 0.009495
1.083829 -0.901411 0.029529
0.980322 -0.822588 -0.026806
1.041795 -0.874170 -0.009495
1.037971 -0.878707 0.009495
1.091183 -0.923755 0.029948
1.033925 -0.883056 -0.028482
1.064542 -0.909205 -0.009774
1.060565 -0.913841 0.009774
1.090654 -0.939768 0.030157
1.026180 -0.892045 -0.028482
1.056568 -0.918460 -0.009774
1.060068 -0.929655 0.009844
1.074895 -0.942658 0.029948
1.033332 -0.914215 -0.028901
1.078470 -0.954150 -0.010053
1.074296 -0.958846 0.010053
1.051710 -0.938687 0.029529
1.010455 -0.909818 -0.028482
1.040377 -0.936760 -0.009774
1.043682 -0.948014 0.009844
1.058280 -0.961274 0.029948
1.039333 -0.952373 -0.029529
1.061653 -0.972826 -0.010053
1.028026 -0.950298 0.009774
1.064534 -0.984045 0.030367
1.016359 -0.947770 -0.029110
1.023870 -0.954774 -0.009774
1.048829 -0.986639 0.010053
1.034060 -0.972746 0.029738
0.993545 -0.942839 -0.028691
1.008246 -0.956790 -0.009704
1.069073 -1.023414 0.010332
1.068864 -1.023215 0.030995
0.978088 -0.944528 -0.028482
1.057404 -1.021123 -0.010262
1.088752 -1.060616 0.010612
1.052733 -1.025527 0.030785
1.005463 -0.988065 -0.029529
1.055585 -1.037320 -0.010332
1.051049 -1.041916 0.010332
1.050844 -1.041713 0.030995
1.039219 -1.039219 -0.030785
1.067705 -1.067705 -0.010542
1.048956 -1.058150 0.010402
1.055790 -1.065044 0.031414
1.023103 -1.041117 -0.030576
1.114419 -1.134041 -0.011100
1.060616 -1.088752 0.010612
1.067385 -1.095702 0.032042
1.000089 -1.035622 -0.030157
1.055855 -1.093370 -0.010612
1.057989 -1.105190 0.010681
1.057783 -1.104975 0.032042
0.991013 -1.044310 -0.030157
1.039390 -1.095289 -0.010542
1.041453 -1.107097 0.010612
1.041250 -1.106881 0.031832
1.036410 -1.111414 -0.031832
1.091171 -1.170137 -0.011170
1.065691 -1.152858 0.010961
1.106203 -1.196683 0.034136
1.026672 -1.120416 -0.031832
1.074162 -1.172242 -0.011100
1.048867 -1.154712 0.010891
1.048662 -1.154487 0.032670
1.016855 -1.129332 -0.031832
1.070583 -1.189003 -0.011170
1.038750 -1.163821 0.010891
1.051862 -1.178512 0.033089
1.046710 -1.183091 -0.033089
1.093296 -1.235747 -0.011519
1.081301 -1.232987 0.011449
1.081090 -1.232747 0.034346
1.003550 -1.154452 -0.032042
0.997185 -1.147131 -0.010612
1.077027 -1.249952 0.011519
1.089870 -1.264856 0.034974
1.071354 -1.254395 -0.034555
1.084552 -1.269847 -0.011659
1.059618 -1.251671 0.011449
1.033572 -1.220904 0.033508
1.034661 -1.233061 -0.033717
1.079857 -1.286923 -0.011729
1.048654 -1.260870 0.011449
1.042057 -1.252937 0.034136
1.062919 -1.300948 0.011729
1.062712 -1.300694 0.035183
1.045267 -1.302375 0.011659
1.038805 -1.294324 0.034764
1.071006 -1.358565 0.012078
1.076987 -1.366152 0.036440
1.077476 -1.391580 0.012287
1.065024 -1.375498 0.036440
1.065291 -1.400929 0.012287
1.065084 -1.400656 0.036859
1.070975 -1.434209 0.012496
1.058802 -1.417908 0.037068
1.052300 -1.435157 0.037278
0.192798 -0.267813 0.002304
1.057466 -1.468913 0.012636
0.181078 -0.251533 0.006492
1.057260 -1.468627 0.037906
0.170995 -0.246488 0.002094
0.136769 -0.197152 0.005026
0.123814 -0.181845 0.001536
0.129417 -0.190074 0.004817
0.155556 -0.232806 0.001955
0.138862 -0.207822 0.005236
0.120622 -0.183978 0.001536
0.126080 -0.192304 0.004817
0.151469 -0.235485 0.001955
0.146031 -0.227031 0.005654
0.149408 -0.236798 0.001955
0.117369 -0.186019 0.004607
0.147336 -0.238093 0.001955
0.157830 -0.255050 0.006283
0.150441 -0.247918 0.002025
0.140038 -0.230776 0.005654
0.138046 -0.232034 0.001885
0.127795 -0.214804 0.005236
0.100733 -0.172729 0.004188