# This PCD file was generated using the MATLAB® pcwrite function
# from Computer Vision System Toolbox®.
# .PCD v.7 - Point Cloud Data file format
VERSION .7
FIELDS x y z
SIZE 4 4 4
TYPE F F F
COUNT 1 1 1
WIDTH 772
HEIGHT 1
VIEWPOINT 0 0 0 1 0 0 0
POINTS 772
DATA ascii
1.331508 1.531724 -0.042513
1.344888 1.547117 -0.014312
1.311700 1.482607 -0.041466
1.378216 1.557790 -0.014521
1.337968 1.485964 -0.041885
1.338229 1.486253 -0.013963
1.323866 1.444747 -0.041047
1.344392 1.467146 -0.013893
1.329605 1.425827 -0.040838
1.316225 1.411478 -0.013474
1.335115 1.406918 -0.040628
1.328492 1.399938 -0.013474
1.298726 1.344870 -0.039162
1.278140 1.323553 -0.012846
1.275375 1.297831 -0.038115
1.352722 1.376540 -0.013474
1.244235 1.244235 -0.036859
1.272761 1.272761 -0.012566
1.205129 1.184277 -0.035393
1.319481 1.296651 -0.012915
1.244185 1.201495 -0.036230
1.323553 1.278140 -0.012846
1.254622 1.190592 -0.036230
1.327403 1.259658 -0.012776
1.235717 1.152324 -0.035393
1.316405 1.227567 -0.012566
1.275210 1.168515 -0.036230
1.349185 1.236300 -0.012776
1.277929 1.150652 -0.036021
1.307903 1.177641 -0.012287
1.205554 1.066584 -0.033717
1.310641 1.159557 -0.012217
1.267634 1.101937 -0.035183
1.328256 1.154636 -0.012287
1.231588 1.051875 -0.033927
1.330678 1.136506 -0.012217
1.248379 1.047514 -0.034136
1.348205 1.131279 -0.012287
1.265187 1.042940 -0.034346
1.350310 1.113110 -0.012217
1.212082 0.981525 -0.032670
1.336658 1.082405 -0.012008
1.228425 0.977134 -0.032880
1.346053 1.070699 -0.012008
1.260541 0.984842 -0.033508
1.292306 1.009660 -0.011449
1.277019 0.979891 -0.033717
1.340734 1.028782 -0.011798
1.245598 0.938626 -0.032670
1.277786 0.962881 -0.011170
1.285889 0.951508 -0.033508
1.374562 1.017122 -0.011938
1.261790 0.916744 -0.032670
1.326756 0.963944 -0.011449
1.277881 0.911504 -0.032880
1.335117 0.952330 -0.011449
1.269407 0.888848 -0.032461
1.335185 0.934907 -0.011379
1.363901 0.946172 0.011589
1.347205 0.934590 0.034346
1.268876 0.872074 -0.032251
1.318570 0.906228 -0.011170
1.355310 0.922798 0.034346
1.243284 0.838605 -0.031414
1.284977 0.866728 -0.010821
1.355262 0.905557 0.011379
1.305121 0.872054 0.032880
1.250554 0.827724 -0.031414
1.325846 0.877558 -0.011100
1.321042 0.866113 0.033089
1.266115 0.822225 -0.031623
1.341840 0.871401 -0.011170
1.311989 0.843900 0.010891
1.294916 0.832918 0.032251
1.264810 0.805773 -0.031414
1.340960 0.854286 -0.011100
1.319303 0.832418 0.010891
1.293680 0.816251 0.032042
1.254836 0.784109 -0.030995
1.322923 0.826654 -0.010891
1.292504 0.799826 0.010612
1.343262 0.831236 0.033089
1.244582 0.762681 -0.030576
1.321560 0.809853 -0.010821
1.299434 0.788516 0.010612
1.299181 0.788362 0.031832
1.259760 0.756940 -0.030785
1.294291 0.777689 -0.010542
1.306266 0.777147 0.010612
1.288827 0.766771 0.031414
1.257703 0.740843 -0.030576
1.344109 0.791741 -0.010891
1.312998 0.765718 0.010612
1.278196 0.745422 0.030995
1.203511 0.694848 -0.029110
1.273026 0.734982 -0.010262
1.319630 0.754231 0.010612
1.310693 0.749123 0.031623
1.270441 0.718781 -0.030576
1.322908 0.748466 -0.010612
1.326162 0.742686 0.010612
1.334626 0.747427 0.032042
1.241688 0.688279 -0.029738
1.285660 0.712653 -0.010262
1.297524 0.711846 0.010332
1.314802 0.721325 0.031414
1.282792 0.696499 -0.030576
1.335769 0.725264 -0.010612
1.303686 0.700496 0.010332
1.303432 0.700359 0.030995
1.271166 0.675891 -0.030157
1.297901 0.690106 -0.010262
1.309750 0.689093 0.010332
1.256407 0.661028 0.029738
1.259279 0.655539 -0.029738
1.348224 0.701841 -0.010612
1.280154 0.659322 0.010053
1.315457 0.677505 0.030995
1.193687 0.608214 -0.028063
1.238469 0.631031 -0.009704
1.259070 0.634623 0.009844
1.303463 0.657000 0.030576
1.234739 0.615618 -0.028901
1.315521 0.655895 -0.010262
1.291465 0.636880 0.010053
1.291214 0.636756 0.030157
1.222092 0.596054 -0.028482
1.321195 0.644390 -0.010262
1.269954 0.612553 0.009844
1.287716 0.621120 0.029948
1.209199 0.576758 -0.028063
1.299691 0.619921 -0.010053
1.338561 0.631306 0.010332
1.338300 0.631183 0.030995
1.259492 0.587311 -0.029110
1.295989 0.604329 -0.009983
1.307694 0.602855 0.010053
1.334678 0.615295 0.030785
1.291862 0.588735 -0.029738
1.374008 0.626172 -0.010542
1.276436 0.574992 0.009774
1.312649 0.591305 0.030157
1.233016 0.548974 -0.028272
1.306338 0.581619 -0.009983
1.290558 0.567859 0.009844
1.345213 0.591908 0.030785
1.265265 0.550153 -0.028901
1.320534 0.574185 -0.010053
1.323027 0.568417 0.010053
1.322769 0.568307 0.030157
1.251612 0.531278 -0.028482
1.316290 0.558732 -0.009983
1.300272 0.545249 0.009844
1.318458 0.552875 0.029948
1.274674 0.527987 -0.028901
1.358070 0.562531 -0.010262
1.295725 0.530095 0.009774
1.341739 0.548920 0.030367
1.251424 0.505608 -0.028272
1.325841 0.535674 -0.009983
1.337453 0.533590 0.010053
1.365051 0.544600 0.030785
1.227882 0.483676 -0.027644
1.265337 0.498430 -0.009495
1.304779 0.507401 0.009774
1.351115 0.525420 0.030367
1.222722 0.469359 -0.027435
1.269638 0.487369 -0.009495
1.318509 0.499538 0.009844
1.327601 0.502983 0.029738
1.161219 0.434162 -0.025969
1.236377 0.462262 -0.009215
1.313436 0.484552 0.009774
1.285040 0.474076 0.028691
1.258912 0.458206 -0.028063
1.315538 0.478817 -0.009774
1.327026 0.476451 0.009844
1.298538 0.466223 0.028901
1.206316 0.427179 -0.026806
1.281961 0.453966 -0.009495
1.321692 0.461556 0.009774
1.293118 0.451577 0.028691
1.238358 0.426401 -0.027435
1.314239 0.452529 -0.009704
1.297263 0.440361 0.009564
1.221272 0.414566 0.027016
1.251513 0.418750 -0.027644
1.289689 0.431524 -0.009495
1.329546 0.438419 0.009774
1.300802 0.428940 0.028691
1.198068 0.389276 -0.026387
1.245854 0.404802 -0.009145
1.342845 0.429848 0.009844
1.314018 0.420620 0.028901
1.144209 0.360768 -0.025131
1.211191 0.381887 -0.008866
1.298795 0.403287 0.009495
1.269898 0.394314 0.027853
1.109070 0.339077 -0.024293
1.224040 0.374227 -0.008936
1.311841 0.394819 0.009564
1.321159 0.397624 0.028901
1.121573 0.332225 -0.024503
1.227259 0.363531 -0.008936
1.267235 0.369365 0.009215
1.276586 0.372091 0.027853
1.210924 0.347227 -0.026387
1.259222 0.361076 -0.009145
1.318532 0.371864 0.009564
1.279785 0.360937 0.027853
1.233176 0.341990 -0.026806
1.271961 0.352746 -0.009215
1.312079 0.357714 0.009495
1.331115 0.362903 0.028901
1.294057 0.346741 -0.028063
1.352263 0.362338 -0.009774
1.286140 0.338612 0.009285
1.276221 0.336001 0.027644
1.258316 0.325423 -0.027225
1.316649 0.340509 -0.009495
1.318122 0.334760 0.009495
1.337245 0.339617 0.028901
1.261108 0.314429 -0.027225
1.348678 0.336263 -0.009704
1.291853 0.316115 0.009285
1.281890 0.313677 0.027644
1.244361 0.298745 -0.026806
1.312667 0.315144 -0.009425
1.323763 0.311705 0.009495
1.294310 0.304770 0.027853
1.276145 0.294621 -0.027435
1.325111 0.305926 -0.009495
1.297174 0.293520 0.009285
1.257916 0.284637 0.027016
1.190820 0.263998 -0.025550
1.278917 0.283529 -0.009145
1.289914 0.280068 0.009215
1.338513 0.290620 0.028691
1.212637 0.257754 -0.025969
1.291123 0.274437 -0.009215
1.341260 0.278982 0.009564
1.301845 0.270784 0.027853
1.234434 0.251148 -0.026387
1.293469 0.263159 -0.009215
1.294605 0.257513 0.009215
1.304158 0.259413 0.027853
1.275836 0.247997 -0.027225
1.325164 0.257586 -0.009425
1.267330 0.240610 0.009006
1.267083 0.240563 0.027016
1.218969 0.225922 -0.025969
1.297865 0.240545 -0.009215
1.298902 0.234880 0.009215
1.308487 0.236613 0.027853
1.181510 0.208332 -0.025131
1.299915 0.229210 -0.009215
1.310758 0.225229 0.009285
1.271088 0.218413 0.027016
1.262169 0.211215 -0.026806
1.331453 0.222809 -0.009425
1.263325 0.205745 0.008936
1.312417 0.213741 0.027853
1.293588 0.204884 -0.027435
1.333347 0.211181 -0.009425
1.274955 0.196234 0.009006
1.274707 0.196196 0.027016
1.245887 0.186199 -0.026387
1.305469 0.195104 -0.009215
1.306308 0.189406 0.009215
1.315948 0.190803 0.027853
1.257365 0.176711 -0.026597
1.307122 0.183704 -0.009215
1.278186 0.173953 0.009006
1.277937 0.173920 0.027016
1.189473 0.156597 -0.025131
1.229362 0.161849 -0.008657
1.309415 0.166579 0.009215
1.319077 0.167808 0.027853
1.260257 0.154740 -0.026597
1.339905 0.164520 -0.009425
1.320749 0.156321 0.009285
1.280777 0.151590 0.027016
1.231759 0.140341 -0.025969
1.311483 0.149425 -0.009215
1.312122 0.143701 0.009215
1.321805 0.144761 0.027853
1.292595 0.135857 -0.027225
1.342572 0.141110 -0.009425
1.323276 0.133247 0.009285
1.283228 0.129214 0.027016
1.234021 0.118823 -0.025969
1.313891 0.126513 -0.009215
1.314430 0.120779 0.009215
1.324130 0.121670 0.027853
1.235011 0.108049 -0.025969
1.314945 0.115043 -0.009215
1.285538 0.106820 0.009006
1.285287 0.106799 0.027016
1.235906 0.097268 -0.025969
1.315899 0.103563 -0.009215
1.276449 0.094857 0.008936
1.326052 0.098543 0.027853
1.196814 0.083689 -0.025131
1.276851 0.089286 -0.008936
1.287207 0.084368 0.009006
1.286956 0.084352 0.027016
1.177541 0.072021 -0.024712
1.267600 0.077530 -0.008866
1.277910 0.072565 0.008936
1.327570 0.075385 0.027853
1.297934 0.068022 -0.027225
1.348117 0.070652 -0.009425
1.288483 0.061890 0.009006
1.288232 0.061878 0.027016
1.238548 0.054076 -0.025969
1.278751 0.055831 -0.008936
1.278982 0.050251 0.008936
1.328683 0.052204 0.027853
1.268948 0.044313 -0.026597
1.319164 0.046066 -0.009215
1.249387 0.038172 0.008727
1.289116 0.039386 0.027016
1.239303 0.032452 -0.025969
1.319515 0.034553 -0.009215
1.319654 0.028795 0.009215
1.329392 0.029007 0.027853
1.269528 0.022160 -0.026597
1.319767 0.023037 -0.009215
1.289858 0.016885 0.009006
1.289607 0.016882 0.027016
1.239681 0.010819 -0.025969
1.279920 0.011170 -0.008936
1.319955 0.005759 0.009215
1.329696 0.005802 0.027853
1.259724 0.000000 -0.026387
1.309968 0.000000 -0.009145
1.299956 -0.005672 0.009076
1.289705 -0.005627 0.027016
1.239681 -0.010819 -0.025969
1.319918 -0.011519 -0.009215
1.319855 -0.017278 0.009215
1.339591 -0.017536 0.028063
1.219547 -0.021287 -0.025550
1.269776 -0.022164 -0.008866
1.259669 -0.027486 0.008796
1.289410 -0.028135 0.027016
1.219314 -0.031929 -0.025550
1.319515 -0.034553 -0.009215
1.279372 -0.039088 0.008936
1.289116 -0.039386 0.027016
1.268948 -0.044313 -0.026597
1.319164 -0.046066 -0.009215
1.288974 -0.050644 0.009006
1.288723 -0.050634 0.027016
1.238548 -0.054076 -0.025969
1.318712 -0.057576 -0.009215
1.318448 -0.063330 0.009215
1.328177 -0.063797 0.027853
1.238029 -0.064882 -0.025969
1.318159 -0.069082 -0.009215
1.287894 -0.073132 0.009006
1.287643 -0.073118 0.027016
1.257374 -0.076904 -0.026387
1.317506 -0.080582 -0.009215
1.277228 -0.083714 0.008936
1.326861 -0.086967 0.027853
1.236708 -0.086479 -0.025969
1.306777 -0.091379 -0.009145
1.286421 -0.095598 0.009006
1.286171 -0.095579 0.027016
1.215972 -0.095699 -0.025550
1.315899 -0.103563 -0.009215
1.315434 -0.109304 0.009215
1.325141 -0.110111 0.027853
1.264890 -0.110664 -0.026597
1.354792 -0.118529 -0.009495
1.244726 -0.114374 0.008727
1.284307 -0.118011 0.027016
1.214117 -0.116906 -0.025550
1.313891 -0.126513 -0.009215
1.313326 -0.132245 0.009215
1.323018 -0.133221 0.027853
1.262766 -0.132722 -0.026597
1.312737 -0.137974 -0.009215
1.282301 -0.140435 0.009006
1.282051 -0.140407 0.027016
1.231759 -0.140341 -0.025969
1.311483 -0.149425 -0.009215
1.271097 -0.150444 0.008936
1.320491 -0.156290 0.027853
1.270180 -0.155959 -0.026806
1.349830 -0.165738 -0.009495
1.249896 -0.159007 0.008796
1.279406 -0.162761 0.027016
1.199385 -0.157902 -0.025340
1.298761 -0.170985 -0.009145
1.307911 -0.177999 0.009215
1.317563 -0.179312 0.027853
1.197962 -0.168363 -0.025340
1.307122 -0.183704 -0.009215
1.316204 -0.190841 0.009285
1.276370 -0.185065 0.027016
1.166783 -0.174377 -0.024712
1.295579 -0.193626 -0.009145
1.304605 -0.200798 0.009215
1.314232 -0.202280 0.027853
1.263964 -0.200192 -0.026806
1.303717 -0.206488 -0.009215
1.273194 -0.207353 0.009006
1.272946 -0.207312 0.027016
1.163562 -0.194713 -0.024712
1.292003 -0.216207 -0.009145
1.340324 -0.230310 0.009495
1.349916 -0.231958 0.028691
1.151972 -0.203124 -0.024503
1.299915 -0.229210 -0.009215
1.269382 -0.229542 0.009006
1.269134 -0.229497 0.027016
1.218969 -0.225922 -0.025969
1.297865 -0.240545 -0.009215
1.257506 -0.238745 0.008936
1.306372 -0.248023 0.027853
1.246393 -0.242274 -0.026597
1.334980 -0.259494 -0.009495
1.265182 -0.251660 0.009006
1.264935 -0.251611 0.027016
1.214840 -0.247162 -0.025969
1.293469 -0.263159 -0.009215
1.292309 -0.268801 0.009215
1.301845 -0.270784 0.027853
1.183299 -0.251518 -0.025340
1.330248 -0.282753 -0.009495
1.260597 -0.273703 0.009006
1.260352 -0.273649 0.027016
1.249385 -0.276982 -0.026806
1.327730 -0.294351 -0.009495
1.287421 -0.291314 0.009215
1.345677 -0.304496 0.028901
1.266403 -0.292372 -0.027225
1.315368 -0.303677 -0.009425
1.294563 -0.304829 0.009285
1.255384 -0.295604 0.027016
1.244361 -0.298745 -0.026806
1.302944 -0.312809 -0.009355
1.320993 -0.323245 0.009495
1.330447 -0.325558 0.028691
1.270809 -0.316848 -0.027435
1.309867 -0.326587 -0.009425
1.298738 -0.329837 0.009355
1.250034 -0.317468 0.027016
1.258316 -0.325423 -0.027225
1.316649 -0.340509 -0.009495
1.276470 -0.336066 0.009215
1.285889 -0.338546 0.027853
1.265085 -0.338979 -0.027435
1.313627 -0.351985 -0.009495
1.283136 -0.349823 0.009285
1.244303 -0.339236 0.027016
1.252445 -0.347334 -0.027225
1.310506 -0.363435 -0.009495
1.308907 -0.369150 0.009495
1.327897 -0.374506 0.028901
1.249366 -0.358250 -0.027225
1.307284 -0.374858 -0.009495
1.315236 -0.383356 0.009564
1.238193 -0.360900 0.027016
1.246192 -0.369139 -0.027225
1.294375 -0.383411 -0.009425
1.263963 -0.380410 0.009215
1.321159 -0.397624 0.028901
1.204680 -0.368308 -0.026387
1.252729 -0.382998 -0.009145
1.308345 -0.406252 0.009564
1.231706 -0.382455 0.027016
1.220490 -0.384819 -0.026806
1.297023 -0.408950 -0.009495
1.333322 -0.426800 0.009774
1.304496 -0.417572 0.028691
1.245611 -0.404723 -0.027435
1.293405 -0.420253 -0.009495
1.301056 -0.429024 0.009564
1.310297 -0.432071 0.028901
1.232550 -0.412406 -0.027225
1.289689 -0.431524 -0.009495
1.249917 -0.424290 0.009215
1.259141 -0.427421 0.027853
1.162733 -0.400361 -0.025759
1.238599 -0.426484 -0.009145
1.293370 -0.451665 0.009564
1.302557 -0.454873 0.028901
1.225165 -0.433854 -0.027225
1.281961 -0.453966 -0.009495
1.279968 -0.459556 0.009495
1.251490 -0.449331 0.027853
1.230727 -0.447948 -0.027435
1.277951 -0.465136 -0.009495
1.285291 -0.474169 0.009564
1.294420 -0.477537 0.028901
1.217407 -0.455170 -0.027225
1.273843 -0.476270 -0.009495
1.271753 -0.481824 0.009495
1.280854 -0.485272 0.028691
1.222722 -0.469359 -0.027435
1.297645 -0.498119 -0.009704
1.314099 -0.511025 0.009844
1.323161 -0.514549 0.029738
1.209278 -0.476347 -0.027225
1.265337 -0.498430 -0.009495
1.300302 -0.518768 0.009774
1.272190 -0.507552 0.028691
1.223614 -0.494372 -0.027644
1.288754 -0.520691 -0.009704
1.304980 -0.533882 0.009844
1.304726 -0.533777 0.029529
1.200780 -0.497379 -0.027225
1.293400 -0.535744 -0.009774
1.254163 -0.525914 0.009495
1.272358 -0.533544 0.028901
1.242409 -0.527371 -0.028272
1.288675 -0.547010 -0.009774
1.267901 -0.544733 0.009634
1.212538 -0.520948 0.027644
1.210254 -0.526233 -0.027644
1.283853 -0.558235 -0.009774
1.281405 -0.563832 0.009774
1.290306 -0.567748 0.029529
1.233016 -0.548974 -0.028272
1.306338 -0.581619 -0.009983
1.285553 -0.579099 0.009844
1.294418 -0.583093 0.029738
1.200885 -0.547275 -0.027644
1.310312 -0.597144 -0.010053
1.271369 -0.586109 0.009774
1.316519 -0.606923 0.030367
1.223247 -0.570410 -0.028272
1.268800 -0.591651 -0.009774
1.275251 -0.601447 0.009844
1.329257 -0.626918 0.030785
1.236271 -0.589671 -0.028691
1.335794 -0.637141 -0.010332
1.260947 -0.608209 0.009774
1.305726 -0.629807 0.030367
1.240064 -0.604820 -0.028901
1.285244 -0.626855 -0.009983
1.264560 -0.623612 0.009844
1.282247 -0.632334 0.029948
1.261581 -0.629001 -0.029529
1.324471 -0.660357 -0.010332
1.250140 -0.630122 0.009774
1.294536 -0.652500 0.030367
1.211503 -0.617292 -0.028482
1.283018 -0.653730 -0.010053
1.289043 -0.663901 0.010123
1.306569 -0.672927 0.030785
1.259279 -0.655539 -0.029738
1.339354 -0.697223 -0.010542
1.274351 -0.670469 0.010053
1.282951 -0.674993 0.030367
1.129925 -0.600792 -0.026806
1.227267 -0.652550 -0.009704
1.268452 -0.681564 0.010053
1.294625 -0.695627 0.030785
1.230074 -0.667876 -0.029319
1.326982 -0.720492 -0.010542
1.262456 -0.692607 0.010053
1.297271 -0.711707 0.030995
1.215455 -0.673738 -0.029110
1.285660 -0.712653 -0.010262
1.265088 -0.708484 0.010123
1.308457 -0.732771 0.031414
1.270441 -0.718781 -0.030576
1.322908 -0.748466 -0.010612
1.284903 -0.734383 0.010332
1.293333 -0.739200 0.031204
1.177536 -0.679851 -0.028482
1.273026 -0.734982 -0.010262
1.287084 -0.750605 0.010402
1.321378 -0.770605 0.032042
1.257703 -0.740843 -0.030576
1.309644 -0.771439 -0.010612
1.271891 -0.756695 0.010332
1.280235 -0.761660 0.031204
1.165492 -0.700298 -0.028482
1.294291 -0.777689 -0.010542
1.307983 -0.793704 0.010681
1.307728 -0.793549 0.032042
1.244582 -0.762681 -0.030576
1.355665 -0.830752 -0.011100
1.292504 -0.799826 0.010612
1.258245 -0.778626 0.030995
1.246357 -0.778811 -0.030785
1.314443 -0.821355 -0.010821
1.293932 -0.816410 0.010681
1.276769 -0.805581 0.031623
1.214217 -0.773542 -0.030157
1.307225 -0.832794 -0.010821
1.244707 -0.800623 0.010332
1.244465 -0.800467 0.030995
1.240960 -0.805889 -0.030995
1.308294 -0.849616 -0.010891
1.237673 -0.811454 0.010332
1.229071 -0.805814 0.030785
1.208869 -0.800133 -0.030367
1.325846 -0.877558 -0.011100
1.297061 -0.866668 0.010891
1.271870 -0.849836 0.032042
1.193552 -0.805061 -0.030157
1.284977 -0.866728 -0.010821
1.264652 -0.861071 0.010681
1.264405 -0.860903 0.032042
1.268876 -0.872074 -0.032251
1.318570 -0.906228 -0.011170
1.281738 -0.889173 0.010891
1.289703 -0.894699 0.032880
1.228459 -0.860176 -0.031414
1.269655 -0.889022 -0.010821
1.249431 -0.883011 0.010681
1.290011 -0.911689 0.033089
1.253463 -0.894086 -0.032251
1.302553 -0.929102 -0.011170
1.266025 -0.911407 0.010891
1.241436 -0.893706 0.032042
1.229436 -0.893238 -0.031832
1.205406 -0.875779 -0.010402
1.233830 -0.904682 0.010681
1.233590 -0.904505 0.032042
1.173374 -0.868251 -0.030576
1.278101 -0.945745 -0.011100
1.281975 -0.957296 0.011170
1.257693 -0.939164 0.032880
1.213660 -0.914558 -0.031832
1.309730 -0.986953 -0.011449
1.273572 -0.968447 0.011170
1.297199 -0.986413 0.034136
1.277019 -0.979891 -0.033717
1.332801 -1.022694 -0.011729
1.265072 -0.979524 0.011170
1.272731 -0.985454 0.033717
1.260541 -0.984842 -0.033508
1.292306 -1.009660 -0.011449
1.256477 -0.990526 0.011170
1.279786 -1.008902 0.034136
1.236250 -0.983357 -0.033089
1.346053 -1.070699 -0.012008
1.278979 -1.026489 0.011449
1.286527 -1.032547 0.034555
1.266470 -1.025567 -0.034136
1.305573 -1.057232 -0.011729
1.277717 -1.043938 0.011519
1.316179 -1.075363 0.035602
1.242043 -1.023861 -0.033717
1.304014 -1.074946 -0.011798
1.291623 -1.074231 0.011729
1.291371 -1.074022 0.035183
1.194767 -1.002529 -0.032670
1.225641 -1.028435 -0.011170
1.259303 -1.066079 0.011519
1.274319 -1.078790 0.034974
1.231588 -1.051875 -0.033927
1.285055 -1.097540 -0.011798
1.272678 -1.096610 0.011729
1.242134 -1.070291 0.034346
1.290270 -1.121615 -0.035812
1.267881 -1.102152 -0.011729
1.293133 -1.134047 0.012008
1.285364 -1.127234 0.035812
1.235506 -1.093083 -0.034555
1.310641 -1.159557 -0.012217
1.283187 -1.145289 0.012008
1.282937 -1.145065 0.036021
1.248209 -1.123893 -0.035183
1.307903 -1.177641 -0.012287
1.287948 -1.169890 0.012147
1.280297 -1.162939 0.036230
1.238354 -1.134743 -0.035183
1.297577 -1.189010 -0.012287
1.263004 -1.167509 0.012008
1.277441 -1.180854 0.036440
1.243029 -1.159143 -0.035602
1.287151 -1.200288 -0.012287
1.267335 -1.192189 0.012147
1.259805 -1.185107 0.036230
1.247370 -1.183710 -0.036021
1.305642 -1.239008 -0.012566
1.300223 -1.244693 0.012566
1.307192 -1.251364 0.037906
1.265760 -1.222331 -0.036859
1.294780 -1.250355 -0.012566
1.267824 -1.235059 0.012357
1.310545 -1.276677 0.038325
1.233653 -1.212307 -0.036230
1.305217 -1.282633 -0.012776
1.278303 -1.267196 0.012566
1.285154 -1.273987 0.037906
1.244235 -1.244235 -0.036859
1.272761 -1.272761 -0.012566
1.274236 -1.285404 0.012636
1.316219 -1.327755 0.039162
1.212307 -1.233653 -0.036230
1.317677 -1.340878 -0.013125
1.255992 -1.289312 0.012566
1.290629 -1.324868 0.038743
1.243166 -1.287336 -0.037487
1.250355 -1.294780 -0.012566
1.279268 -1.336341 0.012915
1.292846 -1.350524 0.039162
1.197474 -1.261875 -0.036440
1.294075 -1.363671 -0.013125
1.260706 -1.340170 0.012846
1.294712 -1.376319 0.039581
1.200054 -1.286900 -0.036859
1.227567 -1.316405 -0.012566
1.282902 -1.387836 0.013195
1.262293 -1.365540 0.038953
1.249568 -1.363664 -0.038743
1.324125 -1.445028 -0.013683
1.264019 -1.391576 0.013125
1.263772 -1.391305 0.039372
1.311208 -1.456244 -0.041047
1.271317 -1.411941 -0.013264
1.305096 -1.462237 0.013683
1.318157 -1.476870 0.041466
1.271951 -1.437680 -0.040209
1.292078 -1.460428 -0.013613
1.292286 -1.473570 0.013683
1.272258 -1.450733 0.040419
1.285594 -1.478906 -0.041047
1.285844 -1.479195 -0.013683
1.259796 -1.462065 0.013474
1.266076 -1.469354 0.040628
1.279132 -1.497671 -0.041257
1.292370 -1.513171 -0.013893
1.266372 -1.495899 0.013683
1.266125 -1.495608 0.041047
1.291720 -1.539412 -0.042094
1.311255 -1.562693 -0.014242
1.285241 -1.545334 0.014032
1.291384 -1.552720 0.042304
1.265380 -1.548748 0.013963
1.265133 -1.548446 0.041885
1.283112 -1.598724 0.014312
1.289120 -1.606210 0.043141
1.287684 -1.633419 0.014521
1.293623 -1.640952 0.043770
1.303991 -1.684128 0.014870
1.309858 -1.691705 0.044817
1.283192 -1.687483 0.014800
1.264787 -1.663279 0.043770
1.286367 -1.722654 0.015010
1.298080 -1.738339 0.045445
1.288772 -1.757664 0.045654
1.279476 -1.777304 0.015289
0.128507 -0.178507 0.004607
1.290909 -1.793185 0.046283
1.258146 -1.780235 0.015219
1.309832 -1.853370 0.047539
0.176660 -0.254655 0.006492
0.155556 -0.232806 0.001955
0.166635 -0.249386 0.006283
0.131587 -0.200704 0.001676
0.148007 -0.225748 0.005654
0.151469 -0.235485 0.001955
0.162257 -0.252256 0.006283
0.149408 -0.236798 0.001955
0.117369 -0.186019 0.004607
0.147336 -0.238093 0.001955
0.157830 -0.255050 0.006283
0.145253 -0.239369 0.001955
0.119292 -0.196587 0.004817
0.138046 -0.232034 0.001885
0.127795 -0.214804 0.005236
0.110806 -0.190002 0.004607