# This PCD file was generated using the MATLAB® pcwrite function
# from Computer Vision System Toolbox®.
# .PCD v.7 - Point Cloud Data file format
VERSION .7
FIELDS x y z
SIZE 4 4 4
TYPE F F F
COUNT 1 1 1
WIDTH 1007
HEIGHT 1
VIEWPOINT 0 0 0 1 0 0 0
POINTS 1007
DATA ascii
29.542839 32.240353 -0.305291
29.667240 31.814220 -0.911205
29.495710 31.630278 -0.301940
29.833626 31.438082 -0.907854
29.660477 31.255619 -0.300822
29.940155 31.003937 -0.902828
29.848743 30.909279 -0.299985
30.048397 30.577471 -0.898011
30.040239 30.569170 -0.299217
30.109074 30.109074 -0.891938
29.994740 29.994740 -0.296145
30.085436 29.564877 -0.883561
29.991451 29.472517 -0.293562
30.090576 29.058132 -0.876231
30.082058 29.049906 -0.291956
30.139948 28.601742 -0.870367
30.073288 28.538485 -0.289443
30.088604 28.058077 -0.861781
30.028650 28.002171 -0.286651
30.007978 27.497246 -0.852566
30.006456 27.495852 -0.284137
30.016466 27.026947 -0.846074
30.037182 27.045601 -0.282183
30.221224 26.737480 -0.845236
30.212137 26.729441 -0.281624
30.211945 26.262842 -0.838534
30.142366 26.202358 -0.278832
30.227110 25.816391 -0.832671
30.217796 25.808437 -0.277435
30.175531 25.320278 -0.825131
30.265678 25.395920 -0.275830
30.241051 24.928799 -0.820943
29.992317 24.723759 -0.271362
30.239887 24.487778 -0.815079
30.105902 24.379278 -0.270454
30.264645 24.073586 -0.810053
30.231417 24.047153 -0.269686
30.316004 23.685457 -0.805864
30.243116 23.628511 -0.267941
30.362906 23.298277 -0.801676
30.265692 23.223682 -0.266335
30.373432 22.888023 -0.796650
30.331438 22.856377 -0.265148
30.379126 22.479370 -0.791623
30.312704 22.430222 -0.263263
30.452810 22.125261 -0.788482
30.345488 22.047287 -0.261867
30.441242 21.713528 -0.783247
30.406473 21.688726 -0.260750
30.408445 21.292223 -0.777592
30.430758 21.307846 -0.259354
30.387108 20.884481 -0.772356
30.417757 20.905544 -0.257678
30.434294 20.721972 0.257050
30.395304 20.695425 0.770262
30.443872 20.534651 -0.769215
30.433228 20.527472 -0.256282
30.356216 20.283375 0.254886
30.317047 20.257202 0.763770
30.488516 20.179909 -0.765864
30.377720 20.106575 -0.254327
30.231009 19.820316 0.252373
30.200031 19.800009 0.756440
30.529299 19.825958 -0.762514
30.392681 19.737238 -0.253001
30.402819 19.555750 0.252373
30.279173 19.476219 0.754137
30.532507 19.451351 -0.758325
30.487858 19.422907 -0.252373
30.479288 19.230999 0.251605
30.447979 19.211245 0.754137
30.590864 19.115294 -0.755603
30.554428 19.092525 -0.251535
30.535404 18.895882 0.250697
29.968342 18.544973 0.738220
30.628643 18.769257 -0.752461
30.080412 18.433300 -0.246299
29.391153 17.834990 0.240016
30.528158 18.524942 0.249301
30.317074 18.396852 0.742828
30.559883 18.362230 -0.746807
30.574413 18.370960 -0.249022
30.327713 18.043093 0.246369
30.330393 18.044687 0.739267
30.606970 18.028883 -0.744084
30.656019 18.057775 -0.248393
30.337164 17.692110 0.245182
30.279430 17.658442 0.734241
30.693867 17.721113 -0.742409
30.509331 17.614571 -0.245950
30.360172 17.352268 0.244135
30.258774 17.294313 0.730053
30.473171 17.240891 -0.733404
30.348564 17.170391 -0.243437
30.335947 16.988947 0.242738
30.234079 16.931898 0.725864
30.412601 16.857981 -0.728377
30.331072 16.812788 -0.242110
30.412910 16.685093 0.242180
30.240438 16.590473 0.722513
30.417976 16.515614 -0.725027
30.362391 16.485434 -0.241203
30.381182 16.324398 0.240784
30.207926 16.231304 0.718325
30.278460 16.099342 -0.718325
30.363829 16.144733 -0.240086
30.310087 15.946909 0.239108
30.348419 15.967075 0.718325
30.408932 15.829887 -0.718116
30.405991 15.828357 -0.239318
30.448095 15.681800 0.239108
30.486601 15.701631 0.718325
30.510281 15.545764 -0.717278
30.498409 15.539716 -0.238969
30.467699 15.356984 0.238201
30.443903 15.344991 0.714137
30.546358 15.229853 -0.714974
30.606009 15.259593 -0.238759
30.537773 15.059563 0.237712
30.504919 15.043362 0.712461
30.489393 14.870671 -0.710576
30.558252 14.904256 -0.237363
30.532927 14.727335 0.236665
30.490953 14.707090 0.709110
30.554834 14.573909 -0.709110
30.569818 14.581056 -0.236455
30.470352 14.370750 0.235199
30.437283 14.355155 0.704922
30.572119 14.256013 -0.706597
30.550892 14.246115 -0.235338
30.449299 14.037319 0.234082
30.452442 14.038768 0.702409
30.649872 13.967951 -0.705550
30.564854 13.929207 -0.234501
30.570637 13.771068 0.234082
30.582909 13.776595 0.702618
30.670128 13.655221 -0.703246
30.621298 13.633480 -0.234012
30.543200 13.439329 0.232965
30.436583 13.392417 0.696545
30.668932 13.335231 -0.700524
30.619890 13.313907 -0.233104
30.585814 13.140703 0.232406
30.442062 13.078942 0.694032
30.646090 13.008493 -0.697383
30.596836 12.987586 -0.232057
30.662436 12.857826 0.232127
30.591917 12.828256 0.694870
30.675310 12.706129 -0.695498
30.662815 12.700953 -0.231708
30.634644 12.532964 0.231080
30.600912 12.519163 0.692566
30.599627 12.363051 -0.691309
30.661222 12.387938 -0.230870
30.594240 12.205865 0.229963
30.625422 12.218304 0.690681
30.752859 12.113873 -0.692356
30.740248 12.108906 -0.230661
30.652992 11.920297 0.229614
30.544518 11.878113 0.686493
30.698727 11.784137 -0.688796
30.686041 11.779267 -0.229474
30.643635 11.609835 0.228776
30.609612 11.596945 0.685655
30.725475 11.487784 -0.687121
30.637800 11.455005 -0.228357
30.631201 11.300447 0.227938
30.109337 11.107921 0.672252
30.674234 11.164509 -0.683770
30.736597 11.187206 -0.228357
30.389833 10.911065 0.225425
29.217106 10.490013 0.650262
30.732798 10.883055 -0.682932
30.644527 10.851796 -0.226961
29.407656 10.269613 0.217466
28.939421 10.106098 0.642095
30.609177 10.539585 -0.678116
30.019484 10.336537 -0.221655
29.032169 9.855094 0.214045
28.922371 9.817822 0.639791
22.375530 7.486748 -0.494241
30.425032 10.180074 -0.672042
29.084377 9.731497 -0.214115
28.955620 9.548132 0.212859
29.329773 9.671509 0.646911
22.544605 7.325186 -0.496545
24.522367 7.967801 -0.540105
29.219557 9.494010 -0.643561
28.939945 9.403158 -0.212440
29.875929 9.563360 0.219002
29.536839 9.454817 0.649634
22.741161 7.170260 -0.499477
28.996172 9.142458 -0.636859
22.602541 7.126554 -0.165456
28.982752 9.138227 -0.212160
29.719496 9.228148 0.217257
29.513193 9.164090 0.647330
22.516037 6.883843 -0.493194
29.036606 8.877381 -0.636021
29.606474 9.051607 -0.216140
29.243517 8.801299 0.213208
29.228243 8.796702 0.639372
24.722538 7.323149 -0.540105
29.343035 8.691803 -0.641047
29.319992 8.684978 -0.213487
29.376810 8.562559 0.213627
29.207911 8.513330 0.637278
24.843164 7.123663 -0.541362
29.408157 8.432653 -0.640838
29.192806 8.370902 -0.212021
29.306047 8.265161 0.212579
29.752590 8.391098 0.647540
29.634771 8.218450 -0.644189
29.264744 8.115831 -0.212021
29.232344 7.969652 0.211532
29.708933 8.099585 0.645027
29.434961 7.887074 -0.638325
29.402065 7.878260 -0.212510
29.494183 7.765170 0.212928
29.778482 7.840020 0.645027
29.657537 7.669961 -0.641676
29.992483 7.756584 -0.216279
29.832201 7.576414 0.214883
29.903906 7.594625 0.646283
29.917356 7.459235 -0.645864
30.088137 7.501815 -0.216489
29.926319 7.322924 0.215093
30.007887 7.342883 0.647121
30.107693 7.228217 -0.648587
30.045498 7.213286 -0.215721
30.105886 7.088995 0.215930
30.022163 7.069281 0.646074
30.042982 6.935969 -0.645864
30.000124 6.926074 -0.214953
30.088577 6.808350 0.215372
30.053457 6.800403 0.645445
30.004757 6.651895 -0.643770
30.137524 6.681328 -0.215512
30.058897 6.526426 0.214744
30.023726 6.518790 0.643561
30.169235 6.412669 -0.646074
30.165337 6.411840 -0.215302
30.046173 6.249613 0.214255
30.001163 6.240251 0.641885
30.155468 6.135199 -0.644608
30.141748 6.132408 -0.214744
30.050529 5.977422 0.213906
30.064281 5.980157 0.642095
30.158787 5.862275 -0.643561
30.115587 5.853878 -0.214185
30.072073 5.709362 0.213696
30.036745 5.702654 0.640419
25.057671 4.644165 -0.533822
30.208797 5.598869 -0.643561
30.116364 5.581738 -0.213836
30.071550 5.437822 0.213347
30.036173 5.431425 0.639372
24.723099 4.359349 -0.525864
30.177738 5.321149 -0.641885
30.124535 5.311769 -0.213557
30.078438 5.168421 0.213068
30.043015 5.162334 0.638534
25.075743 4.196240 -0.532566
30.094835 5.036148 -0.639163
30.090841 5.035480 -0.212998
30.053307 4.894492 0.212579
30.017845 4.888716 0.637068
30.108013 4.768641 -0.638534
30.143513 4.774263 -0.213068
30.045458 4.624438 0.212230
30.009956 4.618974 0.636021
24.897957 3.721025 -0.527330
30.148479 4.505721 -0.638534
30.144468 4.505121 -0.212789
30.084669 4.362070 0.212230
30.098593 4.364088 0.637068
25.454208 3.577356 -0.538430
30.067846 4.225760 -0.636021
30.063807 4.225193 -0.211951
30.091864 4.095323 0.212021
30.056278 4.090480 0.635393
30.192787 3.974956 -0.637906
30.129274 3.966594 -0.212160
30.126455 3.832569 0.212021
30.130501 3.833084 0.636231
30.186632 3.706452 -0.637068
30.162743 3.703519 -0.212160
30.109102 3.563647 0.211672
30.123089 3.565303 0.635393
30.168159 3.437227 -0.636021
30.164106 3.436766 -0.211951
30.139053 3.300763 0.211672
30.063610 3.292501 0.633508
30.206949 3.174878 -0.636231
30.153170 3.169226 -0.211672
30.087114 3.029613 0.211113
30.101145 3.031026 0.633718
30.153891 2.903489 -0.634555
30.169724 2.905014 -0.211602
30.112408 2.766942 0.211113
30.116493 2.767317 0.633508
30.207958 2.642854 -0.635184
30.164040 2.639012 -0.211393
30.145372 2.504887 0.211183
30.149458 2.505227 0.633718
30.199970 2.376789 -0.634555
30.185921 2.375684 -0.211393
30.126194 2.238763 0.210904
30.090410 2.236104 0.632042
30.219563 2.113158 -0.634555
30.205503 2.112175 -0.211393
30.144583 1.975780 0.210904
30.188589 1.978665 0.633718
30.236851 1.849365 -0.634555
30.182861 1.846063 -0.211113
30.160677 1.712647 0.210904
30.164780 1.712880 0.632880
30.171967 1.581246 -0.632880
30.157877 1.580507 -0.210834
30.174475 1.449384 0.210904
30.178577 1.449581 0.632880
30.184616 1.317889 -0.632880
30.200491 1.318582 -0.211043
30.185974 1.186010 0.210904
30.190079 1.186171 0.632880
30.274900 1.057223 -0.634555
30.220842 1.055335 -0.211113
30.195173 0.922546 0.210904
30.199280 0.922671 0.632880
30.282974 0.792988 -0.634555
30.228901 0.791572 -0.211113
30.202074 0.659012 0.210904
30.206182 0.659101 0.632880
30.288740 0.528692 -0.634555
30.274651 0.528446 -0.211393
30.246672 0.395951 0.211183
30.210783 0.395481 0.632880
30.292202 0.264356 -0.634555
30.278109 0.264233 -0.211393
30.248976 0.131987 0.211183
30.243078 0.131961 0.633508
30.293354 0.000000 -0.634555
30.309261 0.000000 -0.211602
30.288973 -0.132161 0.211462
30.243078 -0.131961 0.633508
30.292202 -0.264356 -0.634555
30.308107 -0.264495 -0.211602
30.286667 -0.396474 0.211462
30.240774 -0.395873 0.633508
30.368711 -0.530088 -0.636231
30.354637 -0.529842 -0.211951
30.272057 -0.660539 0.211393
30.326128 -0.661718 0.635393
30.272980 -0.792726 -0.634346
30.308872 -0.793666 -0.211672
30.355095 -0.927432 0.212021
30.319199 -0.926335 0.635393
30.344843 -1.059665 -0.636021
30.330772 -1.059174 -0.211881
30.345846 -1.192291 0.212021
30.309959 -1.190882 0.635393
30.424335 -1.328355 -0.637906
30.360336 -1.325561 -0.212160
30.334286 -1.457060 0.212021
30.338358 -1.457256 0.636231
30.411585 -1.593804 -0.637906
30.397543 -1.593068 -0.212510
30.400286 -1.726253 0.212579
30.404341 -1.726484 0.637906
30.386539 -1.858520 -0.637697
30.422407 -1.860714 -0.212789
30.384064 -1.991477 0.212579
30.398092 -1.992396 0.638116
30.458925 -2.129895 -0.639582
30.444912 -2.128916 -0.213068
30.455278 -2.263218 0.213208
30.289816 -2.250922 0.636231
30.469080 -2.397969 -0.640210
30.455082 -2.396867 -0.213278
30.304819 -2.518136 0.212300
30.269020 -2.515162 0.636231
30.486832 -2.667252 -0.641047
30.423044 -2.661671 -0.213208
30.321522 -2.786156 0.212579
30.245918 -2.779210 0.636231
30.502203 -2.937028 -0.641885
30.368797 -2.924183 -0.212998
30.296053 -3.050652 0.212579
30.260303 -3.047052 0.637068
30.356094 -3.190554 -0.639372
30.352068 -3.190131 -0.213068
30.308039 -3.319270 0.212859
30.272316 -3.315358 0.637906
30.327097 -3.455336 -0.639372
30.352880 -3.458274 -0.213278
30.277920 -3.583628 0.212859
30.242231 -3.579404 0.637906
30.375174 -3.729603 -0.641047
30.321547 -3.723018 -0.213278
30.245493 -3.847713 0.212859
30.249516 -3.848224 0.638744
30.391033 -4.001055 -0.642095
30.327559 -3.992699 -0.213557
30.329666 -4.127687 0.213696
30.294033 -4.122837 0.640419
30.315357 -4.260546 -0.641257
30.301464 -4.258593 -0.213627
30.282595 -4.390767 0.213627
30.296480 -4.392780 0.641257
30.356129 -4.536754 -0.642932
30.302708 -4.528770 -0.213906
30.371609 -4.674638 0.214534
30.602842 -4.710228 0.648587
30.394381 -4.813997 -0.644608
30.380552 -4.811807 -0.214744
30.566532 -4.978076 0.216210
30.807268 -5.017282 0.653822
30.430098 -5.092252 -0.646283
30.366993 -5.081692 -0.214953
30.837297 -5.298817 0.218444
30.801725 -5.292705 0.654660
30.423885 -5.364552 -0.647121
30.872971 -5.443738 -0.218863
30.829245 -5.574835 0.218723
30.793718 -5.568411 0.655498
30.788790 -5.706365 -0.655917
30.902948 -5.727523 -0.219421
30.710651 -5.830599 0.218234
30.783243 -5.844381 0.656335
30.943916 -6.014888 -0.660315
30.861607 -5.998888 -0.219491
30.844946 -6.135441 0.219561
30.809515 -6.128394 0.658011
30.772684 -6.260774 -0.657801
30.798283 -6.265982 -0.219421
30.868551 -6.420668 0.220119
30.833168 -6.413308 0.659686
30.883127 -6.564411 -0.661362
30.908710 -6.569849 -0.220608
30.850433 -6.698286 0.220398
30.854191 -6.699101 0.661362
30.902752 -6.850976 -0.663037
30.850203 -6.839325 -0.220608
30.907845 -6.993731 0.221236
30.872566 -6.985748 0.663037
30.948948 -7.145128 -0.665341
30.935495 -7.142022 -0.221655
30.884571 -7.272351 0.221515
30.888283 -7.273225 0.664712
30.963190 -7.433604 -0.667016
30.910887 -7.421047 -0.221934
30.897638 -7.560604 0.222074
30.862480 -7.552001 0.665550
30.945644 -7.715616 -0.668063
30.932274 -7.712282 -0.222563
30.946789 -7.859483 0.222912
30.921375 -7.853029 0.668273
30.954571 -8.005397 -0.669739
30.941244 -8.001950 -0.223121
30.915705 -8.139426 0.223191
30.919346 -8.140385 0.669739
30.989761 -8.303681 -0.672042
30.986145 -8.302712 -0.223959
30.920681 -8.429945 0.223749
30.924297 -8.430931 0.671414
31.002827 -8.597845 -0.673927
30.989599 -8.594176 -0.224517
30.961430 -8.732026 0.224587
30.926527 -8.722182 0.673089
30.993891 -8.887355 -0.675393
30.980709 -8.883575 -0.225006
30.951254 -9.021467 0.225076
30.926022 -9.014113 0.674765
30.991844 -9.180202 -0.677068
30.988298 -9.179152 -0.225634
30.957527 -9.317159 0.225704
30.913198 -9.303817 0.676231
25.097494 -7.673074 -0.549739
30.987040 -9.473689 -0.678744
30.973957 -9.469688 -0.226123
30.951443 -9.610679 0.226263
30.954956 -9.611770 0.678953
31.027143 -9.782821 -0.681466
30.975971 -9.766686 -0.226751
31.018776 -9.929188 0.227380
30.984163 -9.918109 0.681466
24.912216 -8.094470 -0.548691
31.045185 -10.087193 -0.683770
31.041729 -10.086069 -0.227868
31.006922 -10.224549 0.227938
30.972391 -10.213163 0.683142
30.993902 -10.370415 -0.684608
30.980978 -10.366091 -0.228078
31.030144 -10.533315 0.228776
30.995693 -10.521620 0.685655
31.062925 -10.695824 -0.688168
31.050074 -10.691398 -0.229265
28.397505 -9.916853 0.209996
31.050331 -10.843261 0.229614
25.097822 -8.764551 0.556859
31.015961 -10.831259 0.688168
27.669884 -9.798420 -0.614869
31.043800 -10.993186 -0.689843
27.571592 -9.763613 -0.204202
30.983871 -10.971964 -0.229474
27.679312 -9.937888 0.205319
31.058052 -11.150980 0.230382
25.048611 -8.993370 0.557487
27.871519 -10.006898 0.620314
31.023767 -11.138671 0.690472
27.846380 -10.135254 -0.620733
31.125189 -11.328642 -0.693822
24.882454 -9.056473 -0.184864
27.645082 -10.061988 -0.205389
31.112465 -11.324011 -0.231150
27.732260 -10.230971 0.206366
31.109667 -11.476962 0.231499
23.534058 -8.682173 0.525445
25.091114 -9.256600 0.560210
31.066082 -11.460883 0.693613
24.535429 -9.173421 -0.548691
31.100061 -11.627836 -0.695498
24.690077 -9.231241 -0.184026
27.584324 -10.313356 -0.205598
31.106125 -11.630104 -0.231848
24.640213 -9.335341 0.183956
26.725513 -10.125391 0.199524
31.045732 -11.762176 0.231778
23.999657 -9.092656 0.537592
31.067728 -11.770509 0.695917
24.025089 -9.222368 -0.539058
31.128078 -11.948950 -0.698430
24.636587 -9.457100 -0.184235
31.106142 -11.940529 -0.232616
24.744205 -9.622496 0.185352
31.016466 -12.061644 0.232336
23.602581 -9.178542 0.530472
24.925743 -9.693091 0.560210
31.038374 -12.070164 0.697592
23.897184 -9.413352 -0.538011
31.134247 -12.264106 -0.700943
31.103102 -12.251838 -0.233384
24.770746 -9.882526 0.186190
31.095785 -12.405961 0.233733
23.568016 -9.402685 0.531519
31.126867 -12.418361 0.701990
23.322830 -9.423035 -0.526911
31.109467 -12.569040 -0.702828
23.957848 -9.679599 -0.180396
26.618799 -10.754693 -0.200432
31.096989 -12.563999 -0.234151
24.757605 -10.128604 0.186749
26.728958 -10.935105 0.201619
23.466560 -9.600423 0.531100
25.974224 -10.626336 0.587854
31.100594 -12.723589 0.703875
24.144915 -10.001151 -0.547435
31.155622 -12.905081 -0.706388
23.687695 -9.811764 -0.179000
26.570127 -11.005708 -0.200781
31.161697 -12.907598 -0.235478
24.078081 -10.096777 0.182281
31.160412 -13.066645 0.235897
23.077627 -9.677253 0.524189
31.099016 -13.040900 0.706388
23.495335 -9.973178 -0.534660
31.152256 -13.223348 -0.708901
23.555145 -9.998566 -0.178650
26.445459 -11.225431 -0.200572
31.195148 -13.241555 -0.236595
23.456167 -10.077565 0.178232
26.552420 -11.407820 0.201758
23.396481 -10.051921 0.533403
31.149376 -13.382829 0.710157
23.334061 -10.145938 -0.532985
31.219048 -13.574428 -0.713089
23.439484 -10.191778 -0.178441
26.447369 -11.499643 -0.201340
31.188454 -13.561126 -0.237433
26.424398 -11.627013 0.201549
31.147291 -13.705136 0.237572
23.115698 -10.171150 0.529006
31.159521 -13.710517 0.713089
23.025431 -10.251582 -0.527958
24.952589 -11.109608 -0.572147
31.190735 -13.887010 -0.715184
23.486681 -10.456944 -0.179488
31.187681 -13.885651 -0.238340
23.149075 -10.427897 0.177254
31.163267 -14.038029 0.238619
23.162792 -10.434077 0.532147
31.148077 -14.031185 0.715603
23.308094 -10.622110 -0.536545
31.250315 -14.241589 -0.719372
23.904100 -10.893726 -0.183398
31.238209 -14.236073 -0.239667
23.592985 -10.876515 0.181373
31.193958 -14.380611 0.239806
23.143492 -10.669296 0.533822
31.160639 -14.365251 0.718744
23.857851 -11.125098 -0.551414
31.242640 -14.568682 -0.722095
23.572491 -10.992033 -0.181583
31.221542 -14.558845 -0.240504
22.529428 -10.625568 0.173903
24.021744 -11.329390 0.185422
31.211987 -14.720529 0.240923
23.176102 -10.930559 0.536754
31.151646 -14.692070 0.721466
23.606453 -11.259701 -0.547854
31.213577 -14.888113 -0.724398
23.286133 -11.106915 -0.180117
31.210638 -14.886711 -0.241412
22.597969 -10.899966 0.175160
24.129118 -11.638505 0.187028
31.208433 -15.053162 0.241901
25.898399 -12.491905 0.602304
31.166328 -15.032853 0.724817
23.633099 -11.526632 -0.550786
31.298130 -15.265119 -0.729424
22.828812 -11.134356 -0.177324
31.223345 -15.228642 -0.242529
23.954887 -11.813243 0.186469
31.201443 -15.386848 0.242878
23.618446 -11.647329 0.551623
25.743568 -12.695323 0.601257
31.204327 -15.388270 0.728796
22.851610 -11.393393 -0.534869
31.244253 -15.577810 -0.731309
22.999252 -11.467005 -0.179418
31.241398 -15.576386 -0.243716
23.797308 -11.994831 0.186051
31.271360 -15.762063 0.244484
23.917660 -12.055492 0.561047
31.265265 -15.758990 0.733404
23.152182 -11.796625 -0.544293
24.292419 -12.377605 -0.571100
31.320919 -15.958805 -0.736335
23.112146 -11.776227 -0.181094
31.273567 -15.934678 -0.245042
23.825079 -12.270721 0.187098
31.274860 -16.107613 0.245601
24.042639 -12.382773 0.566492
31.188770 -16.063272 0.734870
23.137037 -12.044379 -0.546388
31.322351 -16.305384 -0.739686
23.132679 -12.042110 -0.182071
31.284109 -16.285477 -0.246229
22.566635 -11.872881 0.178022
31.310099 -16.473040 0.246997
22.473757 -11.824015 0.531937
24.092928 -12.675902 0.570262
31.259756 -16.446552 0.739896
22.501398 -11.964206 -0.533822
31.355421 -16.671972 -0.743875
23.167980 -12.318634 -0.183188
31.326218 -16.656445 -0.247695
22.259567 -11.960497 0.176416
23.589680 -12.675192 0.186958
25.245714 -13.565011 0.200083
22.272840 -11.967629 0.529634
23.972588 -12.880936 0.570053
25.822052 -13.874689 0.614032
22.633364 -12.288914 -0.539477
31.349318 -17.021290 -0.747226
23.200207 -12.596684 -0.184305
31.346643 -17.019838 -0.249022
21.943935 -12.038856 0.174741
23.855154 -13.087385 0.189960
31.359753 -17.204550 0.249720
22.412987 -12.296185 0.535498
23.041174 -12.771932 -0.551833
31.418194 -17.415390 -0.752461
23.360523 -12.948950 -0.186469
31.389336 -17.399393 -0.250557
22.117235 -12.386247 0.176975
23.827286 -13.343921 0.190658
25.441364 -14.247849 0.203574
22.636305 -12.676940 0.543456
31.280846 -17.518114 0.750995
23.738096 -13.430368 -0.571309
31.439054 -17.787361 -0.756650
23.324965 -13.196630 -0.187098
31.436481 -17.785906 -0.252163
21.661032 -12.380301 0.174182
23.649158 -13.516608 0.190170
25.541786 -14.598333 0.205389
21.717569 -12.412614 0.523979
23.236586 -13.280803 0.560629
31.343784 -17.914448 0.756231
31.317268 -18.081034 -0.757487
22.039810 -12.724689 -0.177673
31.358015 -18.104559 -0.252791
21.517618 -12.548704 0.173903
31.330551 -18.271437 0.253210
22.195704 -12.944152 0.538220
31.324442 -18.267876 0.759582
21.880581 -12.888647 -0.531937
31.459795 -18.531237 -0.764817
21.643597 -12.749053 -0.175369
22.944626 -13.515417 -0.185911
21.519012 -12.802467 0.174811
23.813572 -14.167586 0.193451
31.376163 -18.666855 0.254886
21.583555 -12.840865 0.526074
22.726315 -13.520736 0.553927
31.378639 -18.668329 0.764817
21.870111 -13.140889 -0.534451
24.612446 -14.788650 -0.601466
31.434002 -18.887453 -0.768168
21.540089 -12.942592 -0.175439
31.422987 -18.880836 -0.255933
21.560352 -13.083142 0.176067
24.013889 -14.571985 0.196104
23.342524 -14.164591 0.571938
31.385479 -19.045176 0.769006
21.942144 -13.446163 -0.539058
25.224089 -15.457342 -0.619686
21.758846 -13.333838 -0.178162
24.043867 -14.734100 -0.196872
21.742977 -13.454962 0.178511
23.265070 -14.396862 0.191007
26.011641 -16.096491 0.213557
22.350857 -13.831130 0.550576
25.972563 -16.072309 0.639791
31.388119 -19.423557 0.773194
22.146158 -13.838455 -0.547016
24.002975 -14.998724 -0.592880
25.189983 -15.740448 -0.622199
21.599258 -13.496715 -0.177813
23.905893 -14.938060 -0.196802
21.726219 -13.708222 0.179349
31.418022 -19.823296 0.259354
31.403442 -19.814096 0.777801
21.957096 -13.988214 -0.545341
24.073545 -15.336539 -0.597906
22.028849 -14.033924 -0.182351
21.664637 -13.935163 0.179837
31.445683 -20.226543 0.261029
21.921078 -14.100111 0.545969
31.431143 -20.217192 0.782828
22.379208 -14.533228 -0.558953
22.266161 -14.459814 -0.185352
31.474539 -20.439804 -0.262007
21.542206 -14.123690 0.179837
31.468681 -20.631771 0.262705
21.554729 -14.131900 0.539896
27.942554 -18.319941 0.699896
31.462545 -20.627748 0.788063
22.076454 -14.612086 -0.554555
21.738874 -14.388646 -0.182001
27.801075 -18.401131 -0.232755
31.528454 -20.868229 -0.263961
22.839914 -15.261143 0.191775
31.495302 -21.044487 0.264450
22.295124 -14.897126 0.561676
21.691154 -14.630869 -0.548063
31.455076 -21.216717 -0.794765
21.587612 -14.561028 -0.181792
31.510950 -21.254404 -0.265358
22.614944 -15.397967 0.191007
27.450377 -18.690296 0.231848
31.492302 -21.442345 0.265986
22.279972 -15.169893 0.564608
19.206169 -13.200034 -0.488168
21.933428 -15.074428 -0.557487
23.185825 -15.935176 -0.589320
19.069815 -13.106321 -0.161546
21.880016 -15.037719 -0.185352
31.472612 -21.630527 -0.266614
22.241440 -15.429437 0.188983
31.558689 -21.893042 0.268150
22.426043 -15.557499 0.571728
27.412346 -19.016621 0.698849
22.636396 -15.850176 -0.578848
31.546816 -22.089319 -0.806702
19.151308 -13.409890 -0.163222
21.870827 -15.314117 -0.186400
18.774132 -13.268245 0.160499
22.277439 -15.744137 0.190449
31.570593 -22.311890 0.269896
22.444553 -15.862242 0.575707
21.837929 -15.576843 -0.561885
24.678570 -17.603052 -0.634974
31.613312 -22.549557 -0.813404
19.082403 -13.611345 -0.163641
22.916794 -16.346390 -0.196522
27.426884 -19.563406 -0.235199
18.974136 -13.659424 0.163222
22.569323 -16.247587 0.194149
31.536997 -22.703388 0.271292
22.435099 -16.150961 0.579058
31.514620 -22.687281 0.813404
19.153320 -13.915702 -0.495917
21.749697 -15.802079 -0.563142
19.205595 -13.953682 -0.165735
19.152592 -14.043262 0.165805
22.725056 -16.662701 0.196732
31.595730 -23.166948 0.273526
22.446493 -16.458450 0.583037
31.508944 -23.103313 0.818430
19.489254 -14.421289 -0.507854
21.627045 -16.003170 -0.563561
31.624830 -23.401144 -0.824084
19.211710 -14.215919 -0.166852
23.311281 -17.249441 -0.202457
31.606882 -23.387861 -0.274503
19.013290 -14.197897 0.165665
19.386089 -14.476280 0.506807
22.269970 -16.629776 0.582199
23.503632 -17.550993 0.614451
19.418556 -14.632932 -0.509320
21.574398 -16.257475 -0.565864
22.756121 -17.147966 -0.596859
19.190744 -14.461263 -0.167760
22.776529 -17.163345 -0.199106
31.641169 -23.843330 -0.276598
18.984184 -14.435910 0.166503
22.215874 -16.893343 0.194847
19.298815 -14.675160 0.507854
22.299084 -16.956617 0.586807
31.594349 -24.024900 0.831414
18.600056 -14.272325 -0.491100
18.944817 -14.536869 -0.166712
22.395819 -17.184916 -0.197081
23.506487 -18.037161 -0.206855
18.572845 -14.380633 0.163990
18.735233 -14.506368 0.496335
25.786636 -19.966148 0.683142
18.222691 -14.237126 -0.484398
18.360203 -14.344563 -0.162663
22.315920 -17.435108 -0.197709
18.682234 -14.727886 0.166084
18.623632 -14.681688 0.496754
23.318798 -18.383059 0.621990
18.355961 -14.600990 -0.491309
18.171719 -14.454437 -0.162105
31.655729 -25.180103 -0.282392
23.185400 -18.608252 0.207553
31.670338 -25.418133 0.283509
18.728718 -15.031384 0.503037
23.594130 -18.936291 0.633718
18.290003 -14.810953 -0.492985
18.386826 -14.889358 -0.165177
23.135071 -18.734411 -0.207832
31.745640 -25.707111 -0.285184
19.444525 -15.886844 0.175299
23.509987 -19.208466 0.211951
19.502672 -15.934352 0.527540
31.650229 -25.859322 0.856126
23.259378 -19.173552 -0.631414
31.745388 -26.168879 -0.861781
18.341070 -15.119211 -0.165945
23.055580 -19.005554 -0.208600
18.367184 -15.275826 0.166782
23.449104 -19.502415 0.212928
19.539673 -16.250975 0.532356
25.727493 -21.397329 0.700943
18.258493 -15.320696 -0.499267
23.144787 -19.420782 -0.632880
18.376959 -15.420099 -0.167480
22.827568 -19.154604 -0.208042
31.744108 -26.636469 -0.289303
18.202650 -15.409681 0.166503
22.568233 -19.105421 0.206436
18.481436 -15.645691 0.507225
18.618258 -15.901494 -0.512880
18.424187 -15.735743 -0.169156
22.332579 -19.073824 -0.205040
31.723364 -27.094313 -0.291258
18.370502 -15.829039 0.169296
17.965500 -15.480065 0.496754
19.018286 -16.387203 0.525864
22.396284 -19.297873 0.619267
18.131693 -15.761641 -0.503246
31.834213 -27.673059 -0.883561
18.203152 -15.823758 -0.168388
22.436970 -19.504160 -0.207553
19.336849 -16.957962 0.179558
18.656572 -16.361374 0.519791
22.452530 -19.690340 0.625550
18.038385 -15.959016 -0.504503
18.139265 -16.048267 -0.169086
19.307608 -17.081928 -0.179977
22.692806 -20.076899 -0.211532
18.628599 -16.626659 0.174322
22.366255 -19.962646 0.209298
18.781605 -16.763224 0.527330
22.406649 -19.998699 0.629110
17.995020 -16.202789 -0.507225
18.280918 -16.460213 -0.171739
18.660444 -16.949955 0.175998
18.753014 -17.034039 0.530681
19.437740 -17.811407 -0.552252
23.396049 -21.438530 -0.664712
18.542072 -16.990679 -0.175579
22.515902 -20.632023 -0.213208
18.923031 -17.492270 0.179907
18.486185 -17.088453 0.527330
18.140905 -16.916668 -0.519581
18.590557 -17.335976 -0.177464
18.638559 -17.533405 0.178650
18.816978 -17.701246 0.541152
23.069731 -21.701836 0.663456
31.888371 -29.997583 0.917069
18.166643 -17.239500 -0.524608
19.595318 -18.595261 -0.565864
18.039621 -17.118961 -0.173624
19.410545 -18.419920 -0.186819
25.249666 -23.961039 -0.243018
18.347597 -17.564003 0.177324
18.279022 -17.498358 0.530053
19.648054 -18.973904 -0.572147
19.320995 -18.658070 -0.187517
22.536367 -21.763117 -0.218723
18.544605 -18.065355 0.180745
21.610304 -21.051825 0.210625
18.247370 -17.775801 0.533613
21.147757 -20.601233 0.618430
17.542112 -17.238586 -0.515184
18.273031 -17.956858 -0.178860
19.863541 -19.519848 -0.194428
18.066675 -17.909698 0.177603
18.304564 -18.145519 0.539896
18.196938 -18.196938 -0.539058
20.749033 -20.749033 -0.614660
18.271194 -18.271194 -0.180396
18.367296 -18.528284 0.182141
17.892130 -18.048952 0.532356
17.876274 -18.191029 -0.534241
17.879759 -18.194576 -0.178092
19.688061 -20.034718 -0.196104
17.904867 -18.379860 0.179139
18.340887 -18.827448 0.550576
17.814079 -18.447020 -0.537173
19.939268 -20.647717 -0.601257
17.636946 -18.263592 -0.177254
18.635822 -19.467234 0.188145
18.300337 -19.116781 0.554346
22.068256 -23.052801 0.668482
19.840910 -20.907957 -0.603770
18.357969 -19.345263 -0.186190
22.074993 -23.262190 -0.223889
18.184313 -19.330494 0.185283
19.787252 -21.219229 -0.607749
18.304390 -19.629055 -0.187377
19.859308 -21.296501 -0.203294
18.591900 -20.112604 0.191217
22.033335 -23.835527 0.226612
21.309669 -23.052670 0.657592
24.200726 -26.180197 0.746807
20.195717 -22.039757 -0.626178
22.971785 -25.069304 -0.712252
20.192900 -22.036682 -0.208670
21.273817 -23.216297 -0.219840
20.237747 -22.280024 0.210136
22.039646 -24.263760 0.228846
21.094244 -23.222950 0.657173
20.002617 -22.215157 -0.626178
31.890461 -35.417946 -0.998325
20.013208 -22.226919 -0.208809
31.608959 -35.105305 -0.329795
22.020170 -24.671516 0.230870
22.055820 -24.711460 0.693822
19.947113 -22.546110 -0.630576
20.655962 -23.347319 -0.652985
31.288157 -35.364826 -0.329655
20.063404 -22.877928 0.212440
20.863718 -23.790510 0.662828
22.142569 -25.248760 0.703456
19.743046 -22.711777 -0.630367
30.952635 -35.606934 -0.988273
20.409498 -23.478443 -0.217187
20.346025 -23.612724 0.217606
20.263744 -23.517235 0.650262
30.647224 -35.883289 -0.988482
20.034985 -23.457952 -0.215372
30.750616 -36.004345 -0.330563
19.951822 -23.568045 0.215581
21.017900 -24.827347 0.227100
20.102968 -23.746586 0.651728
30.403612 -36.233616 -0.990786
31.836891 -38.279701 0.347597
20.284950 -24.390001 0.664503
31.678783 -38.772896 0.349552
20.191525 -24.713192 0.668482
20.563334 -25.621384 0.688168
30.347246 -38.495296 0.342221
31.857777 -40.411396 1.077906
0.151872 -0.210963 0.005445
0.176695 -0.254704 0.002164
0.136769 -0.197152 0.005026
0.146297 -0.214866 0.005445
0.155556 -0.232806 0.001955
0.166635 -0.249386 0.006283
0.148007 -0.225748 0.005654
0.129831 -0.201844 0.001676
0.118988 -0.184988 0.004607
0.128064 -0.202970 0.001676
0.117369 -0.186019 0.004607
0.126288 -0.204080 0.001676
0.115742 -0.187036 0.004607
0.114127 -0.188076 0.001536
0.140038 -0.230776 0.005654
0.117595 -0.197659 0.001606
0.102236 -0.171844 0.004188
0.130953 -0.224548 0.005445