# This PCD file was generated using the MATLAB® pcwrite function
# from Computer Vision System Toolbox®.
# .PCD v.7 - Point Cloud Data file format
VERSION .7
FIELDS x y z
SIZE 4 4 4
TYPE F F F
COUNT 1 1 1
WIDTH 774
HEIGHT 1
VIEWPOINT 0 0 0 1 0 0 0
POINTS 774
DATA ascii
3.436995 3.953811 -0.109738
3.483588 4.007410 -0.037070
3.451493 3.901204 -0.109110
3.511801 3.969369 -0.037001
3.451957 3.833786 -0.108063
3.486085 3.871690 -0.036372
3.465018 3.781403 -0.107435
3.533251 3.855866 -0.036512
3.463792 3.714462 -0.106387
3.471287 3.722500 -0.035535
3.468546 3.655085 -0.105550
3.517406 3.706573 -0.035674
3.486420 3.610294 -0.105131
3.480154 3.603805 -0.034976
3.475748 3.536946 -0.103874
3.525488 3.587562 -0.035116
3.478202 3.478202 -0.103037
3.478881 3.478881 -0.034348
3.479899 3.419687 -0.102199
3.530504 3.469416 -0.034557
3.444882 3.326684 -0.100314
3.481520 3.362065 -0.033789
3.459277 3.282731 -0.099895
3.503473 3.324672 -0.033719
3.473168 3.238782 -0.099476
3.481159 3.246233 -0.033231
3.486557 3.194841 -0.099058
3.546218 3.249510 -0.033580
3.469725 3.124155 -0.097801
3.477833 3.131455 -0.032672
3.489368 3.087132 -0.097592
3.482559 3.081108 -0.032463
3.493539 3.036887 -0.096963
3.501767 3.044040 -0.032393
3.466691 2.960834 -0.095497
3.520594 3.006871 -0.032323
3.477079 2.917616 -0.095079
3.493078 2.931040 -0.031835
3.463835 2.855365 -0.094031
3.526238 2.906807 -0.031904
3.442002 2.787278 -0.092775
3.450444 2.794114 -0.030997
3.458369 2.750911 -0.092565
3.474695 2.763898 -0.030997
3.458609 2.702161 -0.091937
3.412004 2.665749 -0.030229
3.402739 2.611014 -0.089843
3.482736 2.672398 -0.030648
3.385472 2.551136 -0.088796
3.394118 2.557652 -0.029670
3.455827 2.557177 -0.090052
3.496692 2.587416 -0.030368
3.478010 2.526922 -0.090052
3.462508 2.515660 -0.029880
3.434814 2.450029 -0.088377
3.525034 2.514383 -0.030229
3.456064 2.419962 -0.088377
3.440355 2.408962 -0.029321
3.483698 2.416727 0.029601
3.499448 2.427654 0.089215
3.444092 2.367059 -0.087539
3.502451 2.407168 -0.029670
3.504655 2.386235 0.029601
3.528764 2.402650 0.089424
3.431463 2.314551 -0.086702
3.448712 2.326186 -0.029042
3.500402 2.338894 0.029391
3.508032 2.343992 0.088377
3.443193 2.279000 -0.086492
3.510574 2.323598 -0.029391
3.512316 2.302775 0.029321
3.519993 2.307808 0.088168
3.479720 2.259756 -0.086911
3.438466 2.232966 -0.028623
3.507047 2.255809 0.029112
3.548406 2.282412 0.088377
3.457147 2.202445 -0.085864
3.516857 2.240485 -0.029112
3.518142 2.219782 0.029042
3.483634 2.198010 0.086283
3.476235 2.172193 -0.085864
3.493873 2.183214 -0.028763
3.520372 2.178473 0.028902
3.519686 2.178048 0.086702
3.418337 2.094760 -0.083979
3.487213 2.136967 -0.028553
3.496504 2.121731 0.028553
3.495823 2.121317 0.085654
3.359359 2.018507 -0.082094
3.462872 2.080703 -0.028204
3.523480 2.096251 0.028623
3.514201 2.090730 0.085654
3.454375 2.034782 -0.083979
3.480897 2.050405 -0.028204
3.489810 2.035197 0.028204
3.497766 2.039837 0.084817
3.515292 2.029555 -0.085026
3.412057 1.969952 -0.027506
3.550847 2.029476 0.028553
3.524114 2.014197 0.085026
3.411046 1.929877 -0.082094
3.481338 1.969646 -0.027925
3.489899 1.954437 0.027925
3.497942 1.958941 0.083979
3.488967 1.933966 -0.083560
3.463410 1.919799 -0.027646
3.524356 1.933528 0.028065
3.558730 1.952386 0.085026
3.461780 1.879593 -0.082513
3.541547 1.922903 -0.028134
3.497051 1.879033 0.027716
3.496369 1.878667 0.083141
3.425085 1.821150 -0.081257
3.496387 1.859062 -0.027646
3.477917 1.829821 0.027436
3.512630 1.848084 0.083141
3.423111 1.781959 -0.080838
3.485868 1.814628 -0.027436
3.529312 1.817715 0.027716
3.528624 1.817361 0.083141
3.456347 1.761097 -0.081257
3.492661 1.779599 -0.027367
3.545040 1.786847 0.027716
3.544349 1.786499 0.083141
3.453689 1.721946 -0.080838
3.445413 1.717820 -0.026878
3.524624 1.738152 0.027436
3.523937 1.737813 0.082304
3.378724 1.647914 -0.078743
3.487236 1.700839 -0.027087
3.539658 1.707328 0.027436
3.538968 1.706995 0.082304
3.438096 1.639888 -0.079791
3.492920 1.666037 -0.027017
3.554422 1.676374 0.027436
3.517559 1.658988 0.081466
3.434153 1.601372 -0.079372
3.407634 1.589006 -0.026250
3.496266 1.611801 0.026878
3.522823 1.624043 0.081257
3.457094 1.575489 -0.079581
3.530564 1.608971 -0.027087
3.510198 1.581229 0.026878
3.509514 1.580921 0.080628
3.397644 1.512728 -0.077906
3.471388 1.545562 -0.026529
3.523863 1.550537 0.026878
3.495723 1.538155 0.080000
3.484064 1.514914 -0.079581
3.530595 1.535146 -0.026878
3.537260 1.519727 0.026878
3.536570 1.519431 0.080628
3.451136 1.464920 -0.078534
3.497833 1.484742 -0.026529
3.550387 1.488801 0.026878
3.522035 1.476912 0.080000
3.399131 1.407966 -0.077068
3.519895 1.457988 -0.026599
3.526223 1.442616 0.026599
3.488523 1.427192 0.078953
3.466907 1.400721 -0.078325
3.486126 1.408486 -0.026250
3.492239 1.393262 0.026250
3.537988 1.411514 0.079791
3.441790 1.355757 -0.077487
3.488981 1.374346 -0.026180
3.550864 1.380855 0.026599
3.512899 1.366092 0.078953
3.490825 1.340002 -0.078325
3.510177 1.347431 -0.026250
3.516023 1.332102 0.026250
3.534036 1.338926 0.079162
3.483656 1.302486 -0.077906
3.512435 1.313246 -0.026180
3.536895 1.304829 0.026319
3.498686 1.290733 0.078115
3.485495 1.268616 -0.077696
3.495571 1.272284 -0.025970
3.510501 1.260399 0.026040
3.500407 1.256775 0.077906
3.430463 1.214790 -0.076230
3.506541 1.241731 -0.025970
3.521366 1.229716 0.026040
3.520680 1.229476 0.078115
3.440933 1.184808 -0.076230
3.451059 1.188295 -0.025482
3.494087 1.186083 0.025761
3.540742 1.201920 0.078325
3.422698 1.145219 -0.075602
3.527678 1.180345 -0.025970
3.542291 1.168073 0.026040
3.551096 1.170976 0.078325
3.451578 1.121486 -0.076021
3.499803 1.137155 -0.025691
3.514255 1.124922 0.025761
3.513570 1.124703 0.077278
3.470768 1.094329 -0.076230
3.538204 1.115591 -0.025900
3.523938 1.094212 0.025761
3.561443 1.105857 0.078115
3.499308 1.069846 -0.076649
3.557367 1.087596 -0.025970
3.533352 1.063418 0.025761
3.494369 1.051686 0.076440
3.489338 1.033589 -0.076230
3.528371 1.045151 -0.025691
3.504097 1.021351 0.025482
3.513012 1.023950 0.076649
3.459783 0.992077 -0.075393
3.537357 1.014321 -0.025691
3.551373 1.001591 0.025761
3.550681 1.001396 0.077278
3.487577 0.967191 -0.075812
3.497893 0.970052 -0.025342
3.482797 0.949520 0.025202
3.491764 0.951964 0.075812
3.495885 0.936719 -0.075812
3.515884 0.942078 -0.025412
3.529632 0.929274 0.025482
3.519275 0.926548 0.076230
3.407132 0.881144 -0.073717
3.475565 0.898842 -0.025063
3.537607 0.898438 0.025482
3.536917 0.898263 0.076440
3.472897 0.865890 -0.074974
3.522088 0.878155 -0.025342
3.545312 0.867532 0.025482
3.515487 0.860234 0.075812
3.499764 0.840219 -0.075393
3.568511 0.856724 -0.025621
3.552748 0.836561 0.025482
3.513129 0.827232 0.075602
3.458255 0.798401 -0.074346
3.507647 0.809804 -0.025133
3.520900 0.796698 0.025202
3.520214 0.796543 0.075602
3.513895 0.779012 -0.075393
3.582919 0.794314 -0.025621
3.527718 0.765943 0.025202
3.536801 0.767915 0.075812
3.501000 0.744161 -0.074974
3.521245 0.748464 -0.025133
3.534268 0.735129 0.025202
3.504214 0.728878 0.074974
3.487767 0.709594 -0.074555
3.566839 0.725682 -0.025412
3.540549 0.704259 0.025202
3.510441 0.698270 0.074974
3.513455 0.682946 -0.074974
3.494508 0.679263 -0.024853
3.507262 0.665875 0.024923
3.506579 0.665745 0.074764
3.440637 0.637684 -0.073298
3.539631 0.656032 -0.025133
3.552300 0.642361 0.025202
3.522093 0.636898 0.074974
3.485455 0.614580 -0.074136
3.505830 0.618172 -0.024853
3.557771 0.611337 0.025202
3.557077 0.611218 0.075602
3.470964 0.580840 -0.073717
3.589992 0.600759 -0.025412
3.562970 0.580267 0.025202
3.522804 0.573725 0.074764
3.495650 0.553657 -0.074136
3.516085 0.556893 -0.024853
3.528365 0.543067 0.024923
3.537558 0.544482 0.074974
3.441020 0.514264 -0.072880
3.530701 0.527667 -0.024923
3.572554 0.517996 0.025202
3.532281 0.512156 0.074764
3.504780 0.492565 -0.074136
3.525268 0.495444 -0.024853
3.537305 0.481406 0.024923
3.536615 0.481312 0.074764
3.449471 0.454132 -0.072880
3.569114 0.469883 -0.025133
3.501692 0.445471 0.024644
3.510927 0.446646 0.074136
3.512843 0.431323 -0.074136
3.533378 0.433844 -0.024853
3.545168 0.419598 0.024923
3.554405 0.420692 0.074974
3.496606 0.398388 -0.073717
3.576771 0.407522 -0.025133
3.508933 0.384291 0.024644
3.508249 0.384216 0.073927
3.460177 0.363679 -0.072880
3.500632 0.367931 -0.024574
3.551951 0.357663 0.024923
3.561206 0.358595 0.074974
3.463219 0.333470 -0.072880
3.543524 0.341203 -0.024853
3.515106 0.322993 0.024644
3.524376 0.323845 0.074136
3.456038 0.302364 -0.072670
3.506520 0.306781 -0.024574
3.517791 0.292306 0.024644
3.527068 0.293077 0.074136
3.468511 0.272978 -0.072880
3.578846 0.281661 -0.025063
3.520207 0.261597 0.024644
3.519521 0.261546 0.073927
3.450815 0.241304 -0.072461
3.511340 0.245537 -0.024574
3.562269 0.233483 0.024923
3.571552 0.234092 0.074974
3.392914 0.207520 -0.071204
3.513349 0.214886 -0.024574
3.524237 0.200121 0.024644
3.523550 0.200082 0.073927
3.494437 0.183136 -0.073298
3.515090 0.184218 -0.024574
3.565802 0.171278 0.024923
3.565107 0.171244 0.074764
3.455949 0.150890 -0.072461
3.556525 0.155281 -0.024853
3.567161 0.140154 0.024923
3.536495 0.138949 0.074136
3.437150 0.120028 -0.072042
3.477795 0.121447 -0.024295
3.568248 0.109020 0.024923
3.567552 0.108999 0.074764
3.458056 0.090552 -0.072461
3.518708 0.092141 -0.024574
3.489084 0.076132 0.024365
3.538381 0.077208 0.074136
3.498699 0.061070 -0.073298
3.519378 0.061431 -0.024574
3.569607 0.046729 0.024923
3.568911 0.046720 0.074764
3.409122 0.029751 -0.071414
3.489782 0.030455 -0.024365
3.529880 0.015402 0.024644
3.539190 0.015443 0.074136
3.499232 0.000000 -0.073298
3.519914 0.000000 -0.024574
3.569879 -0.015577 0.024923
3.569183 -0.015574 0.074764
3.459110 -0.030187 -0.072461
3.519780 -0.030717 -0.024574
3.529612 -0.046205 0.024644
3.538920 -0.046327 0.074136
3.498699 -0.061070 -0.073298
3.519378 -0.061431 -0.024574
3.529074 -0.077005 0.024644
3.538381 -0.077208 0.074136
3.458056 -0.090552 -0.072461
3.558693 -0.093188 -0.024853
3.528268 -0.107798 0.024644
3.527580 -0.107777 0.073927
3.477117 -0.121424 -0.072880
3.517770 -0.122843 -0.024574
3.567161 -0.140154 0.024923
3.516515 -0.138164 0.073717
3.455949 -0.150890 -0.072461
3.556525 -0.155281 -0.024853
3.565802 -0.171278 0.024923
3.535148 -0.169805 0.074136
3.474469 -0.182089 -0.072880
3.515090 -0.184218 -0.024574
3.564171 -0.202388 0.024923
3.563477 -0.202349 0.074764
3.452789 -0.211182 -0.072461
3.543292 -0.216717 -0.024783
3.522356 -0.230867 0.024644
3.531646 -0.231476 0.074136
3.430868 -0.239910 -0.072042
3.511340 -0.245537 -0.024574
3.510235 -0.260856 0.024574
3.559402 -0.264509 0.074764
3.478478 -0.273762 -0.073089
3.558908 -0.280092 -0.024923
3.557652 -0.295618 0.024923
3.527068 -0.293077 0.074136
3.416198 -0.298879 -0.071833
3.466673 -0.303295 -0.024295
3.554937 -0.326653 0.024923
3.554244 -0.326589 0.074764
3.503026 -0.337303 -0.073717
3.543524 -0.341203 -0.024853
3.551951 -0.357663 0.024923
3.511469 -0.353586 0.073927
3.450234 -0.362634 -0.072670
3.391237 -0.356433 -0.023806
3.548695 -0.388645 0.024923
3.587756 -0.392923 0.075602
3.466805 -0.394993 -0.073089
3.586707 -0.408654 -0.025202
3.545168 -0.419598 0.024923
3.544477 -0.419516 0.074764
3.473150 -0.426449 -0.073298
3.493677 -0.428970 -0.024574
3.541371 -0.450519 0.024923
3.540681 -0.450432 0.074764
3.489120 -0.459351 -0.073717
3.539372 -0.465967 -0.024923
3.576939 -0.486800 0.025202
3.546522 -0.482660 0.074974
3.514681 -0.493956 -0.074346
3.485659 -0.489877 -0.024574
3.532969 -0.512256 0.024923
3.571858 -0.517895 0.075602
3.520124 -0.526086 -0.074555
3.570260 -0.533579 -0.025202
3.567898 -0.549152 0.025202
3.527677 -0.542961 0.074764
3.505525 -0.555221 -0.074346
3.516085 -0.556893 -0.024853
3.562970 -0.580267 0.025202
3.562275 -0.580153 0.075602
3.490685 -0.584140 -0.074136
3.550542 -0.594157 -0.025133
3.518349 -0.604563 0.024923
3.527517 -0.606138 0.074974
3.426379 -0.604163 -0.072880
3.446743 -0.607754 -0.024434
3.552300 -0.642361 0.025202
3.551608 -0.642235 0.075602
3.440637 -0.637684 -0.073298
3.549464 -0.657854 -0.025202
3.546560 -0.673335 0.025202
3.506579 -0.665745 0.074764
3.454570 -0.671500 -0.073717
3.533772 -0.686896 -0.025133
3.540549 -0.704259 0.025202
3.569275 -0.709973 0.076230
3.507361 -0.713581 -0.074974
3.566839 -0.725682 -0.025412
3.534268 -0.735129 0.025202
3.543367 -0.737021 0.075812
3.442324 -0.731689 -0.073717
3.482121 -0.740148 -0.024853
3.566807 -0.774430 0.025482
3.556341 -0.772157 0.076230
3.474852 -0.770356 -0.074555
3.553631 -0.787821 -0.025412
3.520900 -0.796698 0.025202
3.529965 -0.798750 0.075812
3.458255 -0.798401 -0.074346
3.507647 -0.809804 -0.025133
3.552748 -0.836561 0.025482
3.542323 -0.834106 0.076230
3.470599 -0.833217 -0.074764
3.539340 -0.849720 -0.025412
3.584165 -0.877040 0.025761
3.583466 -0.876869 0.077278
3.511700 -0.875565 -0.075812
3.570601 -0.890251 -0.025691
3.576375 -0.908284 0.025761
3.536917 -0.898263 0.076440
3.426491 -0.886151 -0.074136
3.485247 -0.901346 -0.025133
3.529632 -0.929274 0.025482
3.528944 -0.929093 0.076440
3.505542 -0.939307 -0.076021
3.486907 -0.934314 -0.025202
3.521388 -0.960041 0.025482
3.520701 -0.959853 0.076440
3.362333 -0.932457 -0.073089
3.478621 -0.964707 -0.025202
3.551373 -1.001591 0.025761
3.550681 -1.001396 0.077278
3.498225 -1.003100 -0.076230
3.537357 -1.014321 -0.025691
3.580899 -1.043737 0.026040
3.541807 -1.032343 0.077278
3.470166 -1.027910 -0.075812
3.557135 -1.053671 -0.025900
3.571654 -1.074946 0.026040
3.580531 -1.077618 0.078325
3.470625 -1.061077 -0.076021
3.442613 -1.052513 -0.025133
3.562138 -1.106073 0.026040
3.523251 -1.093998 0.077278
3.547049 -1.118380 -0.077906
3.547741 -1.118598 -0.025970
3.590445 -1.149310 0.026319
3.551657 -1.136894 0.078115
3.556171 -1.155470 -0.078325
3.499803 -1.137155 -0.025691
3.542291 -1.168073 0.026040
3.541601 -1.167845 0.078115
3.526990 -1.180114 -0.077906
3.537161 -1.183518 -0.026040
3.569839 -1.211797 0.026319
3.569144 -1.211561 0.078953
3.478745 -1.197828 -0.077068
3.555063 -1.224106 -0.026250
3.549688 -1.239607 0.026250
3.548996 -1.239365 0.078743
3.392765 -1.201441 -0.075393
3.468836 -1.228379 -0.025691
3.585793 -1.287431 0.026599
3.585094 -1.287180 0.079791
3.523074 -1.282294 -0.078534
3.533158 -1.285964 -0.026250
3.574422 -1.318674 0.026599
3.583105 -1.321877 0.080000
3.483656 -1.302486 -0.077906
3.549901 -1.327254 -0.026459
3.600183 -1.363987 0.026878
3.562084 -1.349553 0.079791
3.500159 -1.343585 -0.078534
3.547519 -1.361765 -0.026529
3.550864 -1.380855 0.026599
3.587443 -1.395080 0.080628
3.497603 -1.377742 -0.078743
3.563412 -1.403666 -0.026738
3.612981 -1.441433 0.027157
3.575133 -1.426333 0.080628
3.513256 -1.419448 -0.079372
3.523213 -1.423470 -0.026529
3.563244 -1.457762 0.026878
3.571803 -1.461263 0.080838
3.528446 -1.461530 -0.080000
3.584565 -1.484776 -0.027087
3.624161 -1.519737 0.027436
3.586575 -1.503976 0.081466
3.441933 -1.461014 -0.078325
3.497833 -1.484742 -0.026529
3.574011 -1.535516 0.027157
3.573314 -1.535217 0.081466
3.539076 -1.538834 -0.080838
3.548936 -1.543121 -0.027017
3.597086 -1.582756 0.027436
3.559781 -1.566341 0.081466
3.571179 -1.589991 -0.081885
3.526200 -1.569965 -0.026948
3.583138 -1.614086 0.027436
3.582439 -1.613771 0.082304
3.566266 -1.625241 -0.082094
3.530564 -1.608971 -0.027087
3.605241 -1.662039 0.027716
3.568220 -1.644972 0.082304
3.470397 -1.618273 -0.080209
3.516388 -1.639719 -0.027087
3.590600 -1.693437 0.027716
3.553729 -1.676047 0.082304
3.510287 -1.674321 -0.081466
3.538048 -1.687562 -0.027367
3.575685 -1.724706 0.027716
3.620013 -1.746087 0.084189
3.522500 -1.718038 -0.082094
3.595088 -1.753442 -0.027925
3.560498 -1.755843 0.027716
3.595671 -1.773189 0.083979
3.525268 -1.757634 -0.082513
3.624396 -1.807057 -0.028274
3.616477 -1.822854 0.028274
3.580060 -1.804499 0.083979
3.545428 -1.806486 -0.083351
3.510480 -1.788679 -0.027506
3.555982 -1.831451 0.027925
3.599730 -1.853983 0.084817
3.520661 -1.832740 -0.083141
3.592306 -1.870036 -0.028274
3.619511 -1.904317 0.028553
3.627654 -1.908601 0.085864
3.583981 -1.905637 -0.085026
3.602338 -1.915397 -0.028484
3.576329 -1.921631 0.028344
3.575632 -1.921256 0.085026
3.549643 -1.927299 -0.084607
3.594274 -1.951532 -0.028553
3.620793 -1.986435 0.028833
3.593791 -1.971621 0.085864
3.497712 -1.938813 -0.083770
3.568362 -1.977975 -0.028484
3.603321 -2.017956 0.028833
3.593895 -2.012678 0.086283
3.515466 -1.988955 -0.084607
3.594481 -2.033660 -0.028833
3.550847 -2.029476 0.028553
3.558835 -2.034041 0.085864
3.497975 -2.019557 -0.084607
3.602578 -2.079949 -0.029042
3.593468 -2.095649 0.029042
3.601404 -2.100277 0.087330
3.549134 -2.090600 -0.086283
3.592906 -2.116383 -0.029112
3.575043 -2.126927 0.029042
3.582939 -2.131624 0.087330
3.590743 -2.157536 -0.087749
3.565729 -2.142506 -0.029042
3.599091 -2.183982 0.029391
3.564201 -2.162810 0.087330
3.563254 -2.183565 -0.087539
3.555423 -2.178766 -0.029112
3.613909 -2.236355 0.029670
3.621706 -2.241180 0.089215
3.586457 -2.241067 -0.088586
3.595636 -2.246803 -0.029601
3.594256 -2.267807 0.029670
3.559733 -2.246024 0.088168
3.524603 -2.245420 -0.087539
3.618061 -2.304959 -0.029950
3.641610 -2.342362 0.030229
3.607266 -2.320271 0.089843
3.580338 -2.325099 -0.089424
3.530717 -2.292875 -0.029391
3.621031 -2.374052 0.030229
3.628686 -2.379071 0.090890
3.568249 -2.361772 -0.089634
3.643992 -2.411906 -0.030508
3.600176 -2.405560 0.030229
3.566222 -2.382874 0.089843
3.564080 -2.404002 -0.090052
3.581355 -2.415654 -0.030159
3.612109 -2.459398 0.030508
3.586613 -2.442038 0.090890
3.534726 -2.429350 -0.089843
3.593103 -2.469471 -0.030438
3.656240 -2.536424 0.031067
3.622668 -2.513134 0.092356
3.587099 -2.511714 -0.091728
3.636946 -2.546617 -0.030997
3.601301 -2.545148 0.030787
3.600600 -2.544652 0.092356
3.548765 -2.531310 -0.091309
3.590162 -2.560838 -0.030787
3.578954 -2.576478 0.030787
3.578256 -2.575976 0.092356
3.542717 -2.573935 -0.091728
3.559588 -2.586192 -0.030718
3.556334 -2.607612 0.030787
3.563703 -2.613015 0.092565
3.552268 -2.628540 -0.092565
3.673536 -2.718274 -0.031904
3.597542 -2.686412 0.031346
3.564797 -2.661961 0.093194
3.513226 -2.647405 -0.092147
3.609745 -2.720138 -0.031555
3.637640 -2.766126 0.031904
3.613056 -2.747432 0.095079
3.553443 -2.726653 -0.093822
3.625536 -2.781972 -0.031904
3.613363 -2.797765 0.031904
3.581038 -2.772736 0.094869
3.576784 -2.794490 -0.095079
3.624761 -2.831974 -0.032114
3.588811 -2.829190 0.031904
3.588111 -2.828639 0.095707
3.544437 -2.819373 -0.094869
3.576432 -2.844823 -0.031904
3.595180 -2.885437 0.032184
3.571088 -2.866101 0.095916
3.543008 -2.869072 -0.095497
3.636955 -2.945148 -0.032672
3.569863 -2.916701 0.032184
3.576909 -2.922457 0.096754
3.533266 -2.912599 -0.095916
3.549387 -2.925889 -0.032114
3.605780 -2.998896 0.032742
3.605077 -2.998311 0.098220
3.538349 -2.969028 -0.096754
3.470097 -2.911757 -0.031625
3.579473 -3.030248 0.032742
3.555883 -3.010278 0.097592
3.542715 -3.025764 -0.097592
3.627048 -3.097792 -0.033301
3.613497 -3.113588 0.033301
3.574923 -3.080350 0.098848
3.606721 -3.135274 -0.100105
3.562142 -3.096523 -0.032952
3.593707 -3.151596 0.033370
3.570456 -3.131206 0.099476
3.534296 -3.126881 -0.098848
3.557453 -3.147368 -0.033161
3.580988 -3.196154 0.033510
3.587749 -3.202188 0.100733
3.551453 -3.197743 -0.100105
3.596733 -3.238513 -0.033789
3.597373 -3.267623 0.033929
3.589271 -3.260264 0.101571
3.516042 -3.221859 -0.099895
3.605198 -3.303556 -0.034138
3.583406 -3.312467 0.034069
3.590050 -3.318608 0.102408
3.582847 -3.341059 -0.102618
3.598172 -3.355350 -0.034348
3.612632 -3.398425 0.034627
3.582799 -3.370361 0.103037
3.495538 -3.317141 -0.100942
3.568755 -3.386622 -0.034348
3.561167 -3.409076 0.034418
3.589361 -3.436066 0.104084
3.588718 -3.465585 -0.104503
3.596611 -3.473207 -0.034906
3.588585 -3.495845 0.034976
3.616531 -3.523069 0.105759
3.593994 -3.531808 -0.105550
3.601827 -3.539505 -0.035255
3.586349 -3.555188 0.035255
3.557248 -3.526340 0.104922
3.584245 -3.584245 -0.106178
3.592015 -3.592015 -0.035465
3.583348 -3.614755 0.035535
3.582649 -3.614051 0.106597
3.587868 -3.651042 -0.107225
3.595577 -3.658886 -0.035814
3.607489 -3.703191 0.036093
3.606786 -3.702469 0.108272
3.597541 -3.725363 -0.108482
3.584350 -3.711703 -0.036023
3.575035 -3.734531 0.036093
3.546684 -3.704914 0.107435
3.592423 -3.785624 -0.109319
3.641307 -3.837137 -0.036931
3.624530 -3.852988 0.036931
3.596422 -3.823109 0.109948
3.566069 -3.824141 -0.109529
3.573584 -3.832200 -0.036582
3.590768 -3.884471 0.036931
3.596855 -3.891056 0.110995
3.573088 -3.899342 -0.110785
3.587296 -3.914847 -0.037070
3.610522 -3.974874 0.037489
3.609818 -3.974100 0.112461
3.558994 -3.952663 -0.111414
3.559688 -3.953434 -0.037140
3.608991 -4.043532 0.037838
3.608287 -4.042744 0.113508
3.564114 -4.028498 -0.112670
3.624443 -4.096688 -0.038187
3.593347 -4.097427 0.038048
3.599239 -4.104145 0.114346
3.600974 -4.142447 -0.114974
3.608237 -4.150802 -0.038397
3.609674 -4.189232 0.038606
3.595917 -4.173267 0.115393
3.545209 -4.150906 -0.114346
3.571877 -4.182131 -0.038397
3.592362 -4.243469 0.038816
3.598121 -4.250272 0.116649
3.553836 -4.235297 -0.115812
3.560956 -4.243783 -0.038676
3.612742 -4.343851 0.039444
3.586466 -4.312257 0.117487
3.625313 -4.437162 0.040003
3.624606 -4.436296 0.120000
3.617749 -4.507622 0.040352
3.642076 -4.537932 0.121885
3.615421 -4.586139 0.040771
3.589957 -4.553839 0.121466
3.581384 -4.625421 0.040840
3.641894 -4.703571 0.124607
3.559042 -4.680377 0.041050
3.570451 -4.695382 0.123560
3.589860 -4.807406 0.041888
3.595142 -4.814479 0.125864
3.559597 -4.854678 0.042027
3.594374 -4.902108 0.127330
3.598890 -4.999174 0.043005
0.134348 -0.186621 0.004817
3.604030 -5.006313 0.129215
0.176695 -0.254704 0.002164
0.159564 -0.230011 0.005864
0.146297 -0.214866 0.005445
0.155556 -0.232806 0.001955
0.166635 -0.249386 0.006283
0.148007 -0.225748 0.005654
0.151469 -0.235485 0.001955
0.162257 -0.252256 0.006283
0.128064 -0.202970 0.001676
0.117369 -0.186019 0.004607
0.147336 -0.238093 0.001955
0.136786 -0.221043 0.005445
0.103752 -0.170978 0.001396
0.140038 -0.230776 0.005654
0.117595 -0.197659 0.001606
0.102236 -0.171844 0.004188
0.115843 -0.198639 0.004817