# This PCD file was generated using the MATLAB® pcwrite function
# from Computer Vision System Toolbox®.
# .PCD v.7 - Point Cloud Data file format
VERSION .7
FIELDS x y z
SIZE 4 4 4
TYPE F F F
COUNT 1 1 1
WIDTH 919
HEIGHT 1
VIEWPOINT 0 0 0 1 0 0 0
POINTS 919
DATA ascii
30.586882 32.800415 -0.313110
30.377308 32.011002 -0.924398
30.452065 32.089779 -0.308851
30.301298 31.377913 -0.913718
30.376671 31.455963 -0.305291
30.405783 30.941149 -0.908692
30.509836 31.047035 -0.303894
30.186838 30.186838 -0.894241
30.475559 30.475559 -0.300892
29.800200 29.284575 -0.875184
29.820274 29.304302 -0.291886
30.054617 29.023407 -0.875184
29.823101 28.799833 -0.289443
30.401024 28.849495 -0.877906
29.986246 28.455885 -0.288605
30.410330 28.358091 -0.870995
30.321186 28.274963 -0.289443
30.664011 28.098389 -0.871205
30.389832 27.847149 -0.287768
30.610851 27.562136 -0.862828
30.453333 27.420303 -0.286092
30.640547 27.108465 -0.856964
30.481754 26.967979 -0.284137
30.611853 26.610477 -0.849634
30.293304 26.333569 -0.280228
30.713663 26.231947 -0.846074
30.430706 25.990278 -0.279390
30.573788 25.654453 -0.836021
30.472506 25.569468 -0.277715
30.742496 25.342157 -0.834555
30.640465 25.258051 -0.277226
30.713842 24.871578 -0.827854
30.704288 24.863842 -0.275830
30.741930 24.453236 -0.822828
30.732273 24.445555 -0.274154
30.828098 24.085550 -0.819477
30.660751 23.954803 -0.271641
30.815018 23.645195 -0.813613
30.519560 23.418482 -0.268569
30.732738 23.158779 -0.806074
30.347410 22.868414 -0.265288
30.612192 22.651831 -0.797697
30.409164 22.501598 -0.264101
30.646931 22.266298 -0.793508
30.450657 22.123697 -0.262775
29.985437 21.388405 -0.771519
30.316923 21.624851 -0.259982
30.375687 21.269285 -0.776754
29.734495 20.820316 -0.253420
30.403587 20.895807 -0.772775
29.717266 20.424110 -0.251744
29.871962 20.148891 -0.754765
30.126492 20.320576 -0.253699
30.691126 20.507154 0.773194
30.463505 20.163355 -0.765236
30.844685 20.415651 -0.258237
30.699316 20.127354 0.256282
30.668249 20.106985 0.768168
30.856308 20.038321 -0.770681
30.761686 19.976873 -0.256073
30.747637 19.777544 0.255235
30.640739 19.708786 0.763142
30.768604 19.601763 -0.764189
30.732435 19.578720 -0.254397
30.716085 19.380407 0.253559
30.650909 19.339283 0.759163
30.768915 19.226553 -0.760000
30.732513 19.203806 -0.253001
30.747988 19.027431 0.252442
30.682482 18.986895 0.755812
30.833231 18.894629 -0.757487
30.822191 18.887863 -0.252373
30.810272 18.696133 0.251605
30.812813 18.697674 0.754974
30.834116 18.527006 -0.753508
30.857271 18.540918 -0.251325
30.800375 18.324297 0.250208
30.837332 18.346285 0.751623
30.753414 18.115147 -0.747644
30.776644 18.128828 -0.249371
30.820900 17.974218 0.249091
30.832165 17.980787 0.747644
30.832401 17.801096 -0.745760
30.890373 17.834566 -0.249022
30.907125 17.664877 0.248533
30.840338 17.626705 0.744084
30.986568 17.531357 -0.745760
30.914282 17.490459 -0.247974
30.885607 17.296770 0.247137
30.897032 17.303169 0.741781
30.963491 17.163343 -0.741571
30.917053 17.137602 -0.246788
30.903866 16.954441 0.246089
30.836483 16.917475 0.736754
30.971510 16.816158 -0.738220
30.959972 16.809893 -0.245950
30.944937 16.627316 0.245252
30.903677 16.605145 0.734870
30.984663 16.474838 -0.735079
31.043680 16.506218 -0.245461
30.911865 16.263519 0.243855
30.879295 16.246384 0.730890
30.941021 16.106876 -0.730681
30.929314 16.100782 -0.243437
30.839252 15.883259 0.242180
30.806576 15.866429 0.725864
30.982410 15.786326 -0.728377
30.899353 15.744007 -0.242110
30.833811 15.541520 0.241063
30.765306 15.506990 0.721676
30.975832 15.443980 -0.725027
30.856585 15.384525 -0.240714
30.788891 15.183401 0.239667
30.755989 15.167175 0.718325
30.956665 15.098574 -0.721466
30.908773 15.075216 -0.240086
30.812136 14.862010 0.238829
30.779114 14.846082 0.715812
30.915791 14.746076 -0.717487
30.939869 14.757561 -0.239318
30.904480 14.575499 0.238550
30.871326 14.559863 0.714974
30.816769 14.370095 -0.712252
30.949657 14.432062 -0.238410
30.885197 14.238271 0.237433
30.815619 14.206195 0.710786
30.868214 14.067456 -0.710576
30.883333 14.074346 -0.236944
30.862392 13.902494 0.236316
29.078831 13.099058 0.668063
30.852798 13.736550 -0.707435
30.840544 13.731094 -0.235687
29.115349 12.811060 0.222074
29.118824 12.812589 0.666388
30.888977 13.430910 -0.705550
29.418570 12.791558 -0.223959
30.803297 13.393655 -0.234501
29.115784 12.509128 0.221236
29.578588 12.707965 0.674346
29.357664 12.461590 -0.668063
30.931383 13.129593 -0.703875
29.151678 12.374153 -0.221097
29.583487 12.405385 0.223959
30.047937 12.600146 0.682513
29.123533 12.063362 -0.660315
29.286268 12.130769 -0.221306
30.181141 12.347430 0.227659
30.184509 12.348809 0.683142
29.218426 11.805010 -0.660105
29.780420 12.032070 -0.224238
30.250589 12.068762 0.227380
30.179689 12.040476 0.680629
29.869156 11.765774 -0.672461
30.237835 11.910999 -0.226891
30.280197 11.775325 0.226821
30.134523 11.718676 0.677278
30.325377 11.640821 -0.680419
30.396639 11.668176 -0.227310
29.951651 11.347666 0.223610
30.095400 11.402127 0.674137
30.275970 11.319721 -0.677068
30.309973 11.332435 -0.225914
30.293461 11.175847 0.225425
30.221895 11.149446 0.674765
30.101149 10.955922 -0.670995
30.285555 11.023041 -0.225006
30.201603 10.843483 0.224029
30.167486 10.831234 0.671414
30.120214 10.666127 -0.669320
30.220350 10.701587 -0.223819
30.191231 10.543250 0.223261
29.996569 10.475271 0.665550
30.155428 10.383347 -0.668063
30.246403 10.414672 -0.223331
30.007484 10.186169 0.221236
30.200447 10.251670 0.668063
30.206964 10.107109 -0.667225
30.146475 10.086869 -0.221934
30.171206 9.948972 0.221795
30.174818 9.950163 0.665550
30.236965 9.824585 -0.665969
30.119226 9.786329 -0.221097
30.218782 9.673108 0.221515
30.184326 9.662079 0.663875
30.140381 9.503225 -0.661990
30.289312 9.550183 -0.221725
30.177895 9.370485 0.220608
30.143368 9.359764 0.661152
30.269968 9.254458 -0.663037
30.208931 9.235797 -0.220538
30.181913 9.083725 0.220049
30.147308 9.073310 0.659477
30.263300 8.964398 -0.661152
30.211674 8.949105 -0.219980
30.106430 8.775224 0.218932
30.119757 8.779109 0.657173
30.225050 8.666894 -0.658639
30.173269 8.652046 -0.219142
30.152988 8.504022 0.218723
30.070129 8.480654 0.654451
30.222458 8.381430 -0.656964
30.209078 8.377719 -0.218863
30.139221 8.216895 0.218095
30.142992 8.217923 0.654451
30.217190 8.096672 -0.655288
30.203764 8.093074 -0.218304
30.142088 7.935750 0.217606
30.145880 7.936748 0.652985
30.218941 7.815149 -0.653822
30.166746 7.801651 -0.217536
30.122963 7.650258 0.216978
30.136471 7.653688 0.651309
30.208382 7.531796 -0.652147
30.194868 7.528426 -0.217257
30.120584 7.370460 0.216489
30.075867 7.359518 0.648587
30.156300 7.239887 -0.649634
30.142733 7.236630 -0.216419
30.105886 7.088995 0.215930
30.109749 7.089905 0.647958
30.169622 6.965206 -0.648587
30.165762 6.964315 -0.216140
30.078825 6.806143 0.215302
30.043707 6.798197 0.645236
30.199974 6.695173 -0.647958
30.186337 6.692150 -0.215861
30.146845 6.545522 0.215372
30.062807 6.527275 0.644398
30.169235 6.412669 -0.646074
30.155556 6.409761 -0.215232
30.153866 6.272013 0.215023
30.118622 6.264682 0.644398
30.184858 6.141179 -0.645236
30.131950 6.130414 -0.214674
30.178028 6.002783 0.214813
30.142727 5.995761 0.643770
30.158787 5.862275 -0.643561
30.145037 5.859601 -0.214395
30.180141 5.729879 0.214464
30.184080 5.730627 0.643561
30.208797 5.598869 -0.643561
30.204855 5.598139 -0.214464
30.150272 5.452057 0.213906
30.114880 5.445657 0.641047
30.167892 5.319413 -0.641676
30.163927 5.318714 -0.213836
30.157280 5.181969 0.213627
30.121841 5.175879 0.640210
30.223024 5.057600 -0.641885
30.209192 5.055285 -0.213836
30.171743 4.913781 0.213417
30.175730 4.914430 0.640419
30.157387 4.776461 -0.639582
30.163267 4.777392 -0.213208
30.164059 4.642693 0.213068
30.177940 4.644829 0.639582
30.118816 4.501287 -0.637906
30.124689 4.502165 -0.212649
30.134150 4.369244 0.212579
30.138170 4.369827 0.637906
30.186651 4.242457 -0.638534
30.182634 4.241893 -0.212789
30.171131 4.106111 0.212579
30.135530 4.101265 0.637068
30.222525 3.978871 -0.638534
30.218502 3.978341 -0.212789
30.116537 3.831307 0.211951
30.130501 3.833084 0.636231
30.226326 3.711326 -0.637906
30.212368 3.709612 -0.212510
30.158754 3.569524 0.212021
30.162804 3.570003 0.636231
30.207893 3.441755 -0.636859
30.243589 3.445822 -0.212510
30.188755 3.306206 0.212021
30.192808 3.306650 0.636231
30.197006 3.173833 -0.636021
30.183004 3.172362 -0.211881
30.166710 3.037628 0.211672
30.180725 3.039039 0.635393
30.223553 2.910197 -0.636021
30.209538 2.908848 -0.211881
30.152239 2.770602 0.211393
30.156317 2.770976 0.634346
30.257757 2.647211 -0.636231
30.233772 2.645112 -0.211881
30.185234 2.508199 0.211462
30.139496 2.504399 0.633508
30.199970 2.376789 -0.634555
30.225798 2.378822 -0.211672
30.205973 2.244691 0.211462
30.160202 2.241290 0.633508
30.219563 2.113158 -0.634555
30.205503 2.112175 -0.211393
30.224411 1.981012 0.211462
30.178612 1.978011 0.633508
30.236851 1.849365 -0.634555
30.252729 1.850336 -0.211602
30.200611 1.714915 0.211183
30.204706 1.715147 0.633718
30.251839 1.585432 -0.634555
30.267723 1.586264 -0.211602
30.214428 1.451303 0.211183
30.178577 1.449581 0.632880
30.264523 1.321378 -0.634555
30.280415 1.322071 -0.211602
30.265909 1.189151 0.211462
30.270000 1.189312 0.634555
30.304876 1.058270 -0.635184
30.290798 1.057778 -0.211602
30.235155 0.923768 0.211183
30.279226 0.925114 0.634555
30.312958 0.793773 -0.635184
30.298876 0.793404 -0.211602
30.322042 0.661629 0.211742
30.216177 0.659319 0.633089
30.318729 0.529215 -0.635184
30.304646 0.528970 -0.211602
30.206676 0.395427 0.210904
30.130808 0.394434 0.631205
30.322193 0.264618 -0.635184
30.308107 0.264495 -0.211602
30.128979 0.131463 0.210345
30.133102 0.131481 0.631205
30.323349 0.000000 -0.635184
30.219263 0.000000 -0.210974
30.118979 -0.131420 0.210276
30.133102 -0.131481 0.631205
30.192226 -0.263484 -0.632461
30.148117 -0.263099 -0.210485
30.126684 -0.394380 0.210345
30.130808 -0.394434 0.631205
30.208771 -0.527296 -0.632880
30.194664 -0.527050 -0.210834
30.162085 -0.658139 0.210625
30.126219 -0.657356 0.631205
30.203018 -0.790894 -0.632880
30.188915 -0.790525 -0.210834
30.075233 -0.918881 0.210066
30.079363 -0.919008 0.630367
30.115034 -1.051640 -0.631205
30.100918 -1.051147 -0.210276
30.106037 -1.182869 0.210345
30.110159 -1.183031 0.631205
30.184616 -1.317889 -0.632880
30.200491 -1.318582 -0.211043
30.134521 -1.447465 0.210625
30.098688 -1.445744 0.631205
30.132029 -1.579153 -0.632042
30.147890 -1.579984 -0.210764
30.110760 -1.709813 0.210555
30.124853 -1.710613 0.632042
30.117102 -1.842041 -0.632042
30.093031 -1.840569 -0.210485
30.054779 -1.969894 0.210276
29.430382 -1.928969 0.617801
30.169695 -2.109671 -0.633508
30.165602 -2.109384 -0.211113
30.485195 -2.265441 0.213417
29.203053 -2.170162 0.613403
30.160103 -2.373652 -0.633718
30.215828 -2.378037 -0.211602
30.623713 -2.544634 0.214534
30.508142 -2.535031 0.641257
30.207958 -2.642854 -0.635184
30.632240 -2.679974 -0.214674
30.520678 -2.804456 0.213976
30.524683 -2.804824 0.642095
30.581816 -2.944694 -0.643561
30.567873 -2.943351 -0.214395
30.495043 -3.070689 0.213976
30.499044 -3.071092 0.642095
30.634499 -3.219816 -0.645236
30.541023 -3.209991 -0.214395
30.506845 -3.341043 0.214255
30.471083 -3.337126 0.642095
30.575434 -3.483631 -0.644608
30.591331 -3.485442 -0.214953
30.516251 -3.611836 0.214534
30.480515 -3.607607 0.642932
30.573641 -3.753971 -0.645236
30.569677 -3.753484 -0.215023
30.523249 -3.883048 0.214813
30.527216 -3.883552 0.644608
30.589277 -4.027155 -0.646283
30.575415 -4.025330 -0.215302
30.567469 -4.160050 0.215372
30.531790 -4.155194 0.645445
30.552971 -4.293940 -0.646283
30.539124 -4.291994 -0.215302
30.530001 -4.426640 0.215372
30.533943 -4.427211 0.646283
30.593439 -4.572220 -0.647958
30.579626 -4.570156 -0.215861
30.529743 -4.698977 0.215651
30.533672 -4.699582 0.647121
30.581999 -4.843713 -0.648587
30.568209 -4.841529 -0.216070
30.566532 -4.978076 0.216210
30.530970 -4.972284 0.647958
30.578009 -5.117004 -0.649424
30.603697 -5.121303 -0.216629
30.571203 -5.253094 0.216559
30.535685 -5.246990 0.649006
30.571575 -5.390594 -0.650262
30.557840 -5.388172 -0.216629
30.553719 -5.525012 0.216768
30.557600 -5.525714 0.650472
30.611843 -5.673570 -0.652147
30.627644 -5.676498 -0.217466
30.582935 -5.806352 0.217327
30.547506 -5.799625 0.651309
30.639679 -5.955750 -0.653822
30.616205 -5.951188 -0.217746
30.609562 -6.088621 0.217885
30.574179 -6.081582 0.652985
30.625729 -6.230875 -0.654660
30.641499 -6.234083 -0.218304
30.594425 -6.363650 0.218164
30.549307 -6.354265 0.653613
30.648422 -6.514524 -0.656335
30.634836 -6.511635 -0.218653
30.615904 -6.647365 0.218723
30.580626 -6.639705 0.655498
30.668493 -6.799041 -0.658011
30.654947 -6.796038 -0.219212
30.556730 -6.914282 0.218723
30.521519 -6.906315 0.655498
30.559286 -7.055167 -0.656964
30.555500 -7.054293 -0.218932
30.573097 -7.199009 0.219281
30.576868 -7.199897 0.658011
30.622934 -7.351916 -0.659686
30.638630 -7.355684 -0.219980
30.625669 -7.494053 0.220119
30.590565 -7.485464 0.659686
30.635220 -7.638218 -0.661362
30.582975 -7.625192 -0.220049
30.597874 -7.770870 0.220398
30.562838 -7.761972 0.660524
30.644833 -7.925292 -0.663037
30.631445 -7.921830 -0.220887
30.567577 -8.047771 0.220678
30.571287 -8.048748 0.662199
30.642105 -8.210527 -0.664503
30.599785 -8.199187 -0.221166
30.573366 -8.335256 0.221236
30.577051 -8.336261 0.663875
30.655996 -8.501660 -0.666388
30.642702 -8.497973 -0.222004
30.614956 -8.634311 0.222074
30.580120 -8.624486 0.665550
30.657522 -8.790903 -0.668063
30.644276 -8.787105 -0.222563
30.538441 -8.901144 0.222074
30.542086 -8.902206 0.666388
30.579641 -9.058103 -0.668063
30.566429 -9.054189 -0.222563
30.574509 -9.201882 0.222912
30.539827 -9.191444 0.668063
30.690651 -9.383074 -0.672252
30.639257 -9.367361 -0.223680
30.569443 -9.492064 0.223470
30.573032 -9.493178 0.670576
30.645741 -9.662565 -0.673089
30.632643 -9.658435 -0.224238
30.599731 -9.795052 0.224308
30.603289 -9.796189 0.673089
30.636320 -9.954344 -0.674765
30.623274 -9.950105 -0.224797
30.579567 -10.083629 0.224797
30.592594 -10.087925 0.674765
30.662062 -10.259382 -0.677278
30.601658 -10.239172 -0.225285
30.613504 -10.391885 0.225704
30.579136 -10.380218 0.676440
30.637537 -10.549350 -0.678744
30.624599 -10.544895 -0.226123
30.634943 -10.698201 0.226542
30.591215 -10.682930 0.678744
30.572584 -10.826320 -0.679372
30.691660 -10.868486 -0.227310
30.615709 -10.992163 0.227100
28.097353 -10.087980 0.625341
30.637970 -11.000155 0.681885
30.148123 -10.973020 -0.672042
30.670820 -11.163265 -0.227868
28.229490 -10.414409 0.210066
30.612438 -11.293525 0.227799
27.698713 -10.218596 0.618430
30.662748 -11.312085 0.684608
29.058563 -10.864552 -0.649843
30.697380 -11.477281 -0.686493
28.286810 -10.576005 -0.210834
30.665899 -11.465510 -0.228566
27.707380 -10.497388 0.206855
30.643635 -11.609835 0.228776
30.609612 -11.596945 0.685655
28.383955 -10.895579 -0.636859
30.614721 -11.751891 -0.686911
27.698656 -10.632518 -0.207134
30.658033 -11.768517 -0.229265
27.987514 -10.883749 0.209647
30.606392 -11.902175 0.229265
27.851606 -10.830897 0.625969
27.720362 -10.919341 -0.624084
30.669140 -12.080895 -0.690472
28.116533 -11.075397 -0.210974
30.693727 -12.090581 -0.230312
27.900759 -11.131274 0.209717
27.756029 -11.073533 0.625969
28.189478 -11.389288 -0.636859
28.028086 -11.324081 -0.211043
27.839581 -11.389473 0.209996
27.658339 -11.315325 0.625969
28.042831 -11.615721 -0.635812
27.891243 -11.552931 -0.210764
27.739130 -11.631982 0.209996
27.521662 -11.540791 0.625131
27.903585 -11.844370 -0.634974
27.393557 -11.627875 -0.207762
27.462000 -11.798606 0.208670
27.429089 -11.784467 0.625341
26.304684 -11.437602 -0.600838
27.410257 -11.918319 -0.208670
27.193241 -11.965313 0.207413
27.398415 -12.055592 0.627016
26.413940 -11.760244 -0.605655
30.606194 -13.626756 -0.701780
27.332615 -12.169264 -0.208879
27.388664 -12.337693 0.209717
27.292170 -12.294226 0.627016
25.864525 -11.787143 -0.595393
30.677164 -13.980390 -0.706178
27.070688 -12.336823 -0.207692
25.672583 -11.835222 0.197360
27.234550 -12.555300 0.209368
27.183844 -12.531923 0.627016
27.545713 -12.844777 -0.636650
30.671791 -14.302490 -0.708901
27.859222 -12.990969 -0.214604
30.704960 -14.317958 -0.236525
26.319004 -12.412848 0.203155
26.214405 -12.363516 0.607121
25.086369 -11.965584 -0.582199
26.629450 -12.701596 -0.618011
30.636049 -14.612646 -0.710995
27.780897 -13.250809 -0.214883
30.669100 -14.628410 -0.237223
25.579206 -12.337945 0.198268
27.659769 -13.341489 0.214395
26.960991 -13.004438 0.627016
25.421307 -12.398800 -0.592461
30.687084 -14.967092 -0.715184
25.462215 -12.418752 -0.197779
27.861937 -13.589174 -0.216419
30.711044 -14.978777 -0.238550
25.605093 -12.627034 0.199315
27.623007 -13.622160 0.215023
25.510433 -12.580354 0.595812
26.864414 -13.248063 0.627435
24.963192 -12.446189 -0.584294
30.689516 -15.301229 -0.718325
25.200737 -12.564624 -0.196592
30.659704 -15.286365 -0.239178
25.904688 -13.057037 0.202526
30.664150 -15.456004 0.239736
25.846071 -13.027493 0.606283
27.292379 -13.756492 0.640210
25.040701 -12.758874 -0.588691
30.697351 -15.641082 -0.721676
25.740551 -13.115466 -0.201689
30.676607 -15.630512 -0.240365
25.851988 -13.314649 0.203015
30.634785 -15.777950 0.240574
27.624594 -14.227600 0.650890
24.937275 -12.981524 -0.588901
30.657240 -15.959148 -0.723979
26.645157 -13.870590 -0.209717
30.636608 -15.948408 -0.241133
25.796761 -13.572332 0.203504
30.646376 -16.123838 0.241761
25.800579 -13.574342 0.610681
30.596161 -16.097420 0.724189
24.920143 -13.250276 -0.591205
30.622734 -16.282396 -0.726493
26.249392 -13.957049 -0.207553
30.637535 -16.290266 -0.242250
25.404270 -13.650207 0.201340
30.680677 -16.485323 0.243157
26.033419 -13.988261 0.619058
30.551397 -16.415857 0.726493
24.777206 -13.452926 -0.590576
27.070417 -14.698037 -0.645236
30.707922 -16.673040 -0.731938
24.975374 -13.560521 -0.198407
30.713909 -16.676292 -0.243995
26.336229 -14.448550 0.209717
30.649620 -16.814957 0.244065
25.805176 -14.157204 0.616545
30.661177 -16.821297 0.732566
25.078592 -13.901291 -0.600629
30.727396 -17.032475 -0.735917
25.284639 -14.015505 -0.201828
26.832678 -14.873597 -0.214185
28.555637 -15.828649 -0.227938
30.684937 -17.184391 0.245531
26.195309 -14.670077 0.628901
30.644062 -17.161499 0.735707
26.722761 -15.119011 -0.643142
30.708117 -17.373816 -0.739058
25.126556 -14.215921 -0.201549
27.145733 -15.358316 -0.217746
30.740213 -17.391975 -0.246578
25.559151 -14.608258 0.205528
27.191324 -15.541122 0.218653
30.681398 -17.535864 0.246718
26.092333 -14.912996 0.629529
27.125263 -15.503365 0.654451
30.623337 -17.502678 0.738849
24.944719 -14.401841 -0.603351
30.719843 -17.736109 -0.743037
27.123255 -15.659618 -0.218653
30.699852 -17.724567 -0.247486
27.348366 -15.949096 0.221027
26.824846 -15.643788 0.650472
30.668072 -17.885090 0.743665
24.697491 -14.547934 -0.600419
30.718958 -18.094849 -0.746807
25.029716 -14.743630 -0.202806
26.813246 -15.794209 -0.217257
30.707714 -18.088226 -0.248812
26.941734 -16.028648 0.218863
28.058935 -16.693312 0.227938
30.697248 -18.262943 0.249371
27.323130 -16.255554 0.665969
30.725634 -18.279831 0.748901
26.703476 -16.045067 -0.652566
30.748417 -18.475513 -0.751414
25.225819 -15.157201 -0.205458
27.000113 -16.223305 -0.219910
30.702984 -18.448214 -0.250069
25.330421 -15.370877 0.206855
26.740992 -16.226831 0.218374
30.724783 -18.644257 0.250906
26.787062 -16.254787 0.656335
30.693151 -18.625063 0.752042
23.357216 -14.313321 -0.573822
24.508028 -15.018539 -0.602095
26.894897 -16.481215 -0.660733
25.203428 -15.444681 -0.206366
26.755196 -16.395605 -0.219072
30.762508 -18.851290 -0.251884
26.895985 -16.643742 0.220817
30.713974 -19.006384 0.252163
25.326437 -15.672475 0.623875
26.882240 -16.635235 0.662199
30.665478 -18.976374 0.755393
24.426907 -15.263626 -0.603351
30.777395 -19.231850 -0.760210
25.271217 -15.791209 -0.208042
30.740993 -19.209105 -0.253071
25.574186 -16.136110 0.211113
25.391636 -16.020929 0.628901
27.725334 -17.493383 0.686702
30.659365 -19.344620 0.759372
24.899887 -15.862978 -0.618430
24.963778 -15.903681 -0.206645
30.774605 -19.605585 -0.254746
26.904182 -17.305351 0.223331
30.713997 -19.755907 0.254956
30.657557 -19.719603 0.763561
24.794050 -16.101444 -0.619267
30.730536 -19.956642 -0.767540
25.553669 -16.594748 -0.212719
27.004534 -17.536949 -0.224797
30.744913 -19.965981 -0.255933
26.869219 -17.616232 0.224308
30.699316 -20.127354 0.256282
26.387403 -17.300339 0.660943
30.643166 -20.090540 0.767540
24.660933 -16.322716 -0.619477
30.705278 -20.323381 -0.771309
25.816477 -17.087553 -0.216140
30.752960 -20.354940 -0.257469
27.096933 -18.105593 0.227519
30.663853 -20.488932 0.257469
24.980183 -16.691223 0.629320
27.690178 -18.501986 0.697592
30.649561 -20.479382 0.772147
22.727224 -15.329706 -0.574241
24.741344 -16.688248 -0.625131
24.878811 -16.780970 -0.209508
26.868452 -18.123001 -0.226263
30.615612 -20.650490 -0.257818
30.682264 -20.890810 0.259144
24.825310 -16.902952 0.629110
30.709339 -20.909245 0.778220
24.429983 -16.790262 -0.620943
25.484632 -17.515102 -0.647749
24.780870 -17.031420 -0.209927
30.763882 -21.143429 -0.260610
30.695982 -21.294559 0.260820
24.791866 -17.198729 0.632042
30.722857 -21.313204 0.783247
24.438137 -17.111767 -0.624922
24.852467 -17.401884 -0.211811
30.832132 -21.588890 -0.262775
23.428875 -16.557892 0.200292
23.799881 -16.820093 0.610472
24.532061 -17.498549 -0.631205
30.823793 -21.986399 -0.793089
24.976456 -17.815533 -0.214185
23.445801 -16.878561 0.201689
23.441231 -16.875271 0.605026
26.419054 -19.018997 0.681885
23.707088 -17.224207 -0.613822
25.559330 -18.569941 -0.661780
30.800611 -22.377953 -0.797487
23.695530 -17.215811 -0.204481
26.219603 -19.049656 -0.226263
30.749987 -22.341173 -0.265358
23.362131 -17.129824 0.202247
23.139885 -16.966866 0.601047
23.668392 -17.513689 -0.616754
30.789001 -22.782663 -0.802304
23.544394 -17.421934 -0.204481
23.500202 -17.548433 0.204760
25.399126 -18.966427 0.221306
23.215242 -17.335644 0.606911
26.011005 -19.423340 0.680000
23.187288 -17.472876 -0.608168
23.271671 -17.536463 -0.203434
23.218813 -17.655994 0.203643
23.134703 -17.592037 0.608796
26.023558 -19.788773 0.684817
23.454313 -17.997128 -0.619267
23.308153 -17.884975 -0.205109
25.965612 -20.104725 0.229265
30.733355 -23.796307 0.271362
22.806391 -17.658594 0.604189
30.719458 -23.785545 0.813822
23.052137 -18.010303 -0.612775
23.032993 -17.995346 -0.204062
22.985666 -18.120438 0.204341
25.035294 -19.736235 0.222563
30.744408 -24.236937 0.273316
22.533653 -17.764099 0.601047
23.293135 -18.528196 -0.623456
22.781168 -18.120960 -0.203224
21.547684 -17.293844 0.192892
30.773491 -24.698338 0.275481
22.627285 -18.160315 0.607749
23.983986 -19.249184 0.644189
23.993004 -19.429152 -0.646702
25.407099 -20.574263 -0.684817
24.953548 -20.206985 -0.224168
30.813086 -24.951946 -0.276807
24.632830 -20.125866 0.222074
22.313101 -18.230568 0.603561
21.577606 -17.787207 -0.585759
24.123409 -19.885803 -0.654869
21.913605 -18.064180 -0.198268
24.822557 -20.462137 -0.224587
21.880705 -18.197990 0.198687
24.356316 -20.256933 0.221166
30.760612 -25.583330 0.279320
22.176222 -18.443769 0.604189
30.769989 -25.591129 0.838325
21.375612 -17.936268 -0.584503
24.883326 -20.879589 -0.680419
30.841845 -25.879379 -0.843351
21.617247 -18.139025 -0.197011
21.492102 -18.194408 0.196592
21.747355 -18.410496 0.596859
24.295992 -20.568075 0.666807
22.381441 -19.115557 -0.616545
21.564589 -18.417898 -0.197989
21.430990 -18.466124 0.197500
24.317244 -20.953077 0.224098
30.779116 -26.520983 0.283649
21.722198 -18.717043 0.600629
30.773115 -26.515812 0.850891
22.372231 -19.447884 -0.620943
24.401955 -21.212296 -0.677278
21.229464 -18.454491 -0.196383
24.283834 -21.296350 0.225495
30.839718 -27.045706 0.286371
21.430252 -18.793827 0.597068
24.910507 -21.845928 0.694032
30.781088 -26.994289 0.857592
22.321474 -19.748371 -0.624294
24.725094 -21.874916 -0.691519
21.269825 -18.817951 -0.198268
21.187513 -18.910578 0.198268
21.287807 -19.000095 0.597697
20.751482 -18.684719 -0.584922
21.624987 -19.471226 -0.203155
30.824896 -27.754862 -0.289583
20.992075 -19.067858 0.197989
21.946932 -19.935190 0.206994
20.995382 -19.070864 0.594136
20.565527 -18.844833 -0.584294
22.327232 -20.459139 -0.634346
21.815504 -19.990227 -0.206575
21.177345 -19.576136 0.201340
21.209925 -19.606253 0.605026
20.480724 -19.098585 -0.586597
24.641214 -22.978304 -0.705760
26.981033 -25.160221 -0.772775
20.404270 -19.027290 -0.194777
26.964354 -25.144667 -0.257399
21.413584 -20.143888 0.205249
22.214773 -20.897572 0.212928
21.169100 -19.913900 0.608796
22.647369 -21.304518 0.651309
20.777418 -19.717033 -0.600000
20.484074 -19.438660 -0.197151
21.013056 -20.115625 0.203085
20.936739 -20.042566 0.607121
21.021690 -20.300411 -0.612147
20.133831 -19.443014 -0.195405
21.065928 -20.521517 0.205319
20.961559 -20.419847 0.612985
20.950703 -20.588198 -0.615288
20.626699 -20.269802 -0.201898
23.458235 -23.052343 -0.229614
20.779518 -20.598969 0.204272
20.264246 -20.088173 0.597697
20.968187 -20.968187 -0.621152
24.757448 -24.757448 -0.733404
20.562164 -20.562164 -0.203015
20.591928 -20.772415 0.204202
21.151003 -21.336390 0.629320
24.677343 -24.893639 0.734241
21.295961 -21.670927 -0.636440
23.377205 -23.788816 -0.698639
20.473061 -20.833538 -0.203923
20.626183 -21.173370 0.206366
20.691925 -21.240856 0.621152
20.286520 -21.007307 -0.611728
20.019566 -20.730867 -0.201200
22.957899 -23.773602 -0.230731
20.523607 -21.439240 0.207204
20.429729 -21.341173 0.618849
20.831923 -21.952267 -0.633927
22.552433 -23.765305 -0.686283
20.760267 -21.876759 -0.210555
21.834076 -23.008314 -0.221446
20.328884 -21.610241 0.207134
20.455076 -21.744387 0.625341
20.182724 -21.643322 -0.619896
23.203314 -24.882507 -0.712671
20.636768 -22.130224 -0.211253
21.809776 -23.388121 -0.223261
20.343163 -22.007109 0.209228
22.062973 -23.867590 0.680838
22.924860 -24.799974 0.707435
20.020102 -21.848108 -0.620733
20.159121 -21.999819 -0.208321
20.338600 -22.391052 0.211183
20.979965 -23.097141 0.653613
21.880739 -24.088816 0.681676
20.015997 -22.230017 -0.626597
21.106441 -23.441076 -0.660733
20.046665 -22.264076 -0.209159
19.902718 -22.299112 0.208670
20.970673 -23.495653 0.659686
20.033236 -22.643454 -0.633299
19.911247 -22.505571 -0.209787
19.766706 -22.539608 0.209298
20.514341 -23.392124 0.651728
21.489960 -24.504602 0.682723
20.333370 -23.390865 -0.649215
19.832182 -22.814314 -0.211043
20.039236 -23.256678 0.214325
20.133223 -23.365755 0.646074
20.589481 -24.107185 -0.664084
22.219238 -26.015385 -0.716650
19.736246 -23.108173 -0.212160
19.984127 -23.606205 0.215930
20.070669 -23.708431 0.650681
22.092594 -26.096827 0.716231
24.163513 -28.796953 -0.787435
22.805548 -27.178595 -0.247695
21.714819 -26.109232 0.237084
19.824656 -23.836555 0.649424
21.264708 -26.026703 0.234640
20.956930 -25.650002 0.693822
21.224548 -26.445238 0.236735
20.851196 -25.980051 0.697801
22.107306 -28.042984 0.249301
21.013630 -26.655663 0.710995
21.102615 -27.254406 0.240644
20.688406 -26.719446 0.707854
30.887400 -40.618992 0.356254
20.769135 -27.312798 0.718744
30.818949 -41.271580 0.359605
20.853022 -27.925583 0.730053
30.836046 -42.055061 0.364073
30.795050 -42.777023 0.367982
0.128507 -0.178507 0.004607
20.467619 -28.431316 0.733822
0.153865 -0.221796 0.005654
0.140670 -0.206602 0.005236
0.155556 -0.232806 0.001955
0.166635 -0.249386 0.006283
0.148007 -0.225748 0.005654
0.151469 -0.235485 0.001955
0.162257 -0.252256 0.006283
0.128064 -0.202970 0.001676
0.117369 -0.186019 0.004607
0.147336 -0.238093 0.001955
0.157830 -0.255050 0.006283
0.129690 -0.213723 0.001745
0.140038 -0.230776 0.005654
0.117595 -0.197659 0.001606
0.102236 -0.171844 0.004188
0.151099 -0.259094 0.006283