# This PCD file was generated using the MATLAB® pcwrite function
# from Computer Vision System Toolbox®.
# .PCD v.7 - Point Cloud Data file format
VERSION .7
FIELDS x y z
SIZE 4 4 4
TYPE F F F
COUNT 1 1 1
WIDTH 744
HEIGHT 1
VIEWPOINT 0 0 0 1 0 0 0
POINTS 744
DATA ascii
24.856371 25.739525 -0.749529
28.313585 29.319576 -0.284556
26.986095 27.461250 -0.806493
28.526312 29.028585 -0.284137
25.358358 25.358358 -0.751205
28.743191 28.743191 -0.283788
24.209541 23.790651 -0.710995
25.462421 25.021851 -0.249231
28.235086 27.266306 -0.822199
25.679806 24.798700 -0.249231
25.984463 24.658335 -0.750367
28.622576 27.161810 -0.275481
29.064934 27.103489 -0.832461
30.014025 27.988531 -0.286511
29.897409 27.395929 -0.849425
30.706852 28.137646 -0.290769
29.488949 26.551970 -0.831205
29.398092 26.470161 -0.276179
29.734509 26.306871 -0.831623
30.009924 26.550539 -0.279739
29.646036 25.770906 -0.822828
30.383867 26.412292 -0.281066
29.504883 25.199551 -0.812775
31.099846 26.561777 -0.285534
29.861523 25.056793 -0.816545
30.841845 25.879379 -0.843351
31.506639 26.437210 -0.287139
30.927645 25.494783 -0.839582
31.033985 25.582443 -0.280786
31.428659 25.450426 -0.847121
31.458101 25.474268 -0.282601
31.931234 25.399250 -0.854660
32.007893 25.460228 -0.285534
32.175301 25.138100 -0.855288
32.134296 25.106064 -0.284696
32.195148 24.704206 -0.850053
32.153828 24.672499 -0.282950
32.257797 24.307995 -0.846074
32.216171 24.276627 -0.281624
32.299923 23.900684 -0.841676
32.266029 23.875605 -0.280228
32.313141 23.476871 -0.836650
32.311352 23.475571 -0.278832
32.386551 23.101103 -0.833299
32.311459 23.047539 -0.277086
32.423119 22.702911 -0.829110
32.322952 22.632774 -0.275481
32.496407 22.334162 -0.825969
32.453297 22.304535 -0.274922
32.557453 21.960279 -0.822618
32.439449 21.880686 -0.273177
32.681156 21.631186 -0.820943
32.704205 21.646441 -0.273805
32.522377 21.322603 0.271501
32.407341 21.247185 0.811728
32.692593 21.230818 -0.816545
32.581558 21.158710 -0.271222
32.522186 20.918974 0.269965
32.473804 20.887852 0.808796
32.674252 20.815794 -0.811519
32.596287 20.766125 -0.269826
32.559727 20.543657 0.268779
32.494190 20.502308 0.804817
32.693562 20.429205 -0.807540
32.649055 20.401394 -0.268779
32.610214 20.179811 0.267731
32.535843 20.133791 0.801466
32.759777 20.075216 -0.804817
32.723534 20.053007 -0.267941
32.648289 19.811468 0.266614
32.573547 19.766113 0.798116
32.796597 19.706184 -0.801466
32.717278 19.658524 -0.266475
32.716805 19.464453 0.265777
32.615913 19.404428 0.794974
32.795029 19.317747 -0.797278
32.689415 19.255537 -0.264869
32.712654 19.077456 0.264380
32.645821 19.038481 0.791623
32.858456 18.970839 -0.794765
32.856205 18.969538 -0.264869
32.738979 18.711868 0.263263
32.706558 18.693336 0.789110
32.883530 18.604605 -0.791414
32.846424 18.583612 -0.263473
32.831226 18.386370 0.262705
32.737595 18.333933 0.785969
32.948444 18.263620 -0.789110
32.902393 18.238094 -0.262635
32.815083 18.002972 0.261309
32.782391 17.985035 0.783247
32.965988 17.899071 -0.785760
32.919685 17.873932 -0.261518
32.829998 17.640194 0.260192
32.797176 17.622559 0.779896
33.050308 17.573160 -0.784084
32.968460 17.529640 -0.260680
32.911888 17.315783 0.259633
32.878929 17.298441 0.778220
33.060513 17.210213 -0.780733
32.978260 17.167395 -0.259563
32.963951 16.977551 0.258865
32.895309 16.942198 0.775079
33.102539 16.866587 -0.778220
33.064445 16.847178 -0.259075
32.967979 16.617229 0.257748
32.899055 16.582489 0.771728
33.141098 16.523542 -0.775707
33.058071 16.482145 -0.257888
33.039986 16.293518 0.257190
32.970779 16.259388 0.770053
33.140255 16.163582 -0.772356
33.056839 16.122898 -0.256771
33.027798 15.930719 0.256003
32.967331 15.901552 0.766702
33.135662 15.804900 -0.769006
33.051868 15.764933 -0.255654
33.102253 15.612036 0.255514
33.032501 15.579139 0.765027
33.199833 15.481337 -0.767330
33.151932 15.459000 -0.255374
33.173660 15.293267 0.255025
36.606358 16.875763 0.281415
36.726334 16.931072 0.847121
33.260887 15.157860 -0.765655
33.303772 15.177402 -0.255514
36.779739 16.761492 -0.282183
37.198986 16.756922 0.284835
37.127922 16.724911 0.852985
37.301014 16.607481 -0.855288
37.290016 16.602585 -0.284975
37.233963 16.383337 0.283998
37.162647 16.351955 0.850472
37.261147 16.201609 -0.851100
37.323437 16.228691 -0.284137
29.731359 12.773600 0.225914
29.734749 12.775056 0.677906
37.437923 15.891457 -0.851938
29.768402 12.635937 -0.225774
29.878584 12.529130 0.226193
29.771339 12.484159 0.676231
30.037973 12.442136 -0.681047
29.988400 12.421601 -0.226612
29.801678 12.192188 0.224797
29.842134 12.208739 0.675393
29.922932 12.089649 -0.676021
29.882408 12.073277 -0.225006
29.944090 11.946481 0.225076
29.724672 11.858942 0.670367
30.101709 11.857379 -0.677697
30.061060 11.841366 -0.225565
29.972643 11.655724 0.224517
29.901573 11.628086 0.672042
30.026695 11.526169 -0.673718
30.051222 11.535583 -0.224727
29.680468 11.244924 0.221585
29.712080 11.256900 0.665550
29.995029 11.214683 -0.670786
29.485722 11.024260 -0.219770
29.693031 10.954338 0.220957
29.837320 11.007569 0.666178
29.706564 10.812305 -0.662199
29.458645 10.722070 -0.218863
29.392210 10.552882 0.218025
29.904015 10.736638 0.665550
29.658422 10.502598 -0.659058
29.475681 10.437886 -0.218304
29.369894 10.256426 0.217187
29.996569 10.475271 0.665550
29.739491 10.240128 -0.658849
29.546736 10.173757 -0.218164
29.429871 9.990095 0.216978
30.086840 10.213106 0.665550
29.808756 9.973870 -0.658430
29.634392 9.915529 -0.218164
29.439955 9.707842 0.216419
29.908962 9.862496 0.659686
29.847116 9.697916 -0.657383
29.681751 9.644185 -0.217885
29.860582 9.558448 0.656754
29.764780 9.384799 -0.217885
29.652647 9.207392 0.216768
30.076530 9.339011 0.659686
29.887531 9.137535 -0.654660
29.826418 9.118852 -0.217746
29.636112 8.919457 0.216070
29.946262 9.012802 0.655079
30.081165 8.910447 -0.657173
29.837744 8.838342 -0.217257
29.803011 8.686786 0.650262
30.234661 8.669649 -0.658849
29.865673 8.563844 -0.216908
29.710270 8.379163 0.215512
29.512028 8.323253 0.642304
30.309166 8.405476 -0.658849
29.910360 8.294877 -0.216698
29.743668 8.109055 0.215232
29.593184 8.068027 0.642513
30.371704 8.138074 -0.658639
29.913994 8.015430 -0.216210
29.803629 7.846641 0.215162
29.652794 7.806929 0.642304
30.480284 7.882737 -0.659477
30.002165 7.759087 -0.216349
29.822508 7.573952 0.214813
29.661652 7.533100 0.641047
30.441202 7.589844 -0.657173
30.039623 7.489719 -0.216140
29.658281 7.257335 0.639582
30.603491 7.347249 -0.659267
30.113562 7.229627 -0.216210
29.940416 7.050032 0.214744
30.607992 7.066412 -0.658011
30.156019 6.962066 -0.216070
29.971539 6.781867 0.214534
29.780422 6.738621 0.639582
30.746580 6.816352 -0.659686
30.235151 6.702971 -0.216210
30.039352 6.522182 0.214604
29.847862 6.480606 0.639791
30.726658 6.531153 -0.658011
30.360962 6.453422 -0.216698
30.026592 6.245540 0.214115
30.811872 6.268746 -0.658639
30.406322 6.186236 -0.216629
30.334949 6.033997 0.215930
30.132921 5.993811 0.643561
30.826147 5.991996 -0.657801
30.645655 5.956912 -0.217955
30.160492 5.726148 0.214325
30.017099 5.698925 0.640000
30.837942 5.715475 -0.656964
30.539154 5.660098 -0.216838
30.006659 5.426088 0.638744
30.935873 5.454829 -0.658011
30.695709 5.412482 -0.217606
30.176991 5.185356 0.213766
30.052868 5.164027 0.638744
30.637173 5.126904 -0.650681
30.672735 5.132855 -0.217117
30.270441 4.929854 0.214115
30.165861 4.912823 0.640210
30.710371 4.864045 -0.651309
30.844755 4.885329 -0.218025
30.341959 4.670074 0.214325
30.177940 4.644829 0.639582
30.642879 4.579609 -0.649006
30.975222 4.629278 -0.218653
30.391453 4.406551 0.214395
30.217325 4.381304 0.639582
30.711378 4.316203 -0.649634
30.974831 4.353229 -0.218374
30.557560 4.158701 0.215302
30.214783 4.112051 0.638744
30.509979 4.016715 -0.644608
31.051296 4.087981 -0.218653
30.562927 3.888095 0.215093
30.328857 3.858318 0.640419
30.414867 3.734476 -0.641885
31.006386 3.807106 -0.218095
30.794302 3.644746 0.216489
30.281944 3.584104 0.638744
30.386698 3.462127 -0.640629
31.068235 3.539778 -0.218304
30.785175 3.371525 0.216210
30.351822 3.324065 0.639582
30.405809 3.195779 -0.640419
30.928877 3.250756 -0.217117
30.932817 3.114771 0.217047
30.389622 3.060074 0.639791
30.502203 2.937028 -0.641885
30.896345 2.974980 -0.216698
30.889116 2.838311 0.216559
30.454992 2.798421 0.640629
30.536631 2.671609 -0.642095
30.801590 2.694790 -0.215861
31.062189 2.581069 0.217606
30.518106 2.535859 0.641466
30.608618 2.408950 -0.643142
30.893715 2.431388 -0.216349
31.083530 2.309905 0.217606
30.578955 2.272409 0.642304
30.618500 2.141054 -0.642932
30.883831 2.159608 -0.216140
31.222244 2.046414 0.218444
30.647503 2.008744 0.643351
30.636019 1.873779 -0.642932
30.821651 1.885133 -0.215581
31.188995 1.771039 0.218095
30.793629 1.748589 0.646074
30.741060 1.611071 -0.644817
30.697124 1.608768 -0.214604
31.293158 1.503118 0.218723
30.897591 1.484118 0.647958
30.793901 1.344491 -0.645655
30.580120 1.335157 -0.213696
31.305082 1.229980 0.218723
30.989286 1.217572 0.649634
30.864412 1.077809 -0.646911
30.630583 1.069643 -0.213976
31.234663 0.954305 0.218164
31.008724 0.947402 0.649843
30.952597 0.810522 -0.648587
30.678736 0.803351 -0.214255
31.071846 0.677990 0.216978
31.325670 0.683529 0.656335
30.958492 0.540383 -0.648587
31.154495 0.543804 -0.217536
31.286556 0.409563 0.218444
31.240469 0.408960 0.654451
31.441906 0.274389 -0.658639
31.318045 0.273308 -0.218653
31.448935 0.137223 0.219561
31.372820 0.136891 0.657173
31.613066 0.000000 -0.662199
31.509232 0.000000 -0.219980
31.328938 -0.136699 0.218723
31.322830 -0.136672 0.656126
31.521885 -0.275087 -0.660315
31.438036 -0.274356 -0.219491
31.526531 -0.412705 0.220119
31.360434 -0.410531 0.656964
31.718210 -0.553643 -0.664503
31.634411 -0.552181 -0.220887
31.351772 -0.684098 0.218932
31.485598 -0.687018 0.659686
31.512283 -0.825178 -0.660315
31.578405 -0.826910 -0.220538
31.634468 -0.966520 0.220957
31.428436 -0.960226 0.658639
31.743683 -1.108514 -0.665341
31.659929 -1.105589 -0.221166
31.574867 -1.240580 0.220608
31.588694 -1.241123 0.662199
31.622931 -1.380687 -0.663037
31.719007 -1.384882 -0.221655
31.652735 -1.520390 0.221236
31.456823 -1.510980 0.659686
31.809359 -1.667058 -0.667225
31.675756 -1.660056 -0.221446
31.718130 -1.801086 0.221795
31.642075 -1.796767 0.663875
31.833517 -1.947021 -0.668063
31.819761 -1.946180 -0.222563
31.661291 -2.075191 0.221515
31.505474 -2.064978 0.661362
31.895102 -2.230323 -0.669739
31.721764 -2.218202 -0.222004
31.761644 -2.360298 0.222353
31.685659 -2.354651 0.665550
31.904325 -2.510925 -0.670367
31.850733 -2.506707 -0.223051
31.660114 -2.630753 0.221795
31.703760 -2.634379 0.666388
31.801521 -2.782273 -0.668691
31.757914 -2.778457 -0.222563
31.874939 -2.928895 0.223470
31.719387 -2.914602 0.667225
31.985018 -3.079807 -0.673089
31.891718 -3.070823 -0.223680
31.728773 -3.194919 0.222632
31.812115 -3.203311 0.669739
31.877378 -3.350448 -0.671414
31.983046 -3.361553 -0.224517
31.888550 -3.492364 0.223959
31.703444 -3.472092 0.668063
32.075397 -3.654530 -0.676231
31.942556 -3.639395 -0.224448
31.985956 -3.785787 0.224866
31.910221 -3.776824 0.673089
32.081978 -3.939172 -0.677068
32.078308 -3.938721 -0.225634
31.872343 -4.054674 0.224308
31.796703 -4.045052 0.671414
32.095943 -4.225511 -0.678116
31.923746 -4.202841 -0.224797
31.984371 -4.352882 0.225355
31.908791 -4.342596 0.674555
32.166752 -4.520742 -0.680419
32.123512 -4.514666 -0.226472
31.905582 -4.626090 0.225076
31.948835 -4.632360 0.676231
32.046974 -4.789453 -0.678744
32.102673 -4.797777 -0.226612
32.061665 -4.934762 0.226472
31.907194 -4.910987 0.676231
32.290325 -5.114285 -0.684817
32.148472 -5.091818 -0.227240
32.135818 -5.233650 0.227310
32.070347 -5.222988 0.680629
32.274048 -5.400824 -0.685445
32.231030 -5.393624 -0.228148
32.088924 -5.513885 0.227310
31.974279 -5.494186 0.679582
32.304455 -5.696147 -0.687121
32.133495 -5.666002 -0.227799
32.206867 -5.823950 0.228497
32.121883 -5.808583 0.683770
32.381313 -6.001522 -0.689843
32.289303 -5.984469 -0.229265
32.105698 -6.095457 0.228148
32.148548 -6.103593 0.685445
32.249195 -6.268609 -0.688168
32.265301 -6.271739 -0.229474
32.335701 -6.431971 0.230172
32.133286 -6.391708 0.686283
32.506771 -6.613577 -0.694870
32.366123 -6.584962 -0.230591
32.307713 -6.720014 0.230382
32.281837 -6.714632 0.690681
32.477158 -6.903233 -0.695498
35.039341 -7.447842 -0.750367
32.395458 -6.885868 -0.231219
32.286930 -7.010180 0.230661
32.104771 -6.970629 0.688168
32.444962 -7.192875 -0.696126
34.553299 -7.660282 -0.741362
32.334137 -7.168305 -0.231219
32.429340 -7.338011 0.232127
32.345009 -7.318928 0.694660
32.936226 -7.603927 -0.708063
32.504192 -7.504184 -0.232895
32.364071 -7.620727 0.232127
32.357761 -7.619242 0.696335
32.499199 -7.802367 -0.700105
34.200470 -8.210807 -0.736754
32.544430 -7.813226 -0.233663
32.403183 -7.929008 0.232895
32.260906 -7.894194 0.695707
32.885811 -8.199353 -0.709948
32.436195 -8.087252 -0.233384
32.536289 -8.263165 0.234361
32.462116 -8.244327 0.701571
32.919479 -8.513556 -0.712252
35.494186 -9.179421 -0.767959
32.645142 -8.442608 -0.235408
32.414589 -8.534049 0.234012
32.504955 -8.557840 0.704084
33.297817 -8.922124 -0.722095
32.647499 -8.747870 -0.235967
32.570427 -8.879718 0.235687
32.419392 -8.838540 0.703875
33.671497 -9.337933 -0.731938
32.560280 -9.029765 -0.235897
32.607189 -9.196178 0.236525
32.543098 -9.178102 0.708273
33.483013 -9.601099 -0.729634
32.749390 -9.390736 -0.237852
34.729538 -9.958535 -0.252233
32.458496 -9.460789 0.236036
32.538551 -9.484123 0.709948
33.417126 -9.898603 -0.730053
32.771660 -9.707408 -0.238619
34.602962 -10.249864 -0.251954
36.578083 -10.834921 -0.266335
32.671539 -9.833017 0.238201
32.521564 -9.787880 0.711414
33.425083 -10.219073 -0.732147
33.087337 -10.115814 -0.241552
32.699085 -10.153337 0.239038
32.635422 -10.133568 0.715812
33.086720 -10.432202 -0.726702
35.127228 -11.075572 -0.771519
33.522335 -10.569551 -0.245391
35.448795 -11.176962 -0.259493
32.609238 -10.438299 0.239038
32.650490 -10.451504 0.718116
32.994423 -10.720538 -0.726702
35.656799 -11.585596 -0.785341
41.295326 -13.417665 -0.909529
33.590496 -10.914214 -0.246578
32.868286 -10.838335 0.241621
32.709961 -10.786127 0.721466
34.814808 -11.648871 -0.769006
33.456043 -11.194236 -0.246299
35.656101 -11.930365 -0.262495
32.876614 -11.160107 0.242389
32.813400 -11.138648 0.725864
34.229717 -11.786238 -0.758325
41.470802 -14.279543 -0.918744
34.141842 -11.755980 -0.252093
41.337067 -14.233493 -0.305221
32.740208 -11.433393 0.242110
32.790459 -11.450941 0.727540
33.814560 -11.974363 -0.751414
38.979103 -13.803224 -0.866179
35.065411 -12.417313 -0.259703
36.960072 -13.088248 -0.273735
32.940357 -11.826797 0.244344
32.802200 -11.777193 0.730053
33.567852 -12.217700 -0.748273
35.096664 -12.774141 -0.260750
38.958706 -14.179810 -0.289443
33.014149 -12.179563 0.245671
35.190701 -12.982534 0.261867
32.960812 -12.159886 0.735917
33.469322 -12.513667 -0.748482
35.321049 -13.205998 -0.263263
33.495728 -12.690395 0.250069
32.993683 -12.500189 0.739058
33.648193 -12.916331 -0.754974
34.457615 -13.227038 -0.257678
34.203854 -13.301152 0.256212
38.751942 -15.069806 0.290281
32.892662 -12.791257 0.739267
33.822563 -13.323062 -0.761466
34.164101 -13.457597 -0.256352
34.281525 -13.676942 0.257678
36.529190 -14.573668 0.274573
33.076939 -13.196362 0.745969
33.890408 -13.692614 -0.765655
34.026817 -13.747727 -0.256212
33.818424 -13.835484 0.255095
33.136337 -13.556433 0.749948
33.954365 -14.064358 -0.769843
33.794689 -13.998219 -0.255374
34.056053 -14.280888 0.257818
32.979893 -13.829618 0.749110
33.351780 -14.156991 -0.758953
33.597607 -14.261338 -0.254816
34.058762 -14.632798 0.258795
33.464222 -14.377365 0.762932
33.923782 -14.750480 -0.774870
33.691967 -14.649684 -0.256492
33.755863 -14.852936 0.257469
33.602867 -14.785615 0.769006
33.738968 -15.021557 -0.773613
33.654194 -14.983812 -0.257190
33.825546 -15.237298 0.259005
33.654873 -15.160415 0.773194
33.606598 -15.315409 -0.773613
33.758739 -15.384745 -0.259005
33.791183 -15.577950 0.259773
33.139957 -15.277729 0.764398
34.556347 -15.930695 0.797068
33.489788 -15.616546 -0.774032
33.641327 -15.687207 -0.259144
33.916241 -15.995938 0.261797
34.416012 -16.231646 0.797068
33.478569 -15.968459 -0.776964
33.620483 -16.036148 -0.260052
33.766354 -16.286955 0.261727
34.336090 -16.561764 0.798534
33.823189 -16.496672 -0.788273
33.739906 -16.456051 -0.262076
34.196926 -16.864058 0.266195
41.471268 -20.451366 0.968587
33.785309 -16.844734 -0.790786
33.863491 -16.883715 -0.264171
41.647522 -20.992079 0.325606
41.576908 -20.956488 0.975289
34.037891 -17.343172 -0.800210
34.178177 -17.414652 -0.267801
41.707001 -21.250778 -0.326793
41.542759 -21.395927 0.326234
41.330231 -21.286469 0.973823
34.124691 -17.764191 -0.805864
41.662628 -21.688192 -0.983875
41.431267 -21.567753 -0.326095
40.788086 -21.459650 0.321766
40.576633 -21.348398 0.960419
40.942127 -21.769316 -0.971309
40.155479 -21.351046 -0.317508
39.806484 -21.388794 0.315483
39.895599 -21.436678 0.948692
40.188278 -21.820456 -0.957906
39.229439 -21.299849 -0.311643
36.041359 -19.772966 0.287000
35.946678 -19.721024 0.858849
36.201313 -20.066717 -0.867016
36.129658 -20.026997 -0.288396
35.980858 -20.150249 0.287907
35.877892 -20.092585 0.861362
36.129242 -20.440943 -0.869529
36.057957 -20.400612 -0.289234
35.942554 -20.542862 0.289024
35.874786 -20.504129 0.865550
36.088024 -20.835430 -0.872880
35.973820 -20.769493 -0.290002
35.865578 -20.916185 0.289862
35.763584 -20.856705 0.867226
36.042656 -21.230747 -0.876231
35.929062 -21.163834 -0.291119
35.819187 -21.310177 0.290979
35.717690 -21.249792 0.870576
35.993130 -21.626856 -0.879582
35.880150 -21.558968 -0.292236
35.768642 -21.704945 0.292096
35.667648 -21.643660 0.873927
35.871231 -21.981918 -0.881257
35.792961 -21.933956 -0.293073
35.671406 -22.074137 0.292864
35.579437 -22.017223 0.876440
35.813694 -22.378881 -0.884608
35.735874 -22.330254 -0.294190
35.655018 -22.496639 0.294330
35.555054 -22.433569 0.880629
35.785683 -22.797995 -0.888796
35.708324 -22.748711 -0.295587
35.591904 -22.893482 0.295447
35.492470 -22.829525 0.883980
35.753071 -23.218315 -0.892985
35.676178 -23.168381 -0.296983
35.558022 -23.312860 0.296843
35.392231 -23.204163 0.886493
35.715836 -23.639795 -0.897173
35.614395 -23.572655 -0.298170
35.486259 -23.711161 0.297960
35.387897 -23.645437 0.891519
35.640797 -24.040022 -0.900524
35.531685 -23.966423 -0.299217
35.410240 -24.109976 0.299077
35.345490 -24.065887 0.895707
35.561485 -24.440731 -0.903875
35.527214 -24.417177 -0.300962
35.329956 -24.509264 0.300194
35.240925 -24.447498 0.898430
35.477882 -24.841883 -0.907226
35.402889 -24.789370 -0.301730
35.278057 -24.932064 0.301590
35.181366 -24.863731 0.902409
35.455093 -25.289873 -0.912252
35.315472 -25.190281 -0.302847
35.213337 -25.349976 0.302917
35.125332 -25.286621 0.906597
35.427174 -25.739347 -0.917278
35.288460 -25.638567 -0.304523
35.216579 -25.821863 0.304872
35.064583 -25.710417 0.910786
35.329796 -26.142675 -0.920629
35.224148 -26.064499 -0.305919
35.094063 -26.205978 0.305779
34.999100 -26.135069 0.914974
35.291946 -26.594391 -0.925655
35.187023 -26.515324 -0.307594
35.055073 -26.656498 0.307455
34.920906 -26.554476 0.918953
35.185436 -26.998734 -0.929006
35.112965 -26.943125 -0.308991
34.979256 -27.083832 0.308851
34.917099 -27.035707 0.925027
35.137573 -27.452480 -0.934032
35.065624 -27.396269 -0.310666
34.930046 -27.536629 0.310526
34.797611 -27.432226 0.928168
35.021858 -27.857645 -0.937383
34.950428 -27.800827 -0.311783
34.867786 -27.984356 0.312132
34.775219 -27.910065 0.934032
35.057137 -28.388708 -0.944922
34.955173 -28.306141 -0.314017
34.846821 -28.471046 0.314157
34.685181 -28.338982 0.938220
34.985500 -28.839821 -0.949739
34.922878 -28.788198 -0.315972
34.958385 -29.074583 0.317438
34.867016 -28.998592 0.949948
35.222656 -29.555319 -0.963142
35.122280 -29.471094 -0.320091
35.130733 -29.740362 0.321347
35.032318 -29.657045 0.961466
35.358727 -30.199203 -0.974032
35.289581 -30.140150 -0.324000
35.354694 -30.463554 0.325815
35.226620 -30.353197 0.974032
36.980206 -32.146400 -1.026388
36.889305 -32.067383 -0.341244
36.974579 -32.425838 0.343338
36.884689 -32.347004 1.027645
37.192471 -32.905121 -1.040210
37.094872 -32.818771 -0.345782
37.167671 -33.173416 0.347806
37.070919 -33.087059 1.040838
37.468575 -33.736855 -1.056126
37.364410 -33.643066 -0.351018
37.439320 -34.007484 0.353112
37.313614 -33.893299 1.055917
37.703465 -34.548859 -1.071205
37.600227 -34.454262 -0.356044
37.669827 -34.821629 0.358139
37.552361 -34.713043 1.071205
37.956245 -35.394772 -1.087121
37.853947 -35.299374 -0.361350
37.925354 -35.676609 0.363514
37.794163 -35.553200 1.086912
42.142262 -39.991512 -1.216964
41.903854 -39.765274 -0.403307
41.173744 -39.415283 0.397932
44.076202 -42.193787 1.278116
41.979649 -40.539276 -0.407426
40.541702 -39.493977 0.395139
44.107361 -42.967487 1.289844
44.420155 -43.651566 -0.434793
39.875938 -39.529465 0.391998
44.149643 -43.766033 1.302200
44.468861 -44.468861 -0.439051
39.304184 -39.648682 0.389764
43.887207 -44.271877 0.435212
43.674534 -44.057339 1.299477
43.805763 -44.577068 -0.436329
37.923988 -38.930061 0.379431
41.230373 -42.324162 1.237697
37.781548 -39.123940 -0.379711
37.451435 -39.122280 0.378105
37.962654 -39.656307 1.149948
37.080757 -39.074966 -0.376080
36.807133 -39.127136 0.375033
36.703918 -39.360134 -1.127330
36.404186 -39.038708 -0.372660
36.192772 -39.153122 0.372241
40.943066 -44.291962 1.263456
36.122639 -39.420944 -1.120001
41.303280 -45.074623 -1.280629
35.960789 -39.244316 -0.371612
35.876617 -39.497078 0.372520
40.312996 -44.381145 1.255917
36.151886 -40.150738 -1.131728
35.877911 -39.846455 -0.374335
35.876831 -40.196590 0.376150
39.684502 -44.462727 1.248378
39.953850 -45.159615 -1.263037
36.005898 -40.697262 -0.379362
35.940063 -40.981789 0.380549
38.916473 -44.768280 -0.414128
38.621849 -44.822865 1.239372
0.151872 -0.210963 0.005445
0.176695 -0.254704 0.002164
0.176660 -0.254655 0.006492
0.129417 -0.190074 0.004817
0.155556 -0.232806 0.001955
0.166635 -0.249386 0.006283
0.109656 -0.167253 0.001396
0.148007 -0.225748 0.005654
0.151469 -0.235485 0.001955
0.162257 -0.252256 0.006283
0.128064 -0.202970 0.001676
0.117369 -0.186019 0.004607
0.147336 -0.238093 0.001955
0.136786 -0.221043 0.005445
0.129690 -0.213723 0.001745
0.119292 -0.196587 0.004817
0.138046 -0.232034 0.001885
0.127795 -0.214804 0.005236
0.135989 -0.233184 0.005654