# This PCD file was generated using the MATLAB® pcwrite function
# from Computer Vision System Toolbox®.
# .PCD v.7 - Point Cloud Data file format
VERSION .7
FIELDS x y z
SIZE 4 4 4
TYPE F F F
COUNT 1 1 1
WIDTH 860
HEIGHT 1
VIEWPOINT 0 0 0 1 0 0 0
POINTS 860
DATA ascii
24.951273 27.711195 -0.260331
25.923466 28.290499 -0.803770
25.349262 27.183754 -0.259493
27.617611 29.102890 -0.840419
27.905214 29.405960 -0.283020
27.995537 28.990229 -0.844189
28.237175 29.240450 -0.283788
28.254463 28.751951 -0.844398
28.554348 29.057116 -0.284417
28.673962 28.673962 -0.849425
28.637127 28.637127 -0.282741
28.702034 28.205410 -0.842932
28.436602 27.944571 -0.278343
28.393307 27.419098 -0.826807
28.571480 27.591158 -0.277296
28.646004 27.184042 -0.827226
29.443741 27.941067 -0.850262
28.448490 26.996609 -0.273805
29.540209 27.546692 -0.846074
29.326569 27.347467 -0.279949
29.241377 26.794786 -0.830786
29.143864 26.705431 -0.275969
29.266054 26.351274 -0.824922
29.197449 26.289501 -0.274294
29.345137 25.962385 -0.820733
29.275965 25.901186 -0.272897
29.389492 25.547895 -0.815707
29.319752 25.487272 -0.271222
29.489679 25.186565 -0.812356
29.388975 25.100555 -0.269826
29.493902 24.748322 -0.806493
29.423050 24.688869 -0.268150
29.554455 24.362812 -0.802304
29.513922 24.329399 -0.267033
29.610537 23.978140 -0.798116
29.538599 23.919886 -0.265358
29.630871 23.569460 -0.793089
29.589693 23.536705 -0.263961
29.740881 23.236124 -0.790576
29.667881 23.179090 -0.262844
29.752157 22.829634 -0.785550
29.710358 22.797560 -0.261448
29.822495 22.472862 -0.782199
29.748447 22.417063 -0.260052
29.888880 22.116608 -0.778849
29.822363 22.067389 -0.259005
29.918976 21.737408 -0.774660
29.843910 21.682869 -0.257539
29.977299 21.382599 -0.771309
29.901733 21.328699 -0.256422
29.966200 20.982559 -0.766283
30.119486 21.089891 -0.256701
30.279995 20.810863 -0.769634
30.071632 20.667660 -0.254746
30.095753 20.299841 -0.760419
29.993849 20.231106 -0.252582
29.998693 20.044485 0.251884
30.146698 19.953665 -0.757278
30.069189 19.902363 -0.251744
29.988491 19.661316 0.250348
29.915756 19.613628 0.749320
30.177134 19.597260 -0.753718
30.107540 19.552065 -0.250627
30.066412 19.339367 0.249580
29.959648 19.270693 0.746178
30.220520 19.252594 -0.750576
30.108341 19.181129 -0.249231
30.132547 19.012222 0.248742
30.033665 18.949831 0.743875
30.251720 18.903372 -0.747226
30.172815 18.854069 -0.248393
30.127245 18.643305 0.247346
30.061861 18.602844 0.740524
30.347332 18.596869 -0.745550
30.267988 18.548246 -0.247835
30.186203 18.317438 0.246508
30.120487 18.277559 0.738011
30.328497 18.223200 -0.741152
30.291553 18.201002 -0.246718
30.215994 17.976627 0.245461
30.149958 17.937340 0.734870
30.357153 17.881729 -0.738011
30.311375 17.854765 -0.245601
30.259420 17.646772 0.244554
30.193066 17.608076 0.732147
30.373508 17.536154 -0.734660
30.327471 17.509573 -0.244484
30.273355 17.302649 0.243437
30.171972 17.244703 0.727959
30.490576 17.250738 -0.733822
30.409487 17.204861 -0.243925
30.327223 16.984060 0.242669
30.225357 16.927013 0.725655
30.500044 16.906450 -0.730472
30.418531 16.861267 -0.242808
30.369074 16.661045 0.241831
30.301796 16.624134 0.723979
30.505838 16.563318 -0.727121
30.459059 16.537920 -0.241970
30.442842 16.357529 0.241272
30.375257 16.321215 0.722304
30.543287 16.240154 -0.724608
30.460949 16.196375 -0.240853
30.398584 15.993469 0.239806
30.330723 15.957766 0.717906
30.577425 15.917601 -0.722095
30.494690 15.874531 -0.240016
30.403645 15.658906 0.238759
30.371054 15.642120 0.715603
30.608271 15.595693 -0.719582
30.525139 15.553335 -0.239178
30.467699 15.356984 0.238201
30.390337 15.317990 0.712880
30.635832 15.274463 -0.717068
30.588112 15.250669 -0.238619
30.492929 15.037449 0.237363
30.424217 15.003564 0.710576
26.553539 12.951026 -0.618849
30.651140 14.949560 -0.714346
26.504791 12.927250 -0.205877
30.531290 14.891105 -0.237153
30.550940 14.736024 0.236804
30.905184 14.906891 0.718744
26.782856 12.774767 -0.621571
30.744337 14.664296 -0.713508
26.616590 12.695463 -0.205877
30.623972 14.606886 -0.236874
31.284342 14.754653 0.241482
31.558561 14.883984 0.730890
27.908157 13.013787 -0.645027
31.704754 14.784170 -0.732775
26.617611 12.411996 -0.205040
27.759531 12.944482 -0.213836
31.701874 14.782826 -0.244204
31.775156 14.648547 0.244274
34.626656 15.963107 0.266195
31.714483 14.620578 0.731519
31.887148 14.531811 -0.734032
26.633917 12.137775 -0.204341
31.947363 14.391238 0.244623
28.613934 12.889637 0.657383
31.904673 14.372007 0.732985
34.566433 15.571043 0.794137
26.952814 12.000166 -0.618011
32.076679 14.281458 -0.735498
26.875853 11.965900 -0.205389
28.666857 12.613719 0.218653
28.642965 12.603207 0.655498
34.682697 15.260752 0.793718
34.996506 15.216914 -0.799372
27.144318 11.802685 -0.206645
34.929966 15.187982 -0.265916
28.775839 12.363076 0.218653
28.641626 12.305414 0.652985
35.081951 14.891404 -0.798325
27.246279 11.565359 -0.206645
26.743176 11.214345 0.202457
29.943136 12.556199 0.226682
29.255020 12.267648 0.664503
29.299032 12.136056 -0.664294
31.183332 12.916559 -0.707016
27.493984 11.388381 -0.207762
29.468491 12.055879 0.222283
34.764931 14.222709 0.786807
29.209156 11.801265 -0.659896
29.279753 11.829788 -0.220468
29.154621 11.631515 0.219142
28.768209 11.477352 0.648796
28.966848 11.410345 -0.652147
28.172358 11.097386 -0.211393
28.938139 11.253427 0.216768
28.979088 11.269351 0.651309
28.915979 11.099804 -0.648796
27.894703 10.707773 -0.208600
29.360390 11.270397 -0.219561
28.333906 10.734756 0.211532
29.796223 11.288779 0.667435
28.768259 10.756011 -0.643351
28.736403 10.744101 -0.214185
28.379597 10.469786 0.211183
30.672129 11.315545 0.684817
28.973764 10.545588 -0.645864
29.092175 10.588686 -0.216140
28.818108 10.346758 0.213766
28.398462 10.196090 0.632042
29.705544 10.519284 -0.660105
35.718277 12.648505 -0.793718
29.362566 10.397830 -0.217466
28.567438 9.976195 0.211253
28.316460 9.888550 0.628273
27.716524 9.543565 -0.614032
28.780884 9.910053 -0.212510
29.666597 10.070453 0.218723
28.430075 9.650710 0.628901
27.836676 9.314021 -0.614869
28.354187 9.487178 -0.208740
28.803673 9.498027 0.211742
30.522587 10.064839 0.224378
27.592203 9.098544 0.608587
28.782167 9.351892 -0.633927
30.360575 9.864749 -0.668691
28.616592 9.298095 -0.210066
29.152124 9.331669 0.213696
27.975252 8.954948 0.615288
30.812769 9.863245 0.677697
28.872215 9.103374 -0.634136
28.954142 9.129206 -0.211951
29.079649 9.029470 0.212579
28.997595 9.003992 0.636021
29.218264 8.932920 -0.640000
28.736258 8.785556 -0.209787
28.324270 8.524638 0.206506
28.874018 8.690093 0.631623
29.093798 8.617975 -0.635602
29.415873 8.713379 -0.214185
28.013573 8.165212 0.203713
28.132891 8.199989 0.613822
27.918528 8.005509 -0.608377
29.465820 8.449188 -0.642095
27.452965 7.872011 -0.199385
29.192806 8.370902 -0.212021
28.420610 8.015441 0.206157
28.097528 7.924323 0.611519
27.862082 7.726839 -0.605655
27.414618 7.602746 -0.198617
28.402647 7.743450 0.205528
28.956564 7.894465 0.628691
28.942448 7.755105 -0.627644
28.011166 7.505569 -0.202457
28.237053 7.434196 0.203853
29.034021 7.644020 0.628901
29.454271 7.617393 -0.637278
28.656471 7.411067 -0.206645
28.698227 7.288421 0.206715
29.622890 7.523256 0.640210
29.121889 7.260902 -0.628691
29.059649 7.245384 -0.209089
29.071560 7.113765 0.208949
27.220747 6.660874 0.587016
28.960546 6.952812 -0.623875
28.353617 6.807101 -0.203574
29.249334 6.887304 0.209787
27.414080 6.455159 0.589948
28.533041 6.587371 -0.613403
28.489887 6.577408 -0.204132
28.508562 6.450829 0.204062
27.878922 6.308356 0.598744
27.964746 6.199635 -0.600000
29.721693 6.589141 -0.637697
28.126402 6.235473 -0.201130
28.563768 6.201802 0.204062
28.939238 6.283324 0.620314
28.643660 6.088398 -0.613403
28.590557 6.077111 -0.204062
29.027990 6.037831 0.206994
29.188732 6.071265 0.624503
28.881845 5.876078 -0.617383
29.318632 5.964943 -0.208879
28.736309 5.716007 0.204551
28.995461 5.767556 0.619267
29.304958 5.696307 -0.625341
29.173248 5.670705 -0.207483
28.893162 5.485538 0.205319
29.270601 5.557197 0.624084
30.022018 5.564252 -0.639582
28.435040 5.270123 -0.201898
30.430998 5.640052 -0.216070
28.349522 5.126429 0.201130
29.091702 5.260637 0.619267
28.277475 4.986082 -0.601466
28.420858 5.011364 -0.201479
28.511442 4.899162 0.201968
28.417204 4.882968 0.603979
28.319910 4.739128 -0.601466
28.601585 4.786264 -0.202457
28.622196 4.661421 0.202457
28.468599 4.636406 0.604189
28.488560 4.512145 -0.604189
28.049665 4.442631 -0.198268
28.543184 4.393216 0.201619
28.834064 4.437987 0.611100
28.487297 4.257455 -0.603351
28.057695 4.193251 -0.198058
28.639812 4.152575 0.202038
27.773422 4.026955 0.587854
28.899586 4.061572 -0.611309
29.152782 4.097156 -0.205528
28.120089 3.826976 0.198128
27.718348 3.772301 0.585969
29.082613 3.828799 -0.614451
28.989141 3.816493 -0.204132
28.936079 3.681134 0.203643
28.156843 3.582003 0.594555
29.432463 3.613852 -0.621152
28.991566 3.559717 -0.203923
28.967100 3.428482 0.203643
28.355814 3.356132 0.598116
29.274141 3.335367 -0.617173
28.653913 3.264701 -0.201340
29.154963 3.192988 0.204760
28.711988 3.144474 0.605026
27.949879 2.937651 -0.588691
28.174118 2.961219 -0.197779
28.863333 2.906385 0.202526
28.449860 2.864750 0.598953
27.845078 2.681176 -0.585969
28.069489 2.702784 -0.196872
29.046923 2.669037 0.203643
28.613157 2.629180 0.601885
28.654236 2.506921 -0.602513
28.809248 2.520483 -0.201898
28.889730 2.400551 0.202387
28.475595 2.366139 0.598534
30.030531 2.363454 -0.630995
28.770332 2.264274 -0.201479
28.700161 2.132790 0.200921
28.844120 2.143488 0.605864
29.022747 2.029468 -0.609424
29.327669 2.050790 -0.205249
28.897289 1.894028 0.202177
29.011374 1.901506 0.609006
28.779894 1.760254 -0.603979
29.144825 1.782574 -0.203853
28.683094 1.628744 0.200572
28.388031 1.611989 0.595602
28.804144 1.509561 -0.604189
28.839718 1.511426 -0.201619
28.846039 1.385575 0.201619
28.640690 1.375711 0.600629
29.085903 1.269918 -0.609843
28.891771 1.261442 -0.201898
29.206753 1.147536 0.204062
29.191069 1.146920 0.611938
29.425606 1.027565 -0.616754
29.431343 1.027765 -0.205598
29.075724 0.888344 0.203085
29.030083 0.886949 0.608377
30.322952 0.794034 -0.635393
28.409569 0.743931 -0.198407
28.642485 0.624981 0.200013
28.846804 0.629440 0.604398
29.429060 0.513686 -0.616545
28.235010 0.492844 -0.197151
28.686844 0.375531 0.200292
28.881189 0.378075 0.605026
29.172489 0.254584 -0.611100
28.628212 0.249835 -0.199873
29.489000 0.128671 0.205877
29.033354 0.126683 0.608168
29.043629 0.000000 -0.608377
29.079290 0.000000 -0.203015
29.528999 -0.128845 0.206157
28.463486 -0.124196 0.596231
29.362440 -0.256242 -0.615079
29.268171 -0.255419 -0.204341
30.606632 -0.400663 0.213696
28.501305 -0.373103 0.597068
30.068823 -0.524853 -0.629948
29.874722 -0.521465 -0.208600
29.812178 -0.650504 0.208181
29.986282 -0.654303 0.628273
30.392912 -0.795866 -0.636859
32.121941 -0.841143 -0.673089
30.068960 -0.787383 -0.209996
29.475527 -0.900559 0.205877
29.589699 -0.904047 0.620105
30.384809 -1.061061 -0.636859
30.470684 -1.064060 -0.212859
29.546482 -1.160884 0.206436
29.191069 -1.146920 0.611938
29.964874 -1.308295 -0.628273
29.451223 -1.285868 -0.205808
29.565191 -1.420118 0.206645
29.030155 -1.394418 0.608796
30.062141 -1.575490 -0.630576
29.159271 -1.528173 -0.203853
29.731379 -1.688270 0.207902
29.975126 -1.702111 0.628901
30.735809 -1.879883 -0.645027
29.544069 -1.806993 -0.206645
30.473869 -1.997363 0.213208
30.228495 -1.981280 0.634555
30.568632 -2.137567 -0.641885
38.098591 -2.664113 -0.800000
30.125700 -2.106594 -0.210834
31.741714 -2.219597 -0.222144
38.115993 -2.665330 -0.266754
30.644751 -2.277298 0.214534
29.771360 -2.212394 0.625341
38.163593 -3.003540 -0.801885
30.624554 -2.410205 -0.214464
38.091282 -2.997849 -0.266754
30.314783 -2.518964 0.212370
30.069750 -2.498604 0.632042
38.225567 -3.344304 -0.803770
30.363274 -2.656442 -0.212789
30.202028 -2.775177 0.211742
38.008949 -3.492532 0.266475
29.758081 -2.734384 0.625969
34.114697 -3.284872 -0.717906
38.254639 -3.683503 -0.805027
30.418566 -2.928975 -0.213347
38.132698 -3.671761 -0.267452
30.365700 -3.057665 0.213068
38.116314 -3.838111 0.267452
29.623665 -2.982946 0.623665
34.074791 -3.581405 -0.717697
38.221039 -4.017193 -0.805027
38.148930 -4.009614 -0.267801
30.178816 -3.305118 0.211951
38.160892 -4.179297 0.268011
29.904594 -3.275086 0.630157
34.062107 -3.880887 -0.718116
38.333530 -4.367554 -0.808168
34.486038 -3.929188 -0.242320
38.251583 -4.358218 -0.268779
29.831049 -3.530737 0.209717
38.212341 -4.522729 0.268639
29.765663 -3.522998 0.627854
32.161366 -3.948919 -0.678744
34.036865 -4.179202 -0.718325
34.053429 -4.181235 -0.239527
38.321274 -4.705261 -0.269546
33.846386 -4.305804 0.238201
38.211098 -4.861066 0.268918
29.882553 -3.801541 0.630995
38.134224 -4.851286 0.805236
31.084892 -4.092404 -0.656754
32.333839 -4.256831 -0.683142
38.489361 -5.067221 -0.813194
31.051296 -4.087981 -0.218653
38.377895 -5.052546 -0.270245
33.847153 -4.606396 0.238480
38.286125 -5.210513 0.269756
30.333660 -4.128230 0.641257
38.229130 -5.202756 0.808168
31.295509 -4.398297 -0.661990
38.473377 -5.407081 -0.813822
31.341221 -4.404721 -0.220957
33.658390 -4.730379 -0.237293
31.786827 -4.608871 0.224238
38.318367 -5.555899 0.270314
30.494366 -4.421473 0.645445
38.211956 -5.540470 0.808796
31.265823 -4.672709 -0.662199
38.553272 -5.761825 -0.816545
31.400488 -4.692834 -0.221655
31.389597 -4.831321 0.221725
34.186592 -5.261820 0.241482
38.406792 -5.911371 0.271292
29.841970 -4.593119 0.632461
38.310371 -5.896530 0.811938
31.312729 -4.959449 -0.664084
31.457108 -4.982316 -0.222353
31.464678 -5.124348 0.222563
33.961716 -5.531017 0.240225
38.442570 -6.260770 0.271920
29.672472 -4.832469 0.629739
38.336399 -6.243479 0.813613
31.475332 -5.267164 -0.668482
31.856249 -5.330908 -0.225495
34.203552 -5.723711 -0.242110
38.552963 -6.451554 -0.272897
33.577076 -5.769597 0.237852
38.435749 -6.604470 0.272269
38.359283 -6.591330 0.815288
31.250942 -5.510385 -0.664712
34.047184 -6.003437 -0.724189
38.684612 -6.821141 -0.822828
31.778973 -5.603490 -0.225285
34.516670 -6.086220 -0.244693
33.308968 -6.023242 0.236316
34.148563 -6.175066 0.726911
38.379009 -6.940055 0.816964
31.938946 -5.919534 -0.680419
34.652134 -6.422393 -0.738220
31.817354 -5.896998 -0.225914
33.754318 -6.255993 -0.239667
33.608810 -6.380832 0.238829
34.299644 -6.511991 0.731309
38.513432 -7.312004 0.821152
31.150013 -6.054949 -0.664712
38.814842 -7.544841 -0.828273
31.902105 -6.201141 -0.226891
34.110714 -6.630451 -0.242599
33.738190 -6.710944 0.240155
38.583153 -7.674666 0.274643
34.300346 -6.822763 0.732566
38.497185 -7.657566 0.822199
32.418598 -6.595638 -0.692985
34.593552 -7.038138 -0.739477
30.719891 -6.250032 -0.218863
33.444016 -6.804262 -0.238270
30.986034 -6.445104 0.220957
38.661564 -8.041616 0.275690
32.781040 -6.818467 0.701362
38.565933 -8.021726 0.825131
31.186285 -6.628850 -0.667854
30.742430 -6.534505 -0.219421
34.723392 -7.380685 -0.247835
30.928610 -6.715260 0.220957
31.108215 -6.754255 0.666807
33.589836 -7.293068 0.720000
30.844187 -6.837992 -0.661780
32.679222 -7.244809 -0.701152
38.955429 -8.636210 -0.835812
31.045456 -6.882612 -0.222004
38.875160 -8.618416 -0.277994
30.868832 -6.984904 0.220957
30.658037 -6.937206 0.658430
33.047100 -7.477796 0.709739
38.634586 -8.742115 0.829739
31.036621 -7.165369 -0.667225
38.985737 -9.000566 -0.838116
30.828318 -7.117278 -0.220887
38.905647 -8.982077 -0.278762
30.923506 -7.281519 0.221795
30.411430 -7.160941 0.654451
33.058441 -7.784230 0.711414
31.011797 -7.445274 -0.668063
30.823376 -7.400038 -0.221306
31.091902 -7.608140 0.223470
30.328360 -7.421302 0.654032
33.173767 -8.117569 0.715393
38.728626 -9.476834 0.835184
30.945644 -7.715616 -0.668063
31.077814 -7.748569 -0.223610
33.057171 -8.242078 -0.237852
33.234119 -8.440391 0.239387
33.431133 -8.490426 0.722513
38.751045 -9.841512 0.837487
30.460924 -7.877731 -0.659058
32.996914 -8.533583 -0.713927
30.631445 -7.921830 -0.220887
33.167931 -8.577810 -0.239178
33.487984 -8.816650 0.241761
38.980671 -10.262754 0.281415
38.876389 -10.235299 0.842095
30.236506 -8.101847 -0.655707
30.281036 -8.113779 -0.218863
39.080406 -10.471563 -0.282462
29.830498 -8.132727 0.215861
39.043991 -10.644614 0.282532
38.939922 -10.616241 0.845446
29.837090 -8.274557 -0.648587
29.621279 -8.214707 -0.214604
29.565905 -8.338448 0.214464
39.084354 -11.022928 0.283509
29.444672 -8.304256 0.640838
38.951645 -10.985499 0.847749
30.138556 -8.642092 -0.656754
33.761719 -9.681017 -0.735707
29.759937 -8.533525 -0.216140
29.616816 -8.632515 0.215372
39.149879 -11.411149 0.284696
29.380680 -8.563687 0.641047
39.027065 -11.375352 0.851519
29.994890 -8.884892 -0.655288
29.799391 -8.826982 -0.216978
33.835922 -10.022657 -0.246369
39.310650 -11.644345 -0.286232
29.569082 -8.899283 0.215581
39.163715 -11.786941 0.285534
29.477156 -8.871617 0.644817
39.069916 -11.758710 0.854660
29.954456 -9.157996 -0.656126
36.369854 -11.119380 -0.796650
39.419796 -12.051842 -0.863456
29.625599 -9.057455 -0.216279
33.029961 -10.098272 -0.241133
39.408360 -12.048345 -0.287698
29.633547 -9.201461 0.216629
39.259914 -12.190527 0.287000
29.379519 -9.122583 0.644398
39.204517 -12.173326 0.859896
39.475224 -12.446489 -0.867016
32.950119 -10.389132 -0.241203
39.378014 -12.415840 -0.288256
29.437838 -9.423126 0.215791
39.304417 -12.581443 0.288117
29.374966 -9.403001 0.646074
33.088497 -10.591711 0.727749
33.089508 -10.751433 -0.728796
32.715546 -10.629926 -0.240155
39.401310 -12.802262 -0.289234
32.849293 -10.832072 0.241482
39.354572 -12.977192 0.289303
32.994808 -10.880055 0.727749
39.280437 -12.952745 0.866388
33.193531 -11.106400 -0.733194
39.583828 -13.244564 -0.874346
32.962929 -11.029241 -0.242669
39.534649 -13.228108 -0.291049
32.800861 -11.134392 0.241831
39.410271 -13.377985 0.290560
32.870205 -11.157930 0.727121
39.270046 -13.330385 0.868692
33.000813 -11.363091 -0.731100
39.655804 -13.654589 -0.878534
32.600685 -11.225316 -0.240714
32.938465 -11.502626 0.243576
39.480843 -13.787327 0.291956
39.350441 -13.741789 0.873089
33.004066 -11.687352 -0.733404
34.408295 -12.184615 -0.764608
39.648232 -14.040174 -0.881048
32.869106 -11.639562 -0.243437
39.599403 -14.022884 -0.293283
39.453136 -14.165124 0.292654
39.379578 -14.138713 0.876440
34.187916 -12.443383 -0.762095
39.759071 -14.471118 -0.886283
34.185184 -12.442389 -0.253978
39.710442 -14.453419 -0.295028
39.590710 -14.605783 0.294609
39.479813 -14.564872 0.881466
33.694073 -12.597698 -0.753508
39.837296 -14.894555 -0.890891
39.704567 -14.844929 -0.295936
39.648766 -15.021574 0.296005
39.538197 -14.979682 0.885655
33.862869 -12.998737 -0.759791
39.836475 -15.291790 -0.893822
39.769558 -15.266103 -0.297402
39.665287 -15.424987 0.297122
39.629601 -15.411109 0.890681
39.896858 -15.715790 -0.898220
39.858116 -15.700530 -0.299077
39.826382 -15.889115 0.299356
39.976482 -15.948999 0.901571
40.082638 -16.194437 -0.905550
40.155354 -16.223816 -0.302358
39.760250 -16.266348 0.299915
39.650711 -16.221535 0.897383
40.022919 -16.578037 -0.907435
39.910622 -16.531521 -0.301590
39.801224 -16.690039 0.301311
39.692043 -16.644257 0.901571
40.033180 -16.993076 -0.910995
39.939732 -16.953411 -0.302917
39.837814 -17.115677 0.302707
39.729004 -17.068928 0.905760
40.130917 -17.449419 -0.916650
40.019527 -17.400986 -0.304662
39.906609 -17.559328 0.304383
39.798164 -17.511612 0.910786
40.150650 -17.876221 -0.920629
40.039722 -17.826832 -0.305989
39.934204 -17.989048 0.305779
39.826149 -17.940371 0.914974
40.184174 -18.312983 -0.925027
40.101017 -18.275085 -0.307664
39.993652 -18.437326 0.307455
39.885979 -18.387690 0.920000
40.240303 -18.764360 -0.930053
40.157520 -18.725760 -0.309340
40.012119 -18.870941 0.308851
39.941021 -18.837408 0.925027
40.291595 -19.218105 -0.935079
40.037708 -19.097008 -0.309689
40.062080 -19.323654 0.310526
39.955215 -19.272108 0.929215
40.338017 -19.674166 -0.940105
40.256004 -19.634165 -0.312691
40.107170 -19.778667 0.312202
40.036587 -19.743858 0.935079
40.379528 -20.132490 -0.945131
40.297913 -20.091799 -0.314366
40.183075 -20.253937 0.314157
40.077034 -20.200487 0.940105
40.344833 -20.556721 -0.948482
40.236874 -20.501711 -0.315274
40.253716 -20.732025 0.316111
40.148098 -20.677629 0.945969
40.438824 -21.051119 -0.954974
40.322529 -20.990580 -0.317368
40.319054 -21.212881 0.318066
40.213867 -21.157539 0.951833
40.536060 -21.553406 -0.961676
40.385040 -21.473106 -0.319323
40.335003 -21.672779 0.319672
40.239071 -21.621233 0.956859
40.636375 -22.063753 -0.968587
40.512482 -21.996483 -0.321836
40.398586 -22.163422 0.321696
40.259228 -22.086969 0.961885
40.678387 -22.548397 -0.974241
40.563873 -22.484922 -0.323791
40.447929 -22.651928 0.323651
40.309196 -22.574236 0.967749
40.732414 -23.045292 -0.980315
40.618511 -22.980848 -0.325815
40.526531 -23.162823 0.325885
40.457870 -23.123579 0.976126
40.798168 -23.554832 -0.986807
40.684883 -23.489428 -0.327980
40.599277 -23.676800 0.328119
40.496365 -23.616781 0.981990
40.832264 -24.052042 -0.992671
40.728218 -23.990753 -0.330004
40.666119 -24.193800 0.330353
40.494942 -24.091959 0.987016
40.929333 -24.592823 -1.000210
40.817310 -24.525515 -0.332448
40.684265 -24.687819 0.332238
40.582314 -24.625952 0.994346
40.985947 -25.116220 -1.006912
40.848995 -25.032297 -0.334472
40.807407 -25.252390 0.335031
40.680431 -25.173815 1.002095
41.070442 -25.663660 -1.014451
40.891884 -25.552084 -0.336636
40.822289 -25.756945 0.336985
40.695953 -25.677235 1.007959
41.114746 -26.192984 -1.021152
41.013126 -26.128242 -0.339499
40.898731 -26.306948 0.339499
40.773037 -26.226099 1.015498
41.152924 -26.725021 -1.027854
41.009991 -26.632200 -0.341384
40.935211 -26.838299 0.341733
40.768372 -26.728914 1.021152
41.251621 -27.303852 -1.036231
41.109570 -27.209829 -0.344176
41.065285 -27.438946 0.344804
40.899334 -27.328060 1.030367
41.277016 -27.841700 -1.042933
41.135841 -27.746475 -0.346410
41.055714 -27.953840 0.346759
40.956802 -27.886496 1.037906
41.419739 -28.466997 -1.052776
41.287716 -28.376261 -0.349761
41.171726 -28.561842 0.349831
41.015835 -28.453697 1.045655
41.505520 -29.062479 -1.061362
41.333405 -28.941961 -0.352274
41.255726 -29.156664 0.352693
41.117050 -29.058657 1.054660
41.543343 -29.632578 -1.068901
41.372341 -29.510605 -0.354788
41.316223 -29.743425 0.355416
41.186459 -29.650009 1.063037
41.606709 -30.229042 -1.077278
41.469200 -30.129137 -0.357859
41.409920 -30.363010 0.358488
41.288971 -30.274326 1.072461
41.694946 -30.852638 -1.086493
41.558388 -30.751589 -0.360931
41.431824 -30.938612 0.361001
41.303585 -30.842850 1.079791
41.807384 -31.504124 -1.096545
41.607895 -31.353798 -0.363724
41.478653 -31.541101 0.363793
41.383026 -31.468384 1.089006
41.840210 -32.105122 -1.104713
41.673836 -31.977459 -0.366726
41.581352 -32.195721 0.367144
41.454666 -32.097633 1.098220
41.873585 -32.715229 -1.113090
41.716274 -32.592323 -0.369588
41.675755 -32.854515 0.370495
41.549858 -32.755268 1.108273
41.993366 -33.403034 -1.123980
41.837212 -33.278820 -0.373218
41.730602 -33.492348 0.373567
41.543133 -33.341888 1.115812
31.218876 -25.280548 -0.841466
42.042145 -34.045059 -1.133194
41.918232 -33.944714 -0.376569
41.808441 -34.158928 0.376918
41.645443 -34.025757 1.126493
42.160034 -34.754051 -1.144503
30.848799 -25.429787 -0.279111
42.013935 -34.633614 -0.380130
41.877792 -34.829395 0.380269
41.777390 -34.745888 1.138221
42.261063 -35.461243 -1.155603
42.108437 -35.333176 -0.383760
41.992027 -35.548874 0.384109
41.800705 -35.386909 1.147226
30.964542 -26.446218 -0.852985
42.314915 -36.140350 -1.165655
42.193897 -36.036995 -0.387390
42.051407 -36.233810 0.387530
41.884155 -36.089699 1.158116
31.041943 -26.984348 -0.861571
42.428013 -36.882107 -1.177592
42.247612 -36.725288 -0.390811
42.147114 -36.962025 0.391369
41.935944 -36.776836 1.168378
42.359135 -37.476196 -1.184713
42.247562 -37.377487 -0.393813
42.188515 -37.654690 0.394790
42.023655 -37.507545 1.179896
31.338974 -28.217739 -0.883351
42.276478 -38.065914 -0.397164
42.191406 -38.323975 0.397932
30.926931 -28.092047 0.875184
42.509460 -38.952744 -1.207749
29.991711 -27.482340 -0.283998
42.326061 -38.784687 -0.400794
41.905544 -39.077553 -0.400026
41.409794 -39.296425 -1.195812
41.229275 -39.125122 -0.396815
28.554352 -27.334845 0.275969
40.457954 -38.730064 1.173194
40.748856 -39.350712 -1.186597
40.576969 -39.184723 -0.393813
40.068752 -39.375454 -1.176755
29.599173 -29.087025 -0.289722
39.933918 -39.242954 -0.390881
39.327724 -39.327724 -1.165027
39.179832 -39.179832 -0.386832
38.772804 -39.455494 -1.158744
38.640186 -39.320538 -0.384877
38.126343 -39.137783 0.381456
38.000309 -39.008411 1.140734
38.114491 -39.468712 -1.149320
37.603565 -39.281197 0.379641
37.342327 -39.350601 -0.378733
36.937313 -39.265522 0.376360
36.928928 -39.601429 -1.134241
36.806553 -39.470196 -0.376779
36.359043 -39.678936 -1.127330
36.190487 -39.494984 -0.373986
35.789211 -39.400852 0.371612
35.627625 -39.222958 1.109948
35.770565 -39.727238 -1.119791
35.657101 -39.601223 -0.372031
35.151035 -39.383408 0.368541
35.017693 -39.234013 1.101571
35.131035 -39.708412 -1.110577
34.965607 -39.521431 -0.368401
34.562065 -39.410480 0.365958
34.599525 -39.802200 -1.104713
34.461941 -39.643929 -0.366726
34.060173 -39.528778 0.364282
33.955643 -39.407463 1.089634
34.069065 -39.889751 -1.098849
33.487789 -39.557373 0.361839
33.550400 -40.339970 1.099058
0.163586 -0.227235 0.001955
0.151872 -0.210963 0.005445
0.153895 -0.221839 0.001885
0.131071 -0.188937 0.004817
0.168804 -0.247923 0.006283
0.133334 -0.199548 0.001676
0.144417 -0.216135 0.005445
0.148007 -0.225748 0.005654
0.151469 -0.235485 0.001955
0.118988 -0.184988 0.004607
0.149408 -0.236798 0.001955
0.117369 -0.186019 0.004607
0.147336 -0.238093 0.001955
0.157830 -0.255050 0.006283
0.114127 -0.188076 0.001536
0.119292 -0.196587 0.004817
0.117595 -0.197659 0.001606
0.107348 -0.180436 0.004398
0.130953 -0.224548 0.005445