# This PCD file was generated using the MATLAB® pcwrite function
# from Computer Vision System Toolbox®.
# .PCD v.7 - Point Cloud Data file format
VERSION .7
FIELDS x y z
SIZE 4 4 4
TYPE F F F
COUNT 1 1 1
WIDTH 773
HEIGHT 1
VIEWPOINT 0 0 0 1 0 0 0
POINTS 773
DATA ascii
1.154411 1.327998 -0.036859
1.200559 1.381085 -0.012776
1.165956 1.317873 -0.036859
1.199313 1.355577 -0.012636
1.197481 1.329937 -0.037487
1.177641 1.307903 -0.012287
1.141497 1.245725 -0.035393
1.189010 1.297577 -0.012287
1.104595 1.184533 -0.033927
1.173009 1.257898 -0.012008
1.114890 1.174849 -0.033927
1.204591 1.269374 -0.012217
1.111210 1.150691 -0.033508
1.194783 1.237234 -0.012008
1.107194 1.126689 -0.033089
1.205535 1.226761 -0.012008
1.046288 1.046288 -0.030995
1.131343 1.131343 -0.011170
1.126689 1.107194 -0.033089
1.226761 1.205535 -0.012008
1.100348 1.062594 -0.032042
1.179689 1.139212 -0.011449
1.138588 1.080480 -0.032880
1.189585 1.128874 -0.011449
1.140662 1.063684 -0.032670
1.199391 1.118450 -0.011449
1.120416 1.026672 -0.031832
1.172242 1.074162 -0.011100
1.129332 1.016855 -0.031832
1.189003 1.070583 -0.011170
1.138163 1.006962 -0.031832
1.190811 1.053540 -0.011100
1.109180 0.964195 -0.030785
1.169771 1.016867 -0.010821
1.132756 0.967465 -0.031204
1.209016 1.032597 -0.011100
1.079886 0.906132 -0.029529
1.195000 1.002724 -0.010891
1.126325 0.928471 -0.030576
1.226853 1.011340 -0.011100
1.118845 0.906023 -0.030157
1.181233 0.956544 -0.010612
1.103235 0.877553 -0.029529
1.189535 0.946199 -0.010612
1.039946 0.812495 -0.027644
1.166227 0.911157 -0.010332
1.118383 0.858165 -0.029529
1.205868 0.925295 -0.010612
1.109860 0.836339 -0.029110
1.173966 0.884647 -0.010262
1.125153 0.832569 -0.029319
1.213794 0.898161 -0.010542
1.100022 0.799213 -0.028482
1.189226 0.864023 -0.010262
1.139512 0.812806 -0.029319
1.196721 0.853613 -0.010262
1.097423 0.768424 -0.028063
1.138594 0.797252 -0.009704
1.207792 0.837875 0.010262
1.199341 0.832013 0.030576
1.128805 0.775806 -0.028691
1.211436 0.832597 -0.010262
1.165236 0.793381 0.029529
1.118955 0.754745 -0.028272
1.185495 0.799626 -0.009983
1.155715 0.772224 0.009704
1.180428 0.788737 0.029738
1.100488 0.728397 -0.027644
1.134057 0.750616 -0.009495
1.212585 0.795006 0.010123
1.178905 0.772924 0.029529
1.073263 0.696985 -0.026806
1.107018 0.718906 -0.009215
1.211067 0.778984 0.010053
1.194013 0.768015 0.029738
1.155193 0.735939 -0.028691
1.180719 0.752201 -0.009774
1.166848 0.736227 0.028901
1.144614 0.715234 -0.028272
1.178758 0.736570 -0.009704
1.190464 0.736682 0.009774
1.173229 0.726016 0.028901
1.091140 0.668651 -0.026806
1.159562 0.710581 -0.009495
1.196847 0.726265 0.009774
1.230803 0.746870 0.030157
1.122643 0.674552 -0.027435
1.191434 0.715885 -0.009704
1.203140 0.715793 0.009774
1.220089 0.725877 0.029738
1.050957 0.619061 -0.025550
1.163171 0.685160 -0.009425
1.174788 0.685116 0.009495
1.174559 0.684982 0.028482
1.039003 0.599868 -0.025131
1.073845 0.619985 -0.008657
1.180722 0.674838 0.009495
1.197852 0.684629 0.028901
1.113811 0.630164 -0.026806
1.183655 0.669680 -0.009495
1.186566 0.664509 0.009495
1.186334 0.664379 0.028482
1.084291 0.601032 -0.025969
1.189454 0.659325 -0.009495
1.192319 0.654129 0.009495
1.218383 0.668428 0.029110
1.089494 0.591547 -0.025969
1.160010 0.629834 -0.009215
1.127513 0.605834 0.008936
1.171328 0.629377 0.027853
1.156408 0.614873 -0.027435
1.200779 0.638466 -0.009495
1.177005 0.619252 0.009285
1.141384 0.600511 0.027016
1.081916 0.563210 -0.025550
1.170826 0.609493 -0.009215
1.173474 0.604379 0.009215
1.182133 0.608839 0.027853
1.104606 0.562825 -0.025969
1.211739 0.617412 -0.009495
1.178703 0.594115 0.009215
1.160618 0.585000 0.027225
1.145265 0.571008 -0.026806
1.208132 0.602352 -0.009425
1.147969 0.566116 0.008936
1.156712 0.570427 0.027016
1.114260 0.543461 -0.025969
1.186379 0.578636 -0.009215
1.197899 0.577798 0.009285
1.161646 0.560311 0.027016
1.137008 0.542325 -0.026387
1.191384 0.568261 -0.009215
1.157674 0.545995 0.008936
1.202662 0.567212 0.027853
1.114514 0.519706 -0.025759
1.187234 0.553616 -0.009145
1.171476 0.540058 0.009006
1.171248 0.539953 0.027016
1.109909 0.505815 -0.025550
1.164722 0.530794 -0.008936
1.167027 0.525707 0.008936
1.212378 0.546136 0.027853
1.059480 0.471711 -0.024293
1.132769 0.504341 -0.008657
1.180723 0.519531 0.009006
1.180493 0.519429 0.027016
1.100231 0.478394 -0.025131
1.173808 0.510386 -0.008936
1.176024 0.505260 0.008936
1.221724 0.524894 0.027853
1.104364 0.468775 -0.025131
1.178218 0.500124 -0.008936
1.189610 0.498845 0.009006
1.189378 0.498748 0.027016
1.052992 0.436163 -0.023874
1.182537 0.489823 -0.008936
1.147642 0.469513 0.008657
1.156672 0.473207 0.026178
1.140186 0.460665 -0.025759
1.177495 0.475739 -0.008866
1.160984 0.463186 0.008727
1.170043 0.466800 0.026387
1.088350 0.428712 -0.024503
1.181602 0.465445 -0.008866
1.155662 0.449412 0.008657
1.202026 0.467443 0.027016
1.120051 0.429947 -0.025131
1.185618 0.455116 -0.008866
1.131486 0.428682 0.008447
1.178012 0.446309 0.026387
1.095666 0.409653 -0.024503
1.198911 0.448255 -0.008936
1.163329 0.429175 0.008657
1.172482 0.432551 0.026178
1.155568 0.420593 -0.025759
1.193381 0.434355 -0.008866
1.138795 0.408869 0.008447
1.176212 0.422303 0.026178
1.130922 0.400480 -0.025131
1.206552 0.427262 -0.008936
1.170642 0.408806 0.008657
1.217608 0.425208 0.027016
1.153280 0.397106 -0.025550
1.200779 0.413461 -0.008866
1.193103 0.405004 0.008796
1.183403 0.401711 0.026178
1.175663 0.393371 -0.025969
1.213825 0.406140 -0.008936
1.177598 0.388314 0.008657
1.196358 0.394500 0.026387
1.122001 0.364560 -0.024712
1.169771 0.380082 -0.008587
1.199989 0.384120 0.008796
1.190234 0.380997 0.026178
1.125139 0.354755 -0.024712
1.220728 0.384894 -0.008936
1.145996 0.355841 0.008378
1.231706 0.382455 0.027016
1.080387 0.330308 -0.023665
1.176226 0.359608 -0.008587
1.158633 0.348709 0.008447
1.196702 0.360166 0.026178
1.092815 0.323706 -0.023874
1.150556 0.340810 -0.008378
1.190433 0.346980 0.008657
1.199799 0.349710 0.026178
1.114819 0.319669 -0.024293
1.182323 0.339026 -0.008587
1.164542 0.328435 0.008447
1.202805 0.339226 0.026178
1.136835 0.315272 -0.024712
1.194873 0.331368 -0.008657
1.157717 0.315630 0.008378
1.176782 0.320828 0.025550
1.139542 0.305339 -0.024712
1.188060 0.318340 -0.008587
1.170097 0.308061 0.008447
1.169869 0.308001 0.025340
1.122805 0.290377 -0.024293
1.181111 0.305456 -0.008517
1.163049 0.295377 0.008378
1.211273 0.307624 0.026178
1.047690 0.261218 -0.022618
1.164327 0.290299 -0.008378
1.175295 0.287593 0.008447
1.184777 0.289913 0.025550
1.098537 0.263735 -0.023665
1.205709 0.289465 -0.008657
1.206961 0.284202 0.008657
1.216457 0.286438 0.026178
1.149505 0.265384 -0.024712
1.198446 0.276683 -0.008587
1.180135 0.267037 0.008447
1.228662 0.278018 0.026387
1.093212 0.242359 -0.023456
1.210577 0.268379 -0.008657
1.172649 0.254607 0.008378
1.221271 0.265164 0.026178
1.124623 0.239046 -0.024084
1.203092 0.255725 -0.008587
1.145455 0.238255 0.008168
1.194174 0.248388 0.025550
1.107072 0.225236 -0.023665
1.244474 0.253191 -0.008866
1.137683 0.226299 0.008098
1.196296 0.237958 0.025550
1.158066 0.225105 -0.024712
1.207372 0.234689 -0.008587
1.188736 0.225689 0.008447
1.188504 0.225645 0.025340
1.140326 0.211347 -0.024293
1.219206 0.225967 -0.008657
1.141459 0.206409 0.008098
1.151075 0.208148 0.024503
1.161818 0.204860 -0.024712
1.211284 0.213582 -0.008587
1.192494 0.204908 0.008447
1.202115 0.206561 0.025550
1.124119 0.188113 -0.023874
1.183514 0.198052 -0.008378
1.184367 0.192886 0.008378
1.154532 0.188028 0.024503
1.056595 0.167348 -0.022408
1.135814 0.179895 -0.008028
1.156355 0.177980 0.008168
1.166011 0.179466 0.024712
1.038239 0.155166 -0.021990
1.147230 0.171455 -0.008098
1.147968 0.166447 0.008098
1.157638 0.167850 0.024503
1.069255 0.150274 -0.022618
1.178390 0.165612 -0.008308
1.159285 0.157772 0.008168
1.168965 0.159089 0.024712
1.090350 0.143547 -0.023037
1.259104 0.165764 -0.008866
1.190377 0.151435 0.008378
1.160391 0.147620 0.024503
1.041945 0.127935 -0.021990
1.191026 0.146240 -0.008378
1.201584 0.142217 0.008447
1.201349 0.142189 0.025340
1.092689 0.124496 -0.023037
1.222064 0.139237 -0.008587
1.153077 0.126282 0.008098
1.162791 0.127346 0.024503
1.073848 0.112866 -0.022618
1.183452 0.124386 -0.008308
1.203883 0.121225 0.008447
1.203648 0.121201 0.025340
1.134503 0.109240 -0.023874
1.234261 0.118846 -0.008657
1.155106 0.106139 0.008098
1.164836 0.107033 0.024503
1.145373 0.100207 -0.024084
1.185443 0.103713 -0.008308
1.165953 0.096883 0.008168
1.175689 0.097692 0.024712
1.076435 0.084717 -0.022618
1.196272 0.094149 -0.008378
1.156782 0.085964 0.008098
1.166527 0.086688 0.024503
1.176867 0.082295 -0.024712
1.226974 0.085798 -0.008587
1.167467 0.076520 0.008168
1.177215 0.077159 0.024712
1.117666 0.068359 -0.023456
1.197733 0.073256 -0.008378
1.158106 0.065762 0.008098
1.177844 0.066883 0.024712
1.178124 0.061743 -0.024712
1.188340 0.062278 -0.008308
1.168624 0.056133 0.008168
1.208341 0.058041 0.025340
1.118689 0.048843 -0.023456
1.198829 0.052342 -0.008378
1.159077 0.045540 0.008098
1.168842 0.045924 0.024503
1.149047 0.040126 -0.024084
1.189246 0.041529 -0.008308
1.169426 0.035729 0.008168
1.209170 0.036943 0.025340
1.139359 0.029835 -0.023874
1.199560 0.031412 -0.008378
1.119706 0.024432 0.007819
1.179460 0.025736 0.024712
1.179561 0.020589 -0.024712
1.189790 0.020768 -0.008308
1.179870 0.015445 0.008238
1.169643 0.015311 0.024503
1.079722 0.009423 -0.022618
1.199925 0.010472 -0.008378
1.159961 0.005061 0.008098
1.169732 0.005104 0.024503
1.149748 0.000000 -0.024084
1.189971 0.000000 -0.008308
1.169960 -0.005105 0.008168
1.179730 -0.005148 0.024712
1.059727 -0.009248 -0.022199
1.149928 -0.010035 -0.008028
1.159872 -0.015184 0.008098
1.169643 -0.015311 0.024503
1.049610 -0.018321 -0.021990
1.199788 -0.020942 -0.008378
1.169693 -0.025523 0.008168
1.219442 -0.026608 0.025550
1.129365 -0.029573 -0.023665
1.229549 -0.032197 -0.008587
1.159431 -0.035424 0.008098
1.169198 -0.035722 0.024503
1.119072 -0.039079 -0.023456
1.189246 -0.041529 -0.008308
1.169070 -0.045933 0.008168
1.208802 -0.047494 0.025340
1.138665 -0.049715 -0.023874
1.198829 -0.052342 -0.008378
1.158636 -0.055653 0.008098
1.218328 -0.058520 0.025550
1.148172 -0.060173 -0.024084
1.188340 -0.062278 -0.008308
1.168090 -0.066329 0.008168
1.207789 -0.068583 0.025340
1.127645 -0.068970 -0.023665
1.227676 -0.075088 -0.008587
1.117575 -0.073250 0.007819
1.137310 -0.074543 0.023874
1.047212 -0.073228 -0.021990
1.197048 -0.083706 -0.008378
1.166754 -0.086705 0.008168
1.206408 -0.089652 0.025340
1.116302 -0.087855 -0.023456
1.226178 -0.096502 -0.008587
1.195849 -0.099367 0.008378
1.175689 -0.097692 0.024712
1.145373 -0.100207 -0.024084
1.185443 -0.103713 -0.008308
1.175021 -0.107969 0.008238
1.164836 -0.107033 0.024503
1.134503 -0.109240 -0.023874
1.234261 -0.118846 -0.008657
1.193933 -0.120223 0.008378
1.173805 -0.118196 0.024712
1.143449 -0.120181 -0.024084
1.223232 -0.128567 -0.008587
1.172958 -0.128460 0.008238
1.202544 -0.131700 0.025340
1.112556 -0.126760 -0.023456
1.192257 -0.135841 -0.008378
1.151931 -0.136340 0.008098
1.171564 -0.138664 0.024712
1.111408 -0.136464 -0.023456
1.220802 -0.149896 -0.008587
1.170537 -0.148911 0.008238
1.200063 -0.152667 0.025340
1.040789 -0.137022 -0.021990
1.150048 -0.151407 -0.008098
1.149376 -0.156423 0.008098
1.168965 -0.159089 0.024712
1.138559 -0.160014 -0.024084
1.178390 -0.165612 -0.008308
1.157864 -0.167882 0.008168
1.157638 -0.167850 0.024503
1.107455 -0.165510 -0.023456
1.216460 -0.181801 -0.008587
1.146471 -0.176459 0.008098
1.205537 -0.185550 0.025550
1.066469 -0.168912 -0.022618
1.185197 -0.187717 -0.008378
1.154758 -0.188064 0.008168
1.194004 -0.194456 0.025340
1.084676 -0.181513 -0.023037
1.213102 -0.203004 -0.008587
1.143217 -0.196441 0.008098
1.113434 -0.191323 0.023665
1.102743 -0.194443 -0.023456
1.211284 -0.213582 -0.008587
1.190660 -0.215306 0.008447
1.190428 -0.215264 0.025340
1.110834 -0.205881 -0.023665
1.219206 -0.225967 -0.008657
1.178912 -0.223823 0.008378
1.198327 -0.227509 0.025550
1.099181 -0.213659 -0.023456
1.207372 -0.234689 -0.008587
1.147491 -0.228250 0.008168
1.186490 -0.236008 0.025340
1.107072 -0.225236 -0.023665
1.215077 -0.247210 -0.008657
1.135665 -0.236219 0.008098
1.145232 -0.238209 0.024503
1.153961 -0.245282 -0.024712
1.203092 -0.255725 -0.008587
1.182421 -0.256729 0.008447
1.182190 -0.256679 0.025340
1.132255 -0.251015 -0.024293
1.210577 -0.268379 -0.008657
1.131369 -0.256003 0.008098
1.140900 -0.258159 0.024503
1.120280 -0.258637 -0.024084
1.159472 -0.267685 -0.008308
1.138826 -0.268158 0.008168
1.177531 -0.277272 0.025340
1.147145 -0.275405 -0.024712
1.205709 -0.289465 -0.008657
1.126729 -0.275709 0.008098
1.184777 -0.289913 0.025550
1.115595 -0.278149 -0.024084
1.193435 -0.297557 -0.008587
1.221201 -0.310146 0.008796
1.172512 -0.297780 0.025340
1.142164 -0.295384 -0.024712
1.200474 -0.310464 -0.008657
1.083065 -0.285147 0.007819
1.140864 -0.300364 0.024712
1.139542 -0.305339 -0.024712
1.188060 -0.318340 -0.008587
1.128774 -0.307739 0.008168
1.167137 -0.318198 0.025340
1.117566 -0.309929 -0.024293
1.194873 -0.331368 -0.008657
1.154918 -0.325721 0.008378
1.202805 -0.339226 0.026178
1.134040 -0.325181 -0.024712
1.182323 -0.339026 -0.008587
1.161632 -0.338585 0.008447
1.171004 -0.341317 0.025550
1.150331 -0.340744 -0.025131
1.227259 -0.363531 -0.008936
1.149058 -0.345827 0.008378
1.196702 -0.360166 0.026178
1.099509 -0.336154 -0.024084
1.176226 -0.359608 -0.008587
1.155546 -0.358807 0.008447
1.193513 -0.370596 0.026178
1.144209 -0.360768 -0.025131
1.220728 -0.384894 -0.008936
1.142847 -0.365828 0.008378
1.161668 -0.371853 0.025550
1.122001 -0.364560 -0.024712
1.179281 -0.383172 -0.008657
1.149108 -0.378919 0.008447
1.186864 -0.391369 0.026178
1.137739 -0.380682 -0.025131
1.213825 -0.406140 -0.008936
1.136289 -0.385718 0.008378
1.183403 -0.401711 0.026178
1.058749 -0.364556 -0.023456
1.162959 -0.400439 -0.008587
1.142320 -0.398916 0.008447
1.151536 -0.402134 0.025550
1.102649 -0.390468 -0.024503
1.197126 -0.423924 -0.008866
1.167030 -0.419007 0.008657
1.176212 -0.422303 0.026178
1.014645 -0.369301 -0.022618
1.127604 -0.410414 -0.008378
1.172711 -0.432636 0.008727
1.181862 -0.436012 0.026387
1.095666 -0.409653 -0.024503
1.198911 -0.448255 -0.008936
1.159539 -0.439310 0.008657
1.168663 -0.442767 0.026178
1.101383 -0.422781 -0.024712
1.148276 -0.440782 -0.008587
1.174301 -0.456661 0.008796
1.202026 -0.467443 0.027016
1.134861 -0.447033 -0.025550
1.190905 -0.469110 -0.008936
1.151696 -0.459480 0.008657
1.197901 -0.477914 0.027016
1.140186 -0.460665 -0.025759
1.186766 -0.479485 -0.008936
1.166153 -0.477086 0.008796
1.193685 -0.488350 0.027016
1.145359 -0.474423 -0.025969
1.182537 -0.489823 -0.008936
1.189610 -0.498845 0.009006
1.189378 -0.498748 0.027016
1.131973 -0.480494 -0.025759
1.178218 -0.500124 -0.008936
1.157649 -0.497365 0.008796
1.148237 -0.493322 0.026178
1.136905 -0.494340 -0.025969
1.173808 -0.510386 -0.008936
1.171570 -0.515503 0.008936
1.217097 -0.535536 0.027853
1.123415 -0.500176 -0.025759
1.196715 -0.532812 -0.009145
1.176144 -0.529814 0.009006
1.175915 -0.529711 0.027016
1.064421 -0.485085 -0.024503
1.164722 -0.530794 -0.008936
1.162395 -0.535871 0.008936
1.171248 -0.539953 0.027016
1.060148 -0.494355 -0.024503
1.160046 -0.540938 -0.008936
1.166719 -0.550260 0.009006
1.166491 -0.550153 0.027016
1.082865 -0.516500 -0.025131
1.182358 -0.563956 -0.009145
1.116839 -0.538699 0.008657
1.197666 -0.577685 0.027853
1.132232 -0.552226 -0.026387
1.186379 -0.578636 -0.009215
1.121064 -0.552847 0.008727
1.156712 -0.570427 0.027016
1.091581 -0.544242 -0.025550
1.172335 -0.584505 -0.009145
1.142985 -0.576112 0.008936
1.187402 -0.598500 0.027853
1.104606 -0.562825 -0.025969
1.176100 -0.599253 -0.009215
1.146804 -0.590643 0.009006
1.146581 -0.590528 0.027016
1.081916 -0.563210 -0.025550
1.197435 -0.623345 -0.009425
1.168155 -0.614596 0.009215
1.176775 -0.619132 0.027853
1.094615 -0.582017 -0.025969
1.165462 -0.619687 -0.009215
1.171556 -0.629500 0.009285
1.136100 -0.610448 0.027016
1.124639 -0.610629 -0.026806
1.186374 -0.644149 -0.009425
1.157251 -0.634890 0.009215
1.165791 -0.639575 0.027853
1.084291 -0.601032 -0.025969
1.154470 -0.639933 -0.009215
1.160391 -0.649850 0.009285
1.125273 -0.630183 0.027016
1.113811 -0.630164 -0.026806
1.174952 -0.664756 -0.009425
1.145995 -0.654990 0.009215
1.154451 -0.659823 0.027853
1.108269 -0.639860 -0.026806
1.177766 -0.679983 -0.009495
1.183426 -0.690154 0.009564
1.148649 -0.669872 0.027853
1.119872 -0.659655 -0.027225
1.171787 -0.690235 -0.009495
1.168764 -0.695342 0.009495
1.177129 -0.700318 0.028691
1.122643 -0.674552 -0.027435
1.191434 -0.715885 -0.009704
1.171201 -0.710702 0.009564
1.179520 -0.715750 0.028901
1.108189 -0.679099 -0.027225
1.159562 -0.710581 -0.009495
1.156451 -0.715634 0.009495
1.173229 -0.726016 0.028901
1.085263 -0.678148 -0.026806
1.178758 -0.736570 -0.009704
1.158619 -0.731034 0.009564
1.166848 -0.736227 0.028901
1.096168 -0.698336 -0.027225
1.138551 -0.725337 -0.009425
1.143785 -0.735707 0.009495
1.151971 -0.740972 0.028691
1.073263 -0.696985 -0.026806
1.140564 -0.740691 -0.009495
1.137321 -0.745661 0.009495
1.162183 -0.761960 0.029110
1.083814 -0.717361 -0.027225
1.159073 -0.767174 -0.009704
1.164029 -0.777779 0.009774
1.197054 -0.799846 0.030157
1.152110 -0.777108 -0.029110
1.160624 -0.782851 -0.009774
1.124135 -0.765396 0.009495
1.140444 -0.776500 0.028901
1.087608 -0.747492 -0.027644
1.186713 -0.815605 -0.010053
1.150278 -0.797976 0.009774
1.191127 -0.826314 0.030367
1.138372 -0.797096 -0.029110
1.204124 -0.843137 -0.010262
1.151437 -0.813755 0.009844
1.192035 -0.842447 0.030576
1.155790 -0.824417 -0.029738
1.229285 -0.876840 -0.010542
1.168638 -0.841299 0.010053
1.176524 -0.846976 0.030367
1.148552 -0.834472 -0.029738
1.164956 -0.846390 -0.010053
1.169316 -0.857378 0.010123
1.209402 -0.886770 0.031414
1.109079 -0.820675 -0.028901
1.189679 -0.880316 -0.010332
1.153777 -0.861566 0.010053
1.193606 -0.891308 0.031204
1.085906 -0.818289 -0.028482
1.173966 -0.884647 -0.010262
1.122335 -0.853444 0.009844
1.161908 -0.883535 0.030576
1.110451 -0.852079 -0.029319
1.197934 -0.919207 -0.010542
1.170192 -0.906060 0.010332
1.209490 -0.936487 0.032042
1.134487 -0.886358 -0.030157
1.134708 -0.886531 -0.010053
1.170094 -0.922427 0.010402
1.177717 -0.928437 0.031414
1.142357 -0.908672 -0.030576
1.189535 -0.946199 -0.010612
1.154201 -0.926344 0.010332
1.192962 -0.957453 0.032042
1.087766 -0.880855 -0.029319
1.181233 -0.956544 -0.010612
1.146073 -0.936381 0.010332
1.161334 -0.948850 0.031414
1.118610 -0.922111 -0.030367
1.149693 -0.947733 -0.010402
1.137858 -0.946347 0.010332
1.176070 -0.978127 0.032042
1.102862 -0.925411 -0.030157
1.164359 -0.977013 -0.010612
1.129557 -0.956240 0.010332
1.167490 -0.988353 0.032042
1.140359 -0.973958 -0.031414
1.209016 -1.032597 -0.011100
1.151471 -0.992171 0.010612
1.158820 -0.998503 0.032042
1.086543 -0.944518 -0.030157
1.116943 -0.970944 -0.010332
1.180360 -1.035148 0.010961
1.157579 -1.015170 0.032251
1.138163 -1.006962 -0.031832
1.168342 -1.033662 -0.010891
1.133980 -1.012115 0.010612
1.133759 -1.011918 0.031832
1.129332 -1.016855 -0.031832
1.084965 -0.976907 -0.010193
1.125104 -1.021973 0.010612
1.169288 -1.062107 0.033089
1.157272 -1.060444 -0.032880
1.172242 -1.074162 -0.011100
1.174887 -1.086055 0.011170
1.174658 -1.085843 0.033508
1.082166 -1.009136 -0.030995
1.140884 -1.063892 -0.010891
1.165365 -1.096266 0.011170
1.186984 -1.116603 0.034136
1.102327 -1.046070 -0.031832
1.189585 -1.128874 -0.011449
1.126860 -1.078734 0.010891
1.133863 -1.085437 0.032880
1.150691 -1.111210 -0.033508
1.208461 -1.166998 -0.011729
1.153218 -1.123415 0.011240
1.188800 -1.158078 0.034764
1.140950 -1.121209 -0.033508
1.219629 -1.198526 -0.011938
1.164676 -1.154556 0.011449
1.171549 -1.161370 0.034555
1.102845 -1.102845 -0.032670
1.209123 -1.209123 -0.011938
1.161596 -1.171777 0.011519
1.175447 -1.185749 0.034974
1.079164 -1.098165 -0.032251
1.170490 -1.191099 -0.011659
1.172259 -1.203358 0.011729
1.144125 -1.174478 0.034346
1.083429 -1.121924 -0.032670
1.187837 -1.230041 -0.011938
1.161714 -1.213542 0.011729
1.182228 -1.234972 0.035812
1.114890 -1.174849 -0.033927
1.204591 -1.269374 -0.012217
1.151079 -1.223633 0.011729
1.150855 -1.223395 0.035183
1.145506 -1.228405 -0.035183
1.200288 -1.287151 -0.012287
1.140357 -1.233632 0.011729
1.133349 -1.226050 0.034974
1.114479 -1.216241 -0.034555
1.182254 -1.290204 -0.012217
1.156443 -1.273144 0.012008
1.189828 -1.309899 0.037068
1.097134 -1.218490 -0.034346
1.150877 -1.278178 -0.012008
1.151947 -1.290648 0.012078
1.158380 -1.297855 0.036440
1.165956 -1.317873 -0.036859
1.159557 -1.310641 -0.012217
1.160420 -1.323206 0.012287
1.160194 -1.322948 0.036859
1.180647 -1.358179 -0.037696
1.180877 -1.358444 -0.012566
1.174939 -1.363584 0.012566
1.187762 -1.378466 0.038115
1.155764 -1.353226 -0.037278
1.227427 -1.437132 -0.013195
1.162995 -1.373785 0.012566
1.169228 -1.381148 0.037906
1.163190 -1.386236 -0.037906
1.182700 -1.409487 -0.012846
1.150962 -1.383882 0.012566
1.163524 -1.398985 0.038115
1.189457 -1.455823 0.013125
1.189225 -1.455539 0.039372
1.182967 -1.473946 0.013195
1.188994 -1.481456 0.039791
1.139105 -1.444948 0.012846
1.138883 -1.444666 0.038534
1.169307 -1.510180 0.013334
1.181320 -1.525696 0.040419
1.131652 -1.488197 0.039162
1.160721 -1.554394 0.013544
1.178441 -1.578124 0.041257
1.182590 -1.612850 0.013963
1.182360 -1.612535 0.041885
0.169428 -0.235351 0.002025
1.168471 -1.623108 0.013963
0.181078 -0.251533 0.006492
1.185767 -1.647134 0.042513
1.148267 -1.624760 0.041675
0.176695 -0.254704 0.002164
0.136769 -0.197152 0.005026
0.151924 -0.223130 0.005654
0.155556 -0.232806 0.001955
0.166635 -0.249386 0.006283
0.164484 -0.250880 0.002094
0.126080 -0.192304 0.004817
0.151469 -0.235485 0.001955
0.140623 -0.218622 0.005445
0.106720 -0.169141 0.001396
0.096030 -0.152198 0.003770
0.147336 -0.238093 0.001955
0.157830 -0.255050 0.006283
0.140038 -0.230776 0.005654
0.117595 -0.197659 0.001606
0.102236 -0.171844 0.004188
0.115843 -0.198639 0.004817