# This PCD file was generated using the MATLAB® pcwrite function
# from Computer Vision System Toolbox®.
# .PCD v.7 - Point Cloud Data file format
VERSION .7
FIELDS x y z
SIZE 4 4 4
TYPE F F F
COUNT 1 1 1
WIDTH 816
HEIGHT 1
VIEWPOINT 0 0 0 1 0 0 0
POINTS 816
DATA ascii
30.644798 32.292881 -0.310806
30.593945 31.132624 -0.304732
31.854383 31.854383 -0.314506
30.881678 29.822088 -0.899267
30.715061 29.661190 -0.298100
37.740204 35.814117 -1.089844
31.893934 30.266212 -0.306966
32.077450 29.912706 -0.918744
30.862373 28.779629 -0.294609
37.784546 34.623158 -1.073509
31.466230 28.833487 -0.297960
37.906933 34.131557 -1.068482
31.783529 28.618019 -0.298589
37.963726 33.587467 -1.061781
37.903725 33.534382 -0.353322
38.021477 33.051563 -1.055289
37.983608 33.018646 -0.351367
38.095585 32.536705 -1.049425
37.996559 32.452129 -0.348854
34.211700 28.707026 -0.935498
34.141769 28.648346 -0.311155
34.275761 28.254757 -0.930472
34.236149 28.222103 -0.309759
34.334549 27.803570 -0.925446
34.294617 27.771233 -0.308083
34.419384 27.378412 -0.921257
34.347836 27.321501 -0.306408
34.467911 26.929283 -0.916231
34.427349 26.897594 -0.305011
34.542961 26.505745 -0.912042
34.502094 26.474390 -0.303615
34.549381 26.034824 -0.906179
34.508198 26.003794 -0.301660
34.678818 25.660975 -0.903665
34.573040 25.582705 -0.300264
34.739658 25.239840 -0.899477
34.633175 25.162474 -0.298868
34.795807 24.819607 -0.895288
34.721180 24.766378 -0.297751
34.847275 24.400324 -0.891100
34.739391 24.324783 -0.296075
34.861134 23.959393 -0.886074
34.818481 23.930080 -0.294958
34.936272 23.564812 -0.882723
34.860180 23.513489 -0.293562
35.007187 23.170752 -0.879372
34.938965 23.125597 -0.292515
35.208054 22.864378 -0.879372
35.231693 22.879728 -0.293283
34.969551 22.493170 0.290281
34.895466 22.445517 0.869110
35.136414 22.384365 -0.872671
35.025192 22.313509 -0.289932
35.003822 22.085766 0.288954
34.929356 22.038780 0.865131
35.025185 21.886164 -0.865131
35.023533 21.885132 -0.288326
35.025154 21.674223 0.287558
34.984322 21.648954 0.861781
35.180740 21.558786 -0.864294
35.136444 21.531641 -0.287698
35.110374 21.305498 0.286720
35.000961 21.239105 0.857592
35.264698 21.189169 -0.861781
35.228718 21.167549 -0.286930
35.123085 20.896040 0.285324
35.056091 20.856182 0.854451
35.284592 20.784212 -0.857801
35.239773 20.757812 -0.285534
35.234993 20.548439 0.284766
35.133121 20.489031 0.851938
35.352062 20.410522 -0.855079
35.281013 20.369503 -0.284417
35.204605 20.121088 0.283090
35.171700 20.102283 0.848587
35.319988 19.983089 -0.850053
35.283360 19.962364 -0.283020
35.265430 19.749590 0.282183
28.245224 15.818086 0.678116
35.197495 19.711542 0.845027
35.458050 19.654718 -0.849215
35.351269 19.595528 -0.282183
27.388277 15.025723 0.218095
27.575775 15.128588 0.658849
35.452492 19.249134 -0.845027
27.778732 15.082621 -0.220678
35.441830 19.243343 -0.281554
27.562399 14.809812 0.218444
27.328045 14.683888 0.649843
35.513191 18.882698 -0.842514
27.944611 14.858413 -0.220957
35.502457 18.876991 -0.280716
27.451647 14.443010 0.216559
27.269337 14.347093 0.645445
35.570202 18.516674 -0.840000
35.523918 18.492580 -0.279599
27.594419 14.212060 0.216698
35.506481 18.287039 0.278832
27.286840 14.053646 0.642932
29.566021 15.064640 -0.695079
35.623535 18.151098 -0.837487
29.188662 14.872366 -0.228706
28.940742 14.587335 0.226263
28.015533 14.120992 0.657173
29.982674 14.948810 -0.701780
35.708996 17.803848 -0.835812
29.299437 14.608160 -0.228566
28.170086 13.891950 0.219281
28.146662 13.880397 0.657383
35.683285 17.403900 -0.831623
28.419176 13.860958 -0.220747
29.686443 14.479046 -0.230591
28.011032 13.510919 0.217117
27.906517 13.460505 0.649006
28.371058 13.532300 -0.658430
35.725513 17.040195 -0.829110
28.304384 13.500499 -0.218932
28.191179 13.295824 0.217606
35.652752 16.814930 0.275201
28.221855 13.310290 0.653613
35.546333 16.764740 0.823247
29.086100 13.563071 -0.672252
35.800365 16.693985 -0.827435
28.584251 13.329055 -0.220189
35.716721 16.654980 -0.275131
36.016079 16.603642 0.276877
39.394291 18.161016 0.302847
27.764927 12.799807 0.640419
35.844612 16.335331 -0.825131
39.473160 17.988955 -0.302847
27.789829 12.518406 0.212789
39.624214 17.849407 0.303406
27.848221 12.544709 0.639791
39.748779 17.697296 -0.911414
39.674313 17.664143 -0.303196
27.870556 12.263338 0.212579
27.764460 12.216655 0.635393
39.837521 17.321848 -0.909948
28.180569 12.253261 -0.214534
39.781097 17.297314 -0.302847
28.059200 12.055183 0.213208
27.768967 11.930490 0.633089
39.839916 16.911041 -0.906597
28.166761 11.956081 -0.213627
39.810863 16.898710 -0.301940
28.190996 11.821466 0.213417
28.084082 11.776632 0.637906
39.939789 16.543602 -0.905550
28.593374 11.843763 -0.216070
39.919861 16.535349 -0.301660
28.422657 11.628016 0.214395
39.862057 16.307999 0.300683
28.916798 11.830174 0.654451
33.682285 13.779787 0.762304
40.054829 16.183201 -0.904922
39.969921 16.148897 -0.300962
33.315586 13.291572 0.250418
39.891399 15.915054 0.299845
29.065363 11.595904 0.655498
40.036388 15.770753 -0.901362
39.988373 15.751839 -0.300055
33.225269 12.920601 0.248882
39.954205 15.537340 0.299287
29.202721 11.356317 0.656335
40.135155 15.406443 -0.900524
40.049625 15.373610 -0.299496
29.652414 11.234295 0.221376
33.654697 12.750624 0.251256
40.041515 15.170373 0.298938
29.188519 11.058540 0.653822
40.193153 15.027604 -0.898849
40.154160 15.013024 -0.299287
29.758703 10.978565 0.221446
40.059795 14.778838 0.298100
29.480886 10.876073 0.658220
40.247604 14.648930 -0.897173
40.199070 14.631266 -0.298658
30.088663 10.802935 0.223191
40.159000 14.418555 0.297890
29.856966 10.719746 0.664503
34.006641 12.209632 0.756859
39.996929 14.163656 -0.888796
40.212105 14.239854 -0.297821
40.141685 14.018105 0.296843
40.105545 14.005484 0.889843
40.043385 13.788042 -0.887121
40.297020 13.875377 -0.297541
40.224613 13.654416 0.296564
40.112629 13.616404 0.887330
40.010483 13.387320 -0.883770
40.312256 13.488293 -0.296773
40.266262 13.277822 0.296005
40.229927 13.265841 0.887330
40.125782 13.037657 -0.883770
40.352345 13.111272 -0.296215
40.304409 12.901543 0.295447
40.267986 12.889884 0.885655
38.655205 12.187940 -0.849006
40.075932 12.635893 -0.880210
40.350780 12.722552 -0.295377
40.377258 12.537473 0.295168
40.302551 12.514275 0.883980
38.693165 11.829688 -0.847540
40.184673 12.285687 -0.880210
40.393330 12.349480 -0.294888
40.446827 12.173114 0.294888
40.371929 12.150571 0.883142
40.213665 11.911831 -0.878534
40.183155 11.902793 -0.292585
40.321110 11.752532 0.293213
40.399635 11.775420 0.881466
34.991863 10.033755 -0.762514
40.323944 11.562705 -0.292864
40.152653 11.324220 0.291258
40.231426 11.346437 0.875603
38.845058 10.772688 -0.844398
40.702759 11.287874 -0.294888
40.597260 11.068084 0.293771
40.135998 10.942328 0.871414
34.920219 9.356844 -0.757278
40.664486 10.896016 -0.293911
40.576260 10.682837 0.292934
40.510338 10.665482 0.877487
35.416752 9.159395 -0.766283
40.564396 10.490666 -0.292515
40.590401 10.308649 0.292375
40.553417 10.299256 0.876440
35.049095 8.738721 -0.756650
40.615589 10.126604 -0.292236
40.601109 9.935028 0.291817
40.612617 9.937844 0.875812
39.020252 9.367934 -0.280158
40.663521 9.762447 -0.291956
40.618126 9.564300 0.291328
40.649136 9.571601 0.874765
33.433048 7.718627 -0.718744
40.776394 9.413972 -0.292166
40.700043 9.209479 0.291328
40.662853 9.201065 0.873299
32.884197 7.290251 -0.705550
40.720314 9.027476 -0.291188
40.778862 8.853958 0.291328
40.468037 8.786471 0.867435
32.457600 6.899076 -0.695079
40.854572 8.497764 0.291328
40.817242 8.489999 0.873299
32.026714 6.515908 -0.684608
40.927174 8.140921 0.291328
40.889778 8.133482 0.873299
31.257969 6.075933 -0.667016
40.908237 7.766672 0.290700
40.959198 7.776347 0.873299
31.073872 5.759202 -0.661990
41.013817 7.416506 0.290979
40.986145 7.411502 0.872461
31.132792 5.489551 -0.662199
34.309868 6.049755 -0.243227
41.145962 7.070169 0.291468
41.088673 7.060326 0.873299
31.130207 5.209410 -0.661152
33.809048 5.657694 -0.239318
41.038307 6.683513 0.290281
41.109249 6.695066 0.872461
31.105360 4.926605 -0.659686
33.248173 5.265993 -0.705131
33.402805 5.290485 -0.236106
41.166111 6.336071 0.872461
31.097727 4.647586 -0.658639
33.253307 4.969740 -0.704294
33.101555 4.947061 -0.233663
38.308472 5.554464 0.270245
37.539139 5.442916 0.794555
31.137100 4.376034 -0.658639
33.305313 4.680756 -0.704503
32.331463 4.543891 -0.227938
37.225925 5.066226 0.262286
37.773430 5.140738 0.798534
31.144365 4.100234 -0.658011
31.566835 4.155853 -0.222283
32.835854 4.322922 -0.231219
37.457195 4.765157 0.263612
41.405277 5.267416 0.291398
38.223484 4.862642 0.807121
38.313801 4.704343 -0.808587
38.202171 4.690637 -0.268709
38.649284 4.574444 0.271711
41.459599 4.907067 0.291468
38.850246 4.598230 0.819477
41.342300 4.893184 0.872042
37.409710 4.262298 -0.788692
38.430424 4.378593 -0.270035
41.609776 4.740835 -0.292375
38.687729 4.236996 0.271711
41.490902 4.543993 0.291398
38.352222 4.200251 0.808168
41.373489 4.531134 0.871833
37.644341 3.956580 -0.792880
38.447281 4.040972 -0.269896
41.172203 4.327373 -0.289024
38.733181 3.900226 0.271780
41.558823 4.184753 0.291607
38.387413 3.865409 0.808168
38.234734 3.681586 -0.804608
38.421356 3.699556 -0.269477
38.228020 3.512661 0.268011
38.250435 3.514721 0.804608
38.434723 3.362602 -0.808168
37.934170 3.318810 -0.265846
41.669807 3.645636 -0.292026
38.087807 3.164853 0.266824
38.827641 3.226328 0.816126
38.143658 3.001971 -0.801466
38.091282 2.997849 -0.266754
37.874638 2.814572 0.265148
38.036751 2.826619 0.798953
37.879173 2.648770 -0.795393
38.145920 2.667423 -0.266963
38.266956 2.508149 0.267731
38.199638 2.503736 0.801885
38.220181 2.337646 -0.802095
39.826824 2.435913 -0.835812
37.748539 2.308800 -0.264031
38.257435 2.172415 0.267522
38.080288 2.162355 0.798953
38.309013 2.007690 -0.803561
38.336452 2.009128 -0.268011
37.885395 1.819766 0.264799
38.147640 1.832363 0.800000
38.404980 1.676798 -0.805236
38.362518 1.674944 -0.268080
38.109665 1.497333 0.266265
38.391949 1.508424 0.804817
38.428143 1.341940 -0.805445
40.026817 1.397767 -0.838953
38.735443 1.352672 -0.270594
38.681007 1.181812 0.270175
38.583527 1.178833 0.808587
39.557758 1.035856 -0.828901
38.725780 1.014070 -0.270454
39.319683 0.857958 0.274573
38.572353 0.841652 0.808168
39.465328 0.688870 -0.826807
39.952942 0.697381 -0.278971
40.105587 0.525011 0.280018
41.975380 0.549488 0.293073
41.727272 0.546240 0.874137
39.669788 0.346193 -0.830995
42.079166 0.367219 -0.881466
39.987503 0.348966 -0.279181
41.798584 0.182382 0.291817
41.730450 0.182085 0.874137
40.321156 0.000000 -0.844608
40.089024 0.000000 -0.279879
41.908978 0.000000 -0.292585
40.108643 -0.175008 0.280018
41.838581 -0.182556 0.292096
41.680458 -0.181866 0.873089
39.789757 -0.347240 -0.833508
41.839230 -0.365125 -0.876440
41.157429 -0.359175 -0.287349
41.725407 -0.546216 0.291328
41.717274 -0.546109 0.873927
42.004387 -0.733189 -0.880000
39.822964 -0.695112 -0.278064
42.212540 -0.736823 -0.294749
40.189453 -0.876937 0.280647
39.981712 -0.872404 0.837697
41.860851 -0.913407 0.877069
41.956409 -1.098667 -0.879163
40.145260 -1.051241 -0.280367
42.234493 -1.105949 -0.294958
39.730492 -1.213876 0.277505
41.969391 -1.282281 0.293143
39.862652 -1.217914 0.835393
41.951218 -1.281726 0.879163
41.935234 -1.464411 -0.878953
42.243221 -1.475166 -0.295098
39.688412 -1.559362 0.277296
42.126469 -1.655154 0.294330
39.500851 -1.551993 0.828063
41.960812 -1.832049 -0.879791
42.228741 -1.843747 -0.295098
41.640976 -2.000160 0.291049
39.955158 -1.919184 0.837906
41.943226 -2.198151 -0.879791
42.250984 -2.214280 -0.295377
39.066113 -2.218335 0.273177
39.926907 -2.267214 0.837697
41.753563 -2.370939 0.876021
42.092091 -2.574463 -0.883351
42.359810 -2.590837 -0.296285
38.636154 -2.532347 0.270314
38.768291 -2.541008 0.813822
42.187706 -2.950052 -0.885864
38.774368 -2.711368 -0.271362
42.315636 -2.958997 -0.296145
38.273529 -2.844214 0.267941
38.435562 -2.856256 0.807330
42.269993 -3.326720 -0.888168
38.759201 -3.050415 -0.271431
42.088825 -3.312462 -0.294749
38.356873 -3.187210 0.268709
38.688152 -3.214737 0.813194
39.649815 -3.468909 -0.833718
42.647701 -3.731190 -0.896754
38.810799 -3.395505 -0.271990
38.377388 -3.526386 0.269058
38.459507 -3.533932 0.809006
38.991070 -3.754413 -0.820524
38.700062 -3.726392 -0.271431
42.333168 -4.076221 -0.296913
38.384949 -3.865161 0.269337
38.715683 -3.898464 0.815079
38.509384 -4.047500 -0.811100
38.148930 -4.009614 -0.267801
42.196537 -4.435035 -0.296215
38.180775 -4.181475 0.268150
38.143517 -4.177394 0.803770
38.313663 -4.365290 -0.807749
38.390682 -4.374065 -0.269756
38.063385 -4.505099 0.267592
37.986465 -4.495995 0.801257
38.621426 -4.742115 -0.815079
42.818974 -5.257509 -0.903665
38.182320 -4.688200 -0.268569
37.913506 -4.823207 0.266824
37.866444 -4.817220 0.799582
42.830936 -5.638800 -0.904922
38.724892 -5.098229 -0.272688
42.769890 -5.630763 -0.301172
37.919514 -5.160619 0.267173
38.060719 -5.179836 0.804608
42.889004 -6.027657 -0.907226
38.124393 -5.358034 -0.268779
42.837952 -6.020482 -0.302009
38.318367 -5.555899 0.270314
37.974491 -5.506039 0.803770
42.913876 -6.413522 -0.908901
38.125633 -5.697914 -0.269128
42.902462 -6.411816 -0.302847
38.347492 -5.902244 0.270873
42.834545 -6.592867 0.302568
38.507999 -5.926948 0.816126
42.786667 -6.585498 0.906807
42.974770 -6.806535 -0.911414
42.894260 -6.793783 -0.303196
42.874077 -6.982487 0.303266
42.875587 -6.982733 0.909948
43.032063 -7.201098 -0.913927
42.991142 -7.194250 -0.304313
42.969196 -7.383459 0.304383
38.507084 -6.616727 0.818430
42.891846 -7.370167 0.911624
43.085735 -7.597178 -0.916440
43.005508 -7.583031 -0.304872
42.981850 -7.772385 0.304941
42.943954 -7.765532 0.914137
43.096443 -7.987453 -0.918116
43.095013 -7.987188 -0.305989
43.030277 -8.169554 0.305779
42.992424 -8.162367 0.916650
43.182125 -8.393755 -0.921466
43.102200 -8.378219 -0.306547
43.065231 -8.566207 0.306547
43.037224 -8.560637 0.919163
43.185608 -8.786211 -0.923142
43.174431 -8.783937 -0.307594
43.155273 -8.976310 0.307734
35.776264 -7.441473 0.765445
43.068554 -8.958272 0.921466
43.224644 -9.187681 -0.925655
43.252632 -9.193631 -0.308711
43.192562 -9.378024 0.308572
35.573181 -7.723695 0.762514
43.145061 -9.367711 0.924817
43.269711 -9.592664 -0.928377
43.258621 -9.590205 -0.309340
43.226120 -9.781072 0.309409
35.163132 -7.956604 0.755184
43.217690 -9.779165 0.928168
43.262283 -9.987885 -0.930053
43.319439 -10.001081 -0.310387
43.294853 -10.194585 0.310526
43.218292 -10.176557 0.930053
43.329021 -10.402378 -0.933404
43.395813 -10.418413 -0.311574
43.359653 -10.610040 0.311643
43.283222 -10.591337 0.933404
37.668320 -9.391767 -0.813194
43.382107 -10.816375 -0.936545
43.409973 -10.823322 -0.312342
43.381718 -11.017553 0.312481
43.305431 -10.998178 0.935917
37.710758 -9.752666 -0.815917
43.431259 -11.232087 -0.939686
43.439728 -11.234277 -0.313249
43.438644 -11.436440 0.313598
43.362499 -11.416393 0.939268
35.914902 -9.623369 -0.778849
37.769073 -10.120193 -0.819058
43.447472 -11.641715 -0.942199
43.494579 -11.654338 -0.314366
43.491554 -11.857159 0.314715
43.376972 -11.825919 0.941781
35.916264 -9.960462 -0.780733
37.852737 -10.497493 -0.822828
43.527275 -12.071182 -0.946179
43.593578 -12.089569 -0.315832
39.989040 -11.278076 0.290071
43.540413 -12.279667 0.315832
38.653347 -10.901372 0.841257
43.483814 -12.263703 0.946388
35.789536 -10.262484 -0.779896
37.817352 -10.843951 -0.824084
40.448906 -11.598537 -0.293771
43.553707 -12.488824 -0.316321
43.575600 -12.701129 0.316879
43.547909 -12.693058 0.950158
35.967026 -10.653918 -0.785760
37.865074 -11.216146 -0.827226
40.413265 -11.970955 -0.294260
43.634823 -12.925223 -0.317717
41.021358 -12.346027 0.299077
43.654613 -13.138548 0.318276
43.579090 -13.115817 0.953299
36.035221 -11.017073 -0.789320
41.091415 -12.562906 -0.299985
43.663811 -13.349367 -0.318764
41.131706 -12.771734 0.300683
43.729298 -13.578308 0.319672
38.106487 -11.832378 0.835812
43.692127 -13.566767 0.958325
36.090271 -11.379218 -0.792671
38.004696 -11.982834 -0.278203
43.583801 -13.741920 -0.319044
40.942497 -13.105797 0.300124
37.754211 -12.085218 0.830367
43.400681 -13.892667 0.954556
35.989594 -11.693728 -0.792671
36.006123 -11.699099 -0.264311
38.935307 -12.650847 -0.285813
42.359024 -13.763282 -0.310945
40.085823 -13.218322 0.294679
38.093571 -12.561377 0.840210
36.142170 -12.093000 -0.798325
36.082836 -12.073148 -0.265637
39.060501 -13.069460 -0.287558
39.173546 -13.297626 0.288815
38.266521 -12.989734 0.846493
39.487793 -13.404300 0.873508
41.580051 -14.114525 0.919791
36.233780 -12.476291 -0.802723
36.212479 -12.468956 -0.267382
39.294796 -13.530283 -0.290141
42.481113 -14.627420 -0.313668
40.132248 -14.014808 0.296773
42.737869 -14.924732 0.316042
39.435387 -13.771454 0.874974
41.417542 -14.463653 0.918953
36.198917 -12.818709 -0.804398
36.253109 -12.837899 -0.268499
41.900135 -15.043686 0.310806
38.400970 -13.787356 0.854660
41.609676 -14.939400 0.926074
36.235996 -13.188824 -0.807749
36.139698 -13.153774 -0.268499
40.331863 -14.879210 0.300124
44.197117 -16.305178 0.328887
38.457409 -14.187687 0.858639
44.169743 -16.295078 0.986179
36.419193 -13.616578 -0.814451
36.220230 -13.542190 -0.269965
38.227394 -14.483065 0.285394
39.732925 -15.053459 0.296634
44.268223 -16.771729 0.330493
38.313435 -14.515662 0.858220
44.222195 -16.754292 0.990576
36.448318 -13.991199 -0.817801
36.399414 -13.972425 -0.272199
38.388470 -14.928459 0.287558
37.915085 -14.744370 0.852147
36.399254 -14.338048 -0.819477
36.387745 -14.333513 -0.273037
36.241264 -14.458798 0.272409
38.340324 -15.296238 0.288186
37.738541 -15.056151 0.851100
36.337635 -14.681358 -0.820943
36.409622 -14.710443 -0.274154
36.382111 -14.884315 0.274433
44.452625 -18.186050 0.335310
37.846306 -15.483332 0.856545
36.512947 -15.124158 -0.827854
36.353775 -15.058226 -0.274713
36.472160 -15.294045 0.276109
38.871468 -16.300158 0.882932
44.504879 -18.662445 1.010891
36.591248 -15.532063 -0.832671
36.515537 -15.499927 -0.276947
36.603748 -15.726212 0.278133
37.404972 -16.070444 0.852775
41.768272 -17.945066 0.952252
44.551601 -19.140879 1.015707
36.683525 -15.950451 -0.837906
36.635658 -15.929637 -0.278901
36.538345 -16.077255 0.278692
35.844887 -15.772128 0.820315
36.643406 -16.314695 -0.840210
36.668819 -16.326012 -0.280228
36.469593 -16.428354 0.279250
37.383160 -16.839886 0.858849
40.865330 -18.408487 0.938849
36.572422 -16.667011 -0.841885
36.679646 -16.715878 -0.281415
36.579117 -16.863203 0.281205
37.262020 -17.178028 0.859477
40.076649 -18.475588 0.924398
36.679295 -17.103836 -0.847749
36.677383 -17.102943 -0.282532
36.719982 -17.318270 0.283439
37.119740 -17.506807 0.859686
36.826427 -17.565304 -0.854660
36.707249 -17.508459 -0.283928
39.080345 -18.850121 0.302917
42.845173 -20.666058 0.332099
38.946655 -18.785637 0.905760
39.214771 -19.126322 -0.913927
39.105576 -19.073063 -0.303755
39.030949 -19.247934 0.303824
38.960575 -19.213228 0.909948
39.189529 -19.539179 -0.917278
39.152424 -19.520679 -0.305430
39.040089 -19.677824 0.305221
38.898560 -19.606487 0.912461
39.088791 -19.916735 -0.918953
38.971676 -19.857061 -0.305360
38.938004 -20.054388 0.305779
38.832642 -20.000124 0.914974
39.090862 -20.349415 -0.923142
39.009785 -20.307209 -0.307036
38.858860 -20.444635 0.306547
38.762806 -20.394098 0.917487
39.017723 -20.746092 -0.925655
38.901722 -20.684414 -0.307594
38.819908 -20.858690 0.307664
38.759499 -20.826229 0.921676
39.019707 -21.185972 -0.930053
38.939438 -21.142389 -0.309340
38.820515 -21.297663 0.309130
38.672703 -21.216570 0.923980
38.999485 -21.617767 -0.934032
38.858406 -21.539566 -0.310177
38.694256 -21.669825 0.309619
38.634373 -21.636288 0.927540
38.878963 -21.996660 -0.935707
38.773403 -21.936935 -0.311015
38.651268 -22.091021 0.310806
38.548252 -22.032143 0.930053
38.824062 -22.415083 -0.939058
38.745033 -22.369455 -0.312342
38.621143 -22.523186 0.312132
38.518616 -22.463392 0.934032
38.764809 -22.834217 -0.942409
38.694824 -22.792992 -0.313528
38.534843 -22.925823 0.313040
38.432819 -22.865124 0.936754
38.735466 -23.274616 -0.946597
38.623016 -23.207050 -0.314576
38.470097 -23.344227 0.314157
38.360031 -23.277437 0.939896
38.633179 -23.674442 -0.949110
38.598080 -23.652933 -0.316042
38.468998 -23.805338 0.315832
38.367981 -23.742826 0.945131
38.628597 -24.137827 -0.954137
38.517406 -24.068346 -0.317089
38.386650 -24.220173 0.316879
38.286156 -24.156767 0.948273
38.585129 -24.581438 -0.958325
38.474579 -24.511011 -0.318485
38.308392 -24.640787 0.317996
38.216839 -24.581898 0.951833
38.503307 -25.004339 -0.961676
38.393402 -24.932968 -0.319602
38.225708 -25.061872 0.319113
38.159729 -25.018616 0.955812
38.450378 -25.449751 -0.965864
38.374489 -25.399521 -0.321278
38.238354 -25.550053 0.321068
38.106209 -25.461754 0.960001
38.359444 -25.873772 -0.969215
38.284023 -25.822899 -0.322395
38.187515 -26.000954 0.322534
38.047844 -25.905855 0.964189
38.329941 -26.343439 -0.974241
38.222042 -26.269281 -0.323791
38.082409 -26.418707 0.323581
37.984623 -26.350870 0.968377
38.295151 -26.814552 -0.979268
38.220703 -26.762424 -0.325746
38.046402 -26.888538 0.325257
37.981834 -26.842905 0.974241
38.255039 -27.287052 -0.984294
38.148525 -27.211077 -0.327142
37.972622 -27.336376 0.326653
37.875965 -27.266792 0.977592
38.177227 -27.737379 -0.988482
38.071411 -27.660500 -0.328538
38.087452 -27.926874 0.329725
37.991337 -27.856400 0.986807
38.279305 -28.325195 -0.997487
38.206387 -28.271238 -0.331819
38.258938 -28.569304 0.333355
38.195404 -28.521860 0.998535
38.445866 -28.971039 -1.008378
38.381489 -28.922525 -0.335519
38.485760 -29.265251 0.337544
38.350925 -29.162720 1.009215
38.699219 -29.694956 -1.021781
38.635365 -29.645960 -0.339987
40.031639 -30.995806 0.353461
39.968498 -30.946917 1.058849
40.297909 -31.484179 -1.071205
40.203327 -31.410282 -0.356184
40.293629 -31.764936 0.358208
40.191559 -31.684469 1.072042
40.522388 -32.232964 -1.084608
40.452030 -32.176998 -0.360861
40.482819 -32.490894 0.362397
40.412548 -32.434498 1.085446
40.798985 -33.038364 -1.099687
40.698143 -32.956707 -0.365609
40.747547 -33.292145 0.367354
40.677666 -33.235046 1.100315
41.064568 -33.851017 -1.114765
40.964550 -33.768570 -0.370635
41.009026 -34.106846 0.372380
40.885727 -34.004303 1.113927
41.280739 -34.638653 -1.128796
41.189205 -34.561848 -0.375382
43.510822 -36.834629 0.398002
47.264252 -40.012142 1.297174
43.326031 -37.003925 -1.193509
43.387707 -37.056602 -0.398351
43.505898 -37.487080 0.400934
43.401375 -37.728241 -1.204608
43.455120 -37.774960 -0.401981
43.568054 -38.208160 0.404564
46.152840 -40.474953 1.285865
43.489807 -38.476532 -1.216336
43.573181 -38.550297 -0.406170
43.650753 -38.959785 0.408474
43.501587 -39.169006 -1.226179
43.562088 -39.223480 -0.409241
43.723618 -39.715740 0.412383
47.474579 -43.122871 1.343456
43.578278 -39.932133 -1.238116
43.660500 -40.007477 -0.413430
43.786583 -40.475903 0.416293
43.829441 -40.515518 1.250262
43.696114 -40.747284 -1.251519
43.777767 -40.823425 -0.417898
43.868713 -41.267567 0.420481
43.918419 -41.314323 1.263037
43.766743 -41.533089 -1.263875
43.797039 -41.561836 -0.421528
43.911434 -42.036053 0.424391
43.989540 -42.110821 1.275603
43.834145 -42.330143 -1.276441
43.893044 -42.387020 -0.425997
44.058659 -42.920044 0.429417
44.078716 -42.939583 1.289006
43.890938 -43.131504 -1.289006
43.999348 -43.238037 -0.430674
43.966507 -43.584488 0.432210
43.943733 -43.561916 1.296126
43.965324 -43.965324 -1.302409
43.881977 -43.881977 -0.433257
43.288811 -43.668236 0.429278
43.217022 -43.595818 1.285865
43.418812 -44.183304 -1.297592
43.188976 -43.949421 -0.430185
42.285072 -43.406841 0.423064
42.109394 -43.226501 1.264084
42.399593 -43.906063 -1.278535
42.261986 -43.763565 -0.424740
42.153610 -44.034233 0.425578
42.000206 -43.873985 1.272252
42.358932 -44.637001 -1.289006
42.208874 -44.478874 -0.428091
42.021248 -44.669903 0.428161
41.889751 -44.530117 1.280629
42.233715 -45.290112 -1.297174
42.037354 -45.079544 -0.430325
42.147583 -45.996017 -1.306807
41.993664 -45.828041 -0.433955
41.833027 -46.460281 -0.436468
41.783802 -47.227997 -0.440238
0.181078 -0.251533 0.006492
0.176695 -0.254704 0.002164
0.159564 -0.230011 0.005864
0.168804 -0.247923 0.006283
0.177778 -0.266064 0.002234
0.166635 -0.249386 0.006283
0.148036 -0.225792 0.001885
0.148007 -0.225748 0.005654
0.151469 -0.235485 0.001955
0.140623 -0.218622 0.005445
0.128064 -0.202970 0.001676
0.117369 -0.186019 0.004607
0.126288 -0.204080 0.001676
0.115742 -0.187036 0.004607
0.124503 -0.205174 0.001676
0.140038 -0.230776 0.005654
0.138046 -0.232034 0.001885
0.127795 -0.214804 0.005236
0.115843 -0.198639 0.004817