# This PCD file was generated using the MATLAB® pcwrite function
# from Computer Vision System Toolbox®.
# .PCD v.7 - Point Cloud Data file format
VERSION .7
FIELDS x y z
SIZE 4 4 4
TYPE F F F
COUNT 1 1 1
WIDTH 758
HEIGHT 1
VIEWPOINT 0 0 0 1 0 0 0
POINTS 758
DATA ascii
21.587332 23.149580 -0.663037
21.571083 23.132154 -0.220817
21.568300 22.728247 -0.656335
21.593157 22.754440 -0.219002
21.467180 22.229918 -0.647330
21.506100 22.270218 -0.216140
21.478157 21.856331 -0.641885
21.538416 21.917652 -0.214534
21.477192 21.477192 -0.636231
21.502594 21.502594 -0.212300
21.414213 21.043690 -0.628901
21.432653 21.061810 -0.209787
21.395666 20.661554 -0.623037
21.414225 20.679476 -0.207832
21.343086 20.253832 -0.616335
21.361755 20.271547 -0.205598
21.314285 19.875893 -0.610472
21.340382 19.900227 -0.203713
21.310013 19.527029 -0.605445
21.387894 19.598394 -0.202526
21.301289 19.179768 -0.600419
21.320305 19.196890 -0.200292
21.288141 18.834156 -0.595393
21.314760 18.857706 -0.198687
21.240416 18.464012 -0.589529
21.297386 18.513535 -0.197011
21.165060 18.076668 -0.583037
21.214809 18.119160 -0.194777
21.191801 17.782032 -0.579477
21.249556 17.830494 -0.193660
21.168736 17.450159 -0.574660
21.219158 17.491724 -0.191985
21.195892 17.164095 -0.571309
21.215569 17.180029 -0.190588
21.125786 16.804209 -0.565445
21.145557 16.819935 -0.188634
21.074665 16.465332 -0.560210
21.133934 16.511639 -0.187237
21.098570 16.189503 -0.557068
21.150284 16.229185 -0.186120
21.111292 15.908500 -0.553718
21.131380 15.923637 -0.184724
21.056431 15.580939 -0.548691
21.076612 15.595874 -0.183049
21.029829 15.279065 -0.544503
21.090559 15.323188 -0.182001
21.064690 15.025296 -0.541990
21.093220 15.045647 -0.180884
20.973883 14.686071 -0.536335
20.986164 14.694670 -0.178860
20.994129 14.428865 -0.533613
21.047670 14.465663 -0.178301
20.953474 14.133296 -0.529424
21.007299 14.169602 -0.176905
21.077242 14.083363 0.176975
21.098070 14.097281 0.531519
20.950954 13.867134 -0.526283
20.963379 13.875358 -0.175509
21.032084 13.789239 0.175579
21.027985 13.786551 0.526702
20.962166 13.612989 -0.523561
21.016573 13.648321 -0.174950
21.017054 13.518622 0.174462
21.021364 13.521396 0.523561
20.911520 13.322108 -0.519372
20.966200 13.356943 -0.173554
20.965082 13.227982 0.173065
21.037094 13.273417 0.521047
20.925238 13.075540 -0.516859
20.954758 13.093986 -0.172507
20.943665 12.960333 0.171948
20.982090 12.984112 0.516859
20.902151 12.808855 -0.513508
20.965910 12.847926 -0.171669
20.961927 12.720011 0.171181
20.966389 12.722717 0.513718
20.876017 12.543576 -0.510157
20.940086 12.582073 -0.170552
20.934629 12.454796 0.170063
21.007879 12.498374 0.512042
20.889925 12.305106 -0.507854
20.919846 12.322731 -0.169505
20.869757 12.170882 0.168667
20.943417 12.213840 0.507854
20.823343 12.022363 -0.503665
20.844723 12.034707 -0.168039
20.905718 11.948603 0.168109
20.945044 11.971078 0.505341
20.823044 11.781112 -0.501152
20.879324 11.812953 -0.167480
20.904495 11.707080 0.167271
20.944035 11.729223 0.502828
20.811384 11.535938 -0.498430
20.867918 11.567276 -0.166573
20.900656 11.466493 0.166433
20.905348 11.469067 0.499477
20.805824 11.296641 -0.495917
20.827457 11.308387 -0.165456
20.858984 11.207936 0.165316
20.898952 11.229412 0.496964
20.815338 11.067712 -0.493822
20.898861 11.112121 -0.165246
20.885199 10.988235 0.164758
20.889977 10.990747 0.494451
20.795841 10.825630 -0.491100
20.853117 10.855445 -0.164129
20.838055 10.732303 0.163641
20.878433 10.753099 0.491937
20.720266 10.557503 -0.487121
20.768856 10.582261 -0.162733
20.823761 10.496039 0.162803
20.828630 10.498493 0.488587
20.793713 10.367363 -0.486702
20.824615 10.382771 -0.162454
20.771067 10.243156 0.161686
20.820818 10.267691 0.486283
20.784548 10.137300 -0.484398
20.815563 10.152429 -0.161686
20.787609 10.026752 0.161127
20.792561 10.029141 0.483560
20.763933 9.903888 -0.481885
20.795057 9.918734 -0.160848
20.811007 9.815107 0.160639
20.815990 9.817459 0.482094
20.695530 9.650484 -0.478325
20.763006 9.681949 -0.159941
20.786890 9.582888 0.159801
20.791918 9.585205 0.479581
20.724371 9.444640 -0.477068
20.701115 9.434041 -0.158824
20.714729 9.331305 0.158614
20.792730 9.366443 0.477697
20.678133 9.206498 -0.474136
20.746111 9.236764 -0.158544
20.731300 9.121990 0.158126
20.736410 9.124238 0.474555
20.702675 9.001780 -0.472880
20.725052 9.011509 -0.157776
20.699862 8.893362 0.157288
20.732569 8.907414 0.472670
20.623989 8.754364 -0.469320
20.655626 8.767793 -0.156659
20.702908 8.681450 0.156729
20.708092 8.683623 0.470367
20.671888 8.562577 -0.468691
20.694397 8.571900 -0.156380
20.666817 8.455018 0.155892
20.718307 8.476083 0.468901
20.634586 8.336914 -0.466178
20.657152 8.346031 -0.155542
20.665508 8.244702 0.155333
20.670767 8.246799 0.466178
20.622833 8.123550 -0.464293
20.645462 8.132464 -0.154914
20.634151 8.024182 0.154565
20.704674 8.051607 0.465341
20.655603 7.928943 -0.463456
20.678303 7.937657 -0.154635
20.656633 7.826098 0.154216
20.699352 7.842283 0.463665
20.611633 7.706374 -0.460943
20.643751 7.718382 -0.153867
20.649088 7.617851 0.153658
20.654442 7.619826 0.461152
20.574755 7.488598 -0.458639
20.625750 7.507159 -0.153239
20.611252 7.400196 0.152890
20.644873 7.412267 0.459477
20.516804 7.265381 -0.455916
20.577362 7.286826 -0.152401
20.590080 7.190378 0.152261
20.633261 7.205457 0.457801
20.579426 7.086064 -0.455916
20.611803 7.097213 -0.152191
20.614166 6.997567 0.151982
20.619616 6.999416 0.456126
20.488779 6.855450 -0.452566
20.559156 6.878997 -0.151354
20.598473 6.792357 0.151424
20.641932 6.806688 0.455288
20.623892 6.701108 -0.454241
20.608892 6.696235 -0.151284
20.580772 6.587957 0.150865
20.624369 6.601912 0.453613
20.567163 6.484802 -0.451728
20.618858 6.501101 -0.150935
20.599277 6.396246 0.150586
20.604811 6.397964 0.451937
20.508238 6.269998 -0.449215
20.579176 6.291686 -0.150237
20.577707 6.193187 0.150027
20.583269 6.194861 0.450262
20.562172 6.090793 -0.449215
20.547007 6.086300 -0.149608
20.563766 5.993792 0.149539
20.636545 6.015004 0.450262
20.537657 5.889079 -0.447540
20.551273 5.892983 -0.149259
20.567167 5.800541 0.149190
20.534290 5.791269 0.446911
20.520826 5.690929 -0.446074
20.544100 5.697383 -0.148840
20.539822 5.599798 0.148631
20.545464 5.601336 0.446074
20.511765 5.496111 -0.444817
20.544743 5.504947 -0.148491
20.549225 5.410160 0.148352
20.554888 5.411650 0.445236
20.491190 5.299382 -0.443351
20.514549 5.305423 -0.147933
20.527811 5.213400 0.147863
20.562569 5.222227 0.444398
20.468750 5.103433 -0.441885
20.511551 5.114104 -0.147584
20.485106 5.012673 0.147235
20.490822 5.014072 0.441885
20.463898 4.912947 -0.440838
20.497059 4.920908 -0.147165
20.489134 4.824551 0.146956
20.494871 4.825902 0.441047
20.428059 4.716189 -0.439163
20.441786 4.719358 -0.146467
20.413418 4.619085 0.146118
20.497200 4.638042 0.440210
20.400112 4.522596 -0.437697
20.452904 4.534299 -0.146257
20.462721 4.442892 0.146188
20.497812 4.450511 0.439372
20.360567 4.327772 -0.436021
20.413443 4.339011 -0.145699
20.422390 4.247863 0.145629
20.467352 4.257215 0.437906
20.436747 4.157903 -0.436859
20.421133 4.154727 -0.145489
20.409645 4.059731 0.145280
20.454695 4.068692 0.436859
20.344669 3.954603 -0.434136
20.368267 3.959190 -0.144861
20.404997 3.874010 0.145001
20.410841 3.875119 0.435183
20.378405 3.776914 -0.434136
20.362713 3.774006 -0.144582
20.438026 3.695797 0.145001
20.443880 3.696856 0.435183
20.341665 3.586785 -0.432670
20.394871 3.596166 -0.144582
20.380802 3.502062 0.144372
20.435949 3.511539 0.434346
20.332748 3.402535 -0.431833
20.376163 3.409801 -0.144233
20.380978 3.319253 0.144163
20.386873 3.320213 0.432670
20.351791 3.223407 -0.431623
20.375513 3.227164 -0.144023
20.369635 3.135187 0.143884
20.375546 3.136096 0.431833
20.290155 3.032384 -0.429738
20.313890 3.035931 -0.143395
20.356632 2.951571 0.143605
20.402136 2.958169 0.431833
20.286142 2.851032 -0.429110
20.300001 2.852979 -0.143116
20.302347 2.763028 0.143046
20.397455 2.775972 0.431204
20.270601 2.668675 -0.428272
20.294382 2.671806 -0.142906
20.295927 2.581968 0.142837
20.331642 2.586511 0.429320
20.283194 2.490463 -0.428063
20.267298 2.488511 -0.142557
20.268034 2.398880 0.142488
20.353439 2.408988 0.429320
20.234619 2.305444 -0.426597
20.288242 2.311553 -0.142557
20.248434 2.217564 0.142208
20.304117 2.223662 0.427854
20.253967 2.128778 -0.426597
20.307642 2.134419 -0.142557
20.276964 2.041783 0.142278
20.312801 2.045392 0.427644
20.241919 1.949075 -0.425969
20.325495 1.957123 -0.142557
20.294010 1.864758 0.142278
20.300009 1.865309 0.427016
20.248196 1.771488 -0.425759
20.282030 1.774448 -0.142138
20.309509 1.687590 0.142278
20.275660 1.684777 0.426178
20.232983 1.592370 -0.425131
20.246897 1.593465 -0.141789
20.283575 1.507330 0.141999
20.289591 1.507777 0.426178
20.226162 1.414351 -0.424712
20.210155 1.413232 -0.141440
20.206150 1.324381 0.141371
20.301975 1.330662 0.426178
20.237734 1.237793 -0.424712
20.221718 1.236813 -0.141440
20.177004 1.145733 0.141091
20.222979 1.148344 0.424293
20.137939 1.055385 -0.422409
20.151854 1.056114 -0.140882
20.186234 0.969614 0.141091
20.232229 0.971824 0.424293
20.146383 0.879610 -0.422409
20.200262 0.881963 -0.141161
20.203918 0.793814 0.141161
20.239941 0.795229 0.424293
20.193258 0.705164 -0.423246
20.217184 0.706000 -0.141231
20.210077 0.617474 0.141161
20.256102 0.618880 0.424503
20.158667 0.527873 -0.422409
20.182590 0.528500 -0.140952
20.214695 0.441086 0.141161
20.250736 0.441873 0.424293
20.152510 0.351763 -0.422199
20.186434 0.352356 -0.140952
20.167780 0.264011 0.140812
20.183842 0.264221 0.422827
20.154812 0.175888 -0.422199
20.178740 0.176097 -0.140882
20.169317 0.088006 0.140812
20.185379 0.088076 0.422827
20.045603 0.000000 -0.419896
20.099510 0.000000 -0.140323
20.139317 -0.087875 0.140603
20.185379 -0.088076 0.422827
20.124819 -0.175627 -0.421571
20.178740 -0.176097 -0.140882
20.167780 -0.264011 0.140812
20.183842 -0.264221 0.422827
20.032553 -0.349670 -0.419686
20.106447 -0.350959 -0.140393
20.124720 -0.439123 0.140533
20.180769 -0.440346 0.422827
20.068716 -0.525518 -0.420524
20.132608 -0.527191 -0.140603
20.130116 -0.615031 0.140603
20.126192 -0.614911 0.421780
20.023399 -0.699233 -0.419686
20.077272 -0.701114 -0.140254
20.084015 -0.789103 0.140323
20.120060 -0.790519 0.421780
20.016535 -0.873941 -0.419686
20.080379 -0.876728 -0.140323
20.116316 -0.966256 0.140603
20.112394 -0.966068 0.421780
20.008146 -1.048583 -0.419686
20.061979 -1.051404 -0.140254
20.107119 -1.141765 0.140603
20.113180 -1.142109 0.421990
19.998234 -1.223144 -0.419686
20.072002 -1.227656 -0.140393
20.096390 -1.317187 0.140603
20.102448 -1.317584 0.421990
20.036667 -1.401100 -0.420733
20.090450 -1.404861 -0.140603
20.084129 -1.492509 0.140603
20.130066 -1.495922 0.422827
19.973843 -1.571975 -0.419686
20.037550 -1.576989 -0.140323
20.070339 -1.667717 0.140603
20.116245 -1.671531 0.422827
19.959364 -1.746218 -0.419686
20.032988 -1.752659 -0.140393
20.055023 -1.842798 0.140603
20.100891 -1.847013 0.422827
19.983171 -1.924161 -0.420524
20.046791 -1.930286 -0.140603
20.028229 -2.016737 0.140533
20.084009 -2.022353 0.422827
19.965620 -2.098471 -0.420524
20.029182 -2.105152 -0.140603
20.009867 -2.191437 0.140533
20.065596 -2.197540 0.422827
19.946547 -2.272622 -0.420524
20.019985 -2.280989 -0.140672
20.029703 -2.370672 0.140812
20.045654 -2.372560 0.422827
19.945803 -2.449037 -0.420943
20.029093 -2.459263 -0.140882
19.978493 -2.541585 0.140603
20.024187 -2.547398 0.422827
19.963320 -2.628221 -0.421780
20.006870 -2.633954 -0.140882
19.955553 -2.715832 0.140603
20.001194 -2.722043 0.422827
19.929724 -2.800940 -0.421571
19.983122 -2.808445 -0.140882
20.010263 -2.901350 0.141161
19.976679 -2.896481 0.422827
19.934187 -2.979184 -0.422199
19.957853 -2.982721 -0.140882
19.984182 -3.075860 0.141161
20.029694 -3.082865 0.424503
19.917305 -3.154591 -0.422409
19.940941 -3.158335 -0.140952
19.986189 -3.254958 0.141371
19.992161 -3.255930 0.424293
19.918600 -3.333230 -0.423037
19.942209 -3.337181 -0.141161
19.957024 -3.429244 0.141371
20.002399 -3.437041 0.425131
19.937983 -3.515604 -0.424084
19.922174 -3.512817 -0.141231
19.975540 -3.612166 0.141720
19.971645 -3.611462 0.425131
19.906546 -3.689460 -0.424084
19.930092 -3.693824 -0.141510
19.943256 -3.786346 0.141720
19.988482 -3.794932 0.426178
19.873590 -3.863035 -0.424084
19.897099 -3.867604 -0.141510
19.899649 -3.958286 0.141650
19.954603 -3.969217 0.426178
19.888109 -4.046281 -0.425131
19.901785 -4.049064 -0.141789
19.952461 -4.150118 0.142278
19.958359 -4.151345 0.427016
19.832483 -4.215524 -0.424712
19.895037 -4.228821 -0.141999
19.866625 -4.313467 0.141929
19.921371 -4.325354 0.427016
19.794941 -4.388433 -0.424712
19.867140 -4.404439 -0.142069
19.876991 -4.497704 0.142278
19.882868 -4.499034 0.427016
19.843565 -4.581248 -0.426597
19.866922 -4.586640 -0.142348
19.836987 -4.670990 0.142278
19.881777 -4.681537 0.427854
19.812553 -4.756573 -0.426807
19.826139 -4.759835 -0.142348
19.824608 -4.851051 0.142488
19.840166 -4.854858 0.427854
19.799393 -4.936543 -0.427435
19.812956 -4.939925 -0.142557
19.829981 -5.036174 0.142837
19.864876 -5.045036 0.429320
19.784597 -5.116645 -0.428063
19.778774 -5.115139 -0.142627
19.785278 -5.209029 0.142837
19.820093 -5.218195 0.429320
19.700565 -5.278750 -0.427225
19.723724 -5.284956 -0.142557
19.739067 -5.381487 0.142837
19.860615 -5.414625 0.431204
19.769360 -5.482529 -0.429738
19.753942 -5.478253 -0.143116
19.806847 -5.586108 0.143674
19.802984 -5.585019 0.430995
19.691933 -5.646571 -0.429110
19.714996 -5.653184 -0.143186
19.786146 -5.767136 0.143884
19.791887 -5.768809 0.431833
19.670666 -5.826717 -0.429738
19.741617 -5.847733 -0.143744
19.773367 -5.951108 0.144163
19.817379 -5.964355 0.433508
19.743362 -6.036151 -0.432461
19.766338 -6.043176 -0.144303
19.720682 -6.123434 0.144163
19.802769 -6.148923 0.434346
19.689936 -6.208213 -0.432461
19.674702 -6.203410 -0.144023
19.742683 -6.319683 0.144722
19.786444 -6.333691 0.435183
19.635010 -6.379801 -0.432461
19.657860 -6.387226 -0.144303
19.724770 -6.504254 0.145001
19.730419 -6.506117 0.435183
19.654438 -6.576283 -0.434136
19.677237 -6.583911 -0.144861
19.705135 -6.688993 0.145280
19.748631 -6.703757 0.436859
19.681379 -6.776843 -0.436021
19.732492 -6.794442 -0.145699
19.730980 -6.890367 0.145908
19.736572 -6.892320 0.437906
19.659189 -6.961684 -0.436859
19.710154 -6.979732 -0.145978
19.707745 -7.075804 0.146188
19.713314 -7.077803 0.438744
19.588295 -7.129556 -0.436649
19.639097 -7.148047 -0.145908
19.673393 -7.257898 0.146397
19.716457 -7.273785 0.440210
19.665802 -7.352742 -0.439791
19.650904 -7.347172 -0.146467
19.684116 -7.457644 0.146956
19.727026 -7.473901 0.441885
19.572887 -7.513328 -0.439163
19.670061 -7.550629 -0.147095
19.655567 -7.643632 0.147235
19.661053 -7.645765 0.441885
19.655411 -7.742473 -0.442513
19.677853 -7.751312 -0.147654
19.671707 -7.848215 0.147863
19.705015 -7.861504 0.444398
19.596369 -7.917447 -0.442723
19.646547 -7.937720 -0.147933
19.630236 -8.030941 0.148073
19.718943 -8.067232 0.446283
19.591187 -8.114936 -0.444189
19.622723 -8.127998 -0.148282
19.596292 -8.217407 0.148352
19.647793 -8.239003 0.446283
19.593250 -8.316841 -0.445864
19.624685 -8.330185 -0.148840
19.606527 -8.423629 0.148980
19.611891 -8.425933 0.447121
19.565769 -8.507439 -0.446911
19.606266 -8.525047 -0.149259
19.605494 -8.626624 0.149539
19.638277 -8.641048 0.449424
19.518185 -8.690056 -0.447540
19.540260 -8.699884 -0.149329
19.593288 -8.826133 0.150027
19.598585 -8.828519 0.450262
19.541681 -8.905657 -0.449843
19.563690 -8.915688 -0.150097
19.551846 -9.013524 0.150307
19.602510 -9.036881 0.452147
19.544771 -9.113876 -0.451728
19.566708 -9.124105 -0.150725
19.544800 -9.217926 0.150865
19.622372 -9.254512 0.454451
19.500589 -9.301305 -0.452566
19.558546 -9.328948 -0.151284
19.571695 -9.440266 0.151703
19.576885 -9.442768 0.455288
19.490568 -9.506185 -0.454241
19.521332 -9.521190 -0.151633
19.524445 -9.628390 0.151982
19.574438 -9.653045 0.457173
19.487396 -9.716057 -0.456126
19.535940 -9.740261 -0.152401
19.511114 -9.834412 0.152541
19.516239 -9.836994 0.457801
19.464222 -9.917517 -0.457592
19.459108 -9.914911 -0.152471
19.531231 -10.059245 0.153378
19.580751 -10.084750 0.461361
19.447882 -10.123926 -0.459267
19.513763 -10.158222 -0.153588
19.478104 -10.247926 0.153658
19.518545 -10.269203 0.461990
19.464725 -10.349578 -0.461780
19.486179 -10.360985 -0.154076
19.493637 -10.474309 0.154495
19.533871 -10.495928 0.464503
19.443958 -10.557207 -0.463456
19.465324 -10.568809 -0.154635
19.471626 -10.682500 0.155054
19.511658 -10.704462 0.466178
19.386066 -10.745872 -0.464293
19.442322 -10.777055 -0.155193
19.482361 -10.910646 0.155892
19.496010 -10.918289 0.468063
19.404675 -10.978637 -0.467016
19.451975 -11.005399 -0.156031
19.455862 -11.119941 0.156450
19.495468 -11.142578 0.470367
19.403374 -11.202542 -0.469320
19.424477 -11.214726 -0.156590
19.427187 -11.329600 0.157009
19.466581 -11.352575 0.472042
19.382404 -11.417109 -0.471204
19.403416 -11.429485 -0.157218
19.396330 -11.539604 0.157567
19.435509 -11.562913 0.473718
19.384872 -11.647606 -0.473718
19.397223 -11.655027 -0.157986
19.397478 -11.770679 0.158405
19.402243 -11.773570 0.475393
19.342163 -11.852892 -0.475184
19.405617 -11.891778 -0.158893
19.362049 -11.981599 0.158963
19.400782 -12.005569 0.477906
19.314299 -12.068913 -0.477068
19.335026 -12.081864 -0.159173
19.358238 -12.214139 0.159801
19.396742 -12.238432 0.480419
19.258837 -12.269232 -0.478325
19.330061 -12.314607 -0.160010
19.351835 -12.447519 0.160639
19.390106 -12.472136 0.482932
19.327116 -12.551176 -0.482723
19.347658 -12.564516 -0.161058
19.342827 -12.681713 0.161477
19.380861 -12.706650 0.485445
19.283548 -12.763503 -0.484398
19.345680 -12.804626 -0.161965
19.331198 -12.916693 0.162314
19.377306 -12.947502 0.488168
19.279184 -13.003974 -0.487121
19.324394 -13.034469 -0.162733
19.292135 -13.135547 0.162943
19.354486 -13.178000 0.490471
19.280323 -13.250999 -0.490053
19.317047 -13.276238 -0.163641
19.332882 -13.411697 0.164269
19.304468 -13.391986 0.492147
19.213093 -13.453152 -0.491309
19.257795 -13.484453 -0.164129
19.280437 -13.626066 0.164828
19.317501 -13.652261 0.495498
19.217052 -13.707390 -0.494451
19.277786 -13.750710 -0.165316
19.290644 -13.887276 0.165945
19.294996 -13.890410 0.498011
19.201851 -13.950961 -0.497173
19.221775 -13.965437 -0.165875
19.265491 -14.126043 0.166782
19.302050 -14.152848 0.501362
19.207966 -14.213147 -0.500524
19.259941 -14.251607 -0.167271
19.237635 -14.365423 0.167620
19.273939 -14.392532 0.503875
19.147079 -14.428359 -0.502199
19.198730 -14.467280 -0.167829
19.207060 -14.605388 0.168458
19.243107 -14.632799 0.506388
19.179077 -14.716623 -0.506388
19.198683 -14.731668 -0.168947
19.205381 -14.870396 0.169575
19.272783 -14.922584 0.510576
19.144463 -14.957293 -0.508901
19.187593 -14.990992 -0.169994
19.200531 -15.136478 0.170692
19.204639 -15.139717 0.512252
19.138397 -15.223369 -0.512252
19.189085 -15.263687 -0.171181
19.153496 -15.372306 0.171460
19.157558 -15.375566 0.514555
19.090288 -15.459011 -0.514555
19.117325 -15.480905 -0.171739
19.150263 -15.646421 0.172647
19.177500 -15.668674 0.518744
19.078091 -15.726765 -0.517906
19.120392 -15.761634 -0.172996
19.128319 -15.908854 0.173694
19.193769 -15.963290 0.522932
19.093300 -16.021181 -0.522095
19.112343 -16.037161 -0.174182
19.110876 -16.178551 0.174811
19.145304 -16.207695 0.525445
19.074402 -16.291079 -0.525445
19.093328 -16.307243 -0.175299
19.150776 -16.501364 0.176486
19.154617 -16.504673 0.529634
19.022057 -16.535622 -0.527958
19.071047 -16.578207 -0.176416
19.066193 -16.720602 0.177045
19.130127 -16.776670 0.532985
19.026791 -16.833483 -0.532147
19.082926 -16.883148 -0.177883
19.098604 -17.046156 0.178720
19.102339 -17.049490 0.536335
18.998045 -17.105917 -0.535498
19.016613 -17.122635 -0.178650
19.067554 -17.319746 0.179837
19.071238 -17.323093 0.539686
18.973356 -17.385878 -0.539058
19.013920 -17.423046 -0.180047
19.033176 -17.594086 0.180954
19.066174 -17.624590 0.543875
18.959843 -17.680340 -0.543037
19.007420 -17.724705 -0.181443
18.995453 -17.869137 0.182071
19.028160 -17.899904 0.547225
18.920866 -17.955233 -0.546388
18.946318 -17.979383 -0.182351
18.983263 -18.172520 0.183468
19.044559 -18.231199 0.552252
18.907295 -18.258564 -0.550576
18.954142 -18.303802 -0.183956
18.938562 -18.449131 0.184585
18.970676 -18.480415 0.554765
18.882730 -18.556007 -0.554555
18.936338 -18.608688 -0.185352
18.947285 -18.782656 0.186260
18.979092 -18.814186 0.559791
18.861471 -18.861471 -0.558744
18.907574 -18.907574 -0.186679
18.951614 -19.117723 0.187936
18.954958 -19.121098 0.563979
18.864340 -19.196491 -0.563770
18.910070 -19.243029 -0.188354
18.888727 -19.389822 0.188983
18.926903 -19.429010 0.568168
18.841948 -19.511408 -0.568168
18.859514 -19.529600 -0.189541
18.891676 -19.734503 0.190728
18.922562 -19.766766 0.573194
18.836132 -19.849142 -0.573194
18.874222 -19.889280 -0.191426
18.855776 -20.044281 0.192124
18.886353 -20.076784 0.577383
18.764479 -20.122440 -0.576335
18.815876 -20.177557 -0.192613
18.870201 -20.413668 0.194079
18.900455 -20.446396 0.583246
18.777288 -20.491816 -0.582199
18.828239 -20.547419 -0.194568
18.798918 -20.695995 0.195196
18.855753 -20.758564 0.587435
18.738237 -20.810921 -0.586597
18.748583 -20.822411 -0.195615
18.777405 -21.038305 0.196872
18.860291 -21.131170 0.593299
18.681787 -21.115919 -0.590576
18.725185 -21.164972 -0.197290
18.751339 -21.381804 0.198547
18.800419 -21.437769 0.597278
18.680464 -21.489414 -0.596440
18.743149 -21.561527 -0.199455
18.714167 -21.718859 0.200153
18.769253 -21.782791 0.602304
18.615591 -21.796059 -0.600419
18.658188 -21.845930 -0.200572
18.685450 -22.072145 0.201898
18.733486 -22.128887 0.607330
18.572487 -22.133829 -0.605236
18.621103 -22.191767 -0.202247
18.690346 -22.472698 0.204062
18.718668 -22.506752 0.613194
18.645372 -22.820795 0.205738
18.698668 -22.886026 0.619058
18.620770 -23.200998 0.207692
18.679718 -23.274446 0.625131
18.615702 -23.613905 0.209927
18.667778 -23.679964 0.631623
18.598707 -24.020563 0.212091
18.625687 -24.055407 0.637278
18.578449 -24.431902 0.642932
18.538013 -24.825409 0.649006
18.438471 -25.612650 0.220329
0.151872 -0.210963 0.005445
18.516653 -25.721252 0.663875
0.182395 -0.262921 0.002234
0.176660 -0.254655 0.006492
0.155556 -0.232806 0.001955
0.166635 -0.249386 0.006283
0.148036 -0.225792 0.001885
0.148007 -0.225748 0.005654
0.151469 -0.235485 0.001955
0.162257 -0.252256 0.006283
0.106720 -0.169141 0.001396
0.117369 -0.186019 0.004607
0.126288 -0.204080 0.001676
0.115742 -0.187036 0.004607
0.129690 -0.213723 0.001745
0.140038 -0.230776 0.005654
0.138046 -0.232034 0.001885
0.102236 -0.171844 0.004188
0.130953 -0.224548 0.005445