# This PCD file was generated using the MATLAB® pcwrite function
# from Computer Vision System Toolbox®.
# .PCD v.7 - Point Cloud Data file format
VERSION .7
FIELDS x y z
SIZE 4 4 4
TYPE F F F
COUNT 1 1 1
WIDTH 909
HEIGHT 1
VIEWPOINT 0 0 0 1 0 0 0
POINTS 909
DATA ascii
30.758873 33.567421 -0.317857
30.689178 32.910114 -0.314157
30.625061 32.272079 -0.931938
30.541548 32.184078 -0.309759
30.488813 31.572092 -0.919372
30.376671 31.455963 -0.305291
30.545935 31.083769 -0.912880
30.537872 31.075565 -0.304173
30.589800 30.589800 -0.906179
30.588694 30.588694 -0.302009
30.541817 30.013359 -0.896964
30.483582 29.956131 -0.298379
29.910782 28.884506 -0.870995
30.276274 29.237459 -0.293841
30.023912 28.491629 -0.867016
29.928217 28.400818 -0.288047
30.271402 28.228540 -0.867016
29.970144 27.947611 -0.286092
30.634525 28.071371 -0.870367
30.301359 27.766081 -0.286930
30.491974 27.455097 -0.859477
30.512783 27.473833 -0.286651
30.558180 27.035593 -0.854660
30.601585 27.073996 -0.285254
30.453398 26.472734 -0.845236
30.572540 26.576303 -0.282811
30.439978 25.998198 -0.838534
30.734859 26.250050 -0.282183
30.573788 25.654453 -0.836021
30.717634 25.775154 -0.279949
30.673065 25.284924 -0.832671
30.763922 25.359821 -0.278343
30.776001 24.921913 -0.829529
30.766459 24.914186 -0.276388
30.835823 24.527922 -0.825341
30.794880 24.495354 -0.274713
30.828098 24.085550 -0.819477
30.944427 24.176437 -0.274154
30.751564 23.596504 -0.811938
30.709959 23.564581 -0.270245
30.541109 23.014376 -0.801048
30.602966 23.060989 -0.267522
30.419310 22.509106 -0.792671
30.312704 22.430222 -0.263263
30.460897 22.131138 -0.788692
30.410208 22.094309 -0.262426
30.579613 21.812225 -0.786807
30.577435 21.810671 -0.262216
30.252840 21.183268 -0.773613
30.660114 21.468443 -0.261309
29.760910 20.454107 -0.756440
29.824400 20.497742 -0.252652
30.668018 20.881111 0.777173
29.905115 20.171255 -0.755603
30.027010 20.253473 -0.252861
30.855085 20.616709 0.259075
30.724377 20.529373 0.774032
30.680267 20.306826 -0.770681
30.577848 20.239037 -0.256003
30.808031 20.198631 0.257190
30.768581 20.172766 0.770681
30.839539 20.027430 -0.770262
30.828779 20.020443 -0.256631
30.882200 19.864098 0.256352
30.783686 19.800732 0.766702
30.869789 19.666225 -0.766702
30.892675 19.680805 -0.255724
30.885227 19.487127 0.254956
30.752375 19.403303 0.761676
30.904573 19.311321 -0.763351
30.791876 19.240900 -0.253490
30.850027 19.090576 0.253280
30.758997 19.034245 0.757697
30.833231 18.894629 -0.757487
30.856295 18.908762 -0.252652
30.844469 18.716883 0.251884
30.855551 18.723608 0.756021
30.962662 18.604244 -0.756650
30.985844 18.618174 -0.252373
30.972252 18.426554 0.251605
30.949030 18.412739 0.754346
30.925703 18.216631 -0.751833
30.940350 18.225258 -0.250697
31.028215 18.095119 0.250767
31.039438 18.101665 0.752671
30.944960 17.866081 -0.748482
30.968313 17.879564 -0.249650
31.019987 17.729383 0.249440
31.092060 17.770576 0.750157
31.030077 17.555973 -0.746807
31.010017 17.544624 -0.248742
31.033926 17.379833 0.248323
31.027876 17.376446 0.744922
31.033445 17.202120 -0.743246
31.065735 17.220018 -0.247974
31.009069 17.012157 0.246927
31.081913 17.052120 0.742618
31.050585 16.859093 -0.740105
31.065428 16.867151 -0.246788
31.015408 16.665180 0.245810
31.123852 16.723448 0.740105
31.081766 16.526468 -0.737383
31.070169 16.520302 -0.245671
31.044609 16.333359 0.244903
31.020863 16.320866 0.734241
31.047438 16.162273 -0.733194
31.044622 16.160809 -0.244344
31.088171 16.011461 0.244135
31.091000 16.012917 0.732566
30.982410 15.786326 -0.728377
31.006271 15.798485 -0.242948
30.976685 15.613534 0.242180
30.908152 15.578991 0.725027
30.975832 15.443980 -0.725027
31.035568 15.473763 -0.242110
30.896513 15.236474 0.240504
30.971191 15.273301 0.723351
30.920721 15.081043 -0.720629
30.908773 15.075216 -0.240086
30.920218 14.914143 0.239667
30.887175 14.898204 0.718325
31.024076 14.797726 -0.720000
30.975971 14.774781 -0.239597
30.976833 14.609623 0.239108
29.352175 13.843385 0.679791
30.979837 14.611040 0.717487
31.043295 14.475726 -0.717487
31.031223 14.470097 -0.239038
29.123442 13.426090 0.223889
31.021416 14.301068 0.238480
29.326591 13.519744 0.676440
31.022875 14.137938 -0.714137
31.001625 14.128255 -0.237852
29.367140 13.228931 0.224866
30.898863 13.918922 0.236595
29.270258 13.185290 0.672461
30.916731 13.765016 -0.708901
29.324095 13.055928 -0.224098
30.904490 13.759565 -0.236176
29.151960 12.827169 0.222353
29.448263 12.957546 0.673927
30.934820 13.450843 -0.706597
29.189310 12.691874 -0.222214
29.740547 12.777547 0.225983
29.936838 12.861881 0.682513
29.311649 12.442057 -0.667016
29.225317 12.405411 -0.221655
30.072241 12.610337 0.227659
29.679138 12.445496 0.674137
29.271320 12.124578 -0.663665
29.822105 12.352720 -0.225355
30.190395 12.351217 0.227729
29.999443 12.273096 0.678953
29.709724 12.003509 -0.671205
30.290358 12.238099 -0.228078
30.250589 12.068762 0.227380
30.068258 11.996018 0.678116
30.176126 11.886692 -0.679372
30.284353 11.929324 -0.227240
30.280197 11.775325 0.226821
30.134523 11.718676 0.677278
30.484049 11.701731 -0.683979
30.396639 11.668176 -0.227310
30.269588 11.468122 0.225983
30.198242 11.441091 0.676440
30.425804 11.375742 -0.680419
30.047712 11.234379 -0.223959
30.330986 11.189692 0.225704
30.259415 11.163287 0.675602
30.420574 11.072184 -0.678116
30.407713 11.067502 -0.225914
30.352186 10.897549 0.225146
30.167486 10.831234 0.671414
30.355824 10.749561 -0.674555
30.342890 10.744981 -0.224727
30.144028 10.526766 0.222912
30.336367 10.593933 0.673089
30.335037 10.445190 -0.672042
30.246403 10.414672 -0.223331
30.310495 10.289026 0.223470
30.304586 10.287021 0.670367
30.273333 10.129315 -0.668691
30.193890 10.102734 -0.222283
30.285168 9.986550 0.222632
30.317242 9.997128 0.668691
30.208439 9.815317 -0.665341
30.318943 9.851222 -0.222563
30.294971 9.697497 0.222074
30.250978 9.683414 0.665341
30.340618 9.566360 -0.666388
30.317923 9.559204 -0.221934
30.292494 9.406070 0.221446
30.296137 9.407201 0.664503
30.298651 9.263227 -0.663665
30.285433 9.259186 -0.221097
30.258518 9.106780 0.220608
30.271767 9.110767 0.662199
30.311232 8.978596 -0.662199
30.288378 8.971827 -0.220538
30.260035 8.819996 0.220049
30.263733 8.821074 0.660315
30.273102 8.680673 -0.659686
30.288618 8.685122 -0.219980
30.258856 8.533880 0.219491
30.224089 8.524075 0.657801
30.270628 8.394788 -0.658011
30.257259 8.391081 -0.219212
30.216402 8.237937 0.218653
30.220158 8.238960 0.656126
30.178562 8.086321 -0.654451
30.203764 8.093074 -0.218304
30.248461 7.963755 0.218374
30.213558 7.954566 0.654451
30.257658 7.825162 -0.654660
30.282921 7.831696 -0.218374
30.210192 7.672411 0.217606
30.243063 7.680759 0.653613
30.247185 7.541471 -0.652985
30.272490 7.547779 -0.217815
30.227428 7.396605 0.217257
30.231247 7.397539 0.651938
30.185465 7.246889 -0.650262
30.259415 7.264643 -0.217257
30.222689 7.116499 0.216768
30.265455 7.126569 0.651309
30.169622 6.965206 -0.648587
30.243710 6.982311 -0.216698
30.234875 6.841454 0.216419
30.238731 6.842327 0.649424
30.190212 6.693009 -0.647749
30.225388 6.700807 -0.216140
30.176161 6.551887 0.215581
30.228899 6.563337 0.647958
30.208353 6.420984 -0.646911
30.194681 6.418077 -0.215512
30.193027 6.280159 0.215302
30.196928 6.280970 0.646074
30.224047 6.149152 -0.646074
30.249538 6.154338 -0.215512
30.256489 6.018390 0.215372
30.250589 6.017217 0.646074
30.207859 5.871813 -0.644608
30.233381 5.876774 -0.215023
30.219439 5.737339 0.214744
30.223370 5.738086 0.644398
30.208797 5.598869 -0.643561
30.244184 5.605428 -0.214744
30.278194 5.475190 0.214813
30.232939 5.467006 0.643561
30.226967 5.329830 -0.642932
30.242708 5.332605 -0.214395
30.236122 5.195516 0.214185
30.289349 5.204662 0.643770
30.144138 5.044399 -0.640210
30.219055 5.056935 -0.213906
30.290180 4.933069 0.214255
30.294144 4.933714 0.642932
30.226509 4.787409 -0.641047
30.252157 4.791471 -0.213836
30.253008 4.656384 0.213696
30.247110 4.655476 0.641047
30.267136 4.523454 -0.641047
30.302708 4.528770 -0.213906
30.292490 4.392202 0.213696
30.336058 4.398519 0.642095
30.265856 4.253589 -0.640210
30.261854 4.253026 -0.213347
30.280125 4.120944 0.213347
30.284126 4.121489 0.640210
30.272085 3.985396 -0.639582
30.287903 3.987478 -0.213278
30.275253 3.851499 0.213068
30.328857 3.858318 0.640419
30.216402 3.710108 -0.637697
30.252069 3.714487 -0.212789
30.238197 3.578927 0.212579
30.321659 3.588805 0.639582
30.257561 3.447414 -0.637906
30.273397 3.449218 -0.212719
30.268278 3.314916 0.212579
30.272316 3.315358 0.637906
30.286493 3.183239 -0.637906
30.312288 3.185950 -0.212789
30.296053 3.050652 0.212579
30.300095 3.051059 0.637906
30.263359 2.914030 -0.636859
30.299122 2.917474 -0.212510
30.321522 2.786156 0.212579
30.325565 2.786528 0.637906
30.217918 2.643725 -0.635393
30.243734 2.645984 -0.211951
30.304819 2.518136 0.212300
30.308874 2.518473 0.637068
30.269739 2.382280 -0.636021
30.345425 2.388237 -0.212510
30.285749 2.250620 0.212021
30.329697 2.253886 0.637068
30.289375 2.118039 -0.636021
30.365110 2.123335 -0.212510
30.304237 1.986245 0.212021
30.308306 1.986511 0.636231
30.306705 1.853638 -0.636021
30.342558 1.855830 -0.212230
30.320415 1.721718 0.212021
30.324488 1.721949 0.636231
30.281792 1.587001 -0.635184
30.317654 1.588881 -0.211951
30.334286 1.457060 0.212021
30.338358 1.457256 0.636231
30.294487 1.322686 -0.635184
30.320375 1.323816 -0.211881
30.345846 1.192291 0.212021
30.399872 1.194414 0.637278
30.304876 1.058270 -0.635184
30.330772 1.059174 -0.211881
30.355095 0.927432 0.212021
30.249247 0.924198 0.633927
30.282974 0.792988 -0.634555
30.298876 0.793404 -0.211602
30.242064 0.659884 0.211183
30.206182 0.659101 0.632880
30.368711 0.530088 -0.636231
30.344639 0.529668 -0.211881
30.246672 0.395951 0.211183
30.250772 0.396004 0.633718
30.352186 0.264880 -0.635812
30.258110 0.264059 -0.211253
30.208977 0.131812 0.210904
30.213085 0.131830 0.632880
30.233368 0.000000 -0.633299
30.239264 0.000000 -0.211113
30.248976 -0.131987 0.211183
30.213085 -0.131830 0.632880
30.212221 -0.263658 -0.632880
30.228113 -0.263797 -0.211043
30.246672 -0.395951 0.211183
30.210783 -0.395481 0.632880
30.248756 -0.527994 -0.633718
30.234657 -0.527748 -0.211113
30.202074 -0.659012 0.210904
30.206182 -0.659101 0.632880
30.242996 -0.791941 -0.633718
30.228901 -0.791572 -0.211113
30.195173 -0.922546 0.210904
30.199280 -0.922671 0.632880
30.194967 -1.054431 -0.632880
30.220842 -1.055335 -0.211113
30.225943 -1.187580 0.211183
30.190079 -1.186171 0.632880
30.184616 -1.317889 -0.632880
30.200491 -1.318582 -0.211043
30.014662 -1.441708 0.209787
30.298414 -1.455337 0.635393
30.171967 -1.581246 -0.632880
30.197821 -1.582601 -0.211113
30.200611 -1.714915 0.211183
30.643902 -1.740087 0.642932
30.186956 -1.846313 -0.633508
30.202824 -1.847284 -0.211253
29.306402 -1.920843 0.205040
30.667456 -2.010051 0.643770
30.079933 -2.103394 -0.631623
30.414988 -2.126823 -0.212859
29.238663 -2.172808 0.204691
30.578955 -2.272409 0.642304
30.339508 -2.387771 -0.637487
30.614586 -2.409420 -0.214395
30.623713 -2.544634 0.214534
30.587851 -2.541654 0.642932
30.686028 -2.684680 -0.645236
30.602356 -2.677359 -0.214464
30.600340 -2.811776 0.214534
30.604330 -2.812143 0.643770
30.621624 -2.948527 -0.644398
30.567873 -2.943351 -0.214395
30.614435 -3.082711 0.214813
30.608467 -3.082111 0.644398
30.604670 -3.216681 -0.644608
30.620583 -3.218353 -0.214953
30.586369 -3.349752 0.214813
30.630096 -3.354541 0.645445
30.605236 -3.487026 -0.645236
30.601267 -3.486574 -0.215023
30.595694 -3.621239 0.215093
30.639372 -3.626409 0.646283
30.623257 -3.760063 -0.646283
30.609377 -3.758359 -0.215302
30.562927 -3.888095 0.215093
30.606558 -3.893646 0.646283
30.628927 -4.032375 -0.647121
30.654728 -4.035771 -0.215861
30.607101 -4.165444 0.215651
30.650667 -4.171373 0.647958
30.592573 -4.299506 -0.647121
30.618343 -4.303127 -0.215861
30.648756 -4.443858 0.216210
30.613098 -4.438688 0.647958
30.593439 -4.572220 -0.647958
30.609295 -4.574590 -0.216070
30.608810 -4.711146 0.216210
30.612724 -4.711749 0.648796
30.631372 -4.851533 -0.649634
30.637346 -4.852479 -0.216559
30.645491 -4.990935 0.216768
30.688854 -4.997997 0.651309
30.647034 -5.128554 -0.650890
30.643147 -5.127904 -0.216908
30.640192 -5.264948 0.217047
30.683485 -5.272387 0.652147
30.650341 -5.404482 -0.651938
30.676014 -5.409009 -0.217466
30.632441 -5.539248 0.217327
30.675659 -5.547063 0.652985
30.611843 -5.673570 -0.652147
30.627644 -5.676498 -0.217466
30.622232 -5.813813 0.217606
30.626085 -5.814544 0.652985
30.629866 -5.953843 -0.653613
30.655470 -5.958820 -0.218025
30.648792 -6.096424 0.218164
30.691847 -6.104988 0.655498
30.655119 -6.236855 -0.655288
30.641499 -6.234083 -0.218304
30.633587 -6.371795 0.218444
30.637402 -6.372589 0.655498
30.648422 -6.514524 -0.656335
30.625055 -6.509556 -0.218583
30.654993 -6.655851 0.219002
30.658787 -6.656675 0.657173
30.668493 -6.799041 -0.658011
30.654947 -6.796038 -0.219212
30.673769 -6.940765 0.219561
30.638535 -6.932793 0.658011
30.607992 -7.066412 -0.658011
30.633448 -7.072289 -0.219491
30.612032 -7.208177 0.219561
30.654722 -7.218229 0.659686
30.622934 -7.351916 -0.659686
30.638630 -7.355684 -0.219980
30.664522 -7.503561 0.220398
30.707100 -7.513979 0.662199
30.674023 -7.647892 -0.662199
30.699409 -7.654222 -0.220887
30.636642 -7.780716 0.220678
30.640360 -7.781660 0.662199
30.644833 -7.925292 -0.663037
30.708895 -7.941860 -0.221446
30.644939 -8.068139 0.221236
30.648634 -8.069112 0.663875
30.651762 -8.213115 -0.664712
30.667398 -8.217304 -0.221655
30.650547 -8.356298 0.221795
30.654217 -8.357299 0.665550
30.655996 -8.501660 -0.666388
30.681246 -8.508662 -0.222283
30.614956 -8.634311 0.222074
30.657099 -8.646196 0.667225
30.657522 -8.790903 -0.668063
30.644276 -8.787105 -0.222563
30.653645 -8.934723 0.222912
30.695662 -8.946969 0.669739
30.570055 -9.055263 -0.667854
30.604780 -9.065549 -0.222842
30.651112 -9.224937 0.223470
30.654711 -9.226021 0.670576
30.690651 -9.383074 -0.672252
30.677509 -9.379056 -0.223959
30.684044 -9.527649 0.224308
30.725801 -9.540615 0.673927
30.645741 -9.662565 -0.673089
30.670790 -9.670463 -0.224517
30.675920 -9.819440 0.224866
30.669941 -9.817526 0.674555
30.636320 -9.954344 -0.674765
30.661314 -9.962465 -0.225076
30.627050 -10.099287 0.225146
30.621080 -10.097318 0.675393
30.662062 -10.259382 -0.677278
30.687006 -10.267729 -0.225914
30.651381 -10.404742 0.225983
30.692741 -10.418782 0.678953
30.609177 -10.539585 -0.678116
30.671875 -10.561173 -0.226472
30.672705 -10.711388 0.226821
28.146561 -9.829219 0.624503
30.695042 -10.719189 0.681047
30.666826 -10.859693 -0.681466
30.691660 -10.868486 -0.227310
28.168713 -10.113601 0.208949
30.709826 -11.025954 0.227799
27.862110 -10.003520 0.620105
30.685019 -11.017048 0.682932
30.646051 -11.154250 -0.683142
28.246471 -10.280875 -0.209857
30.661423 -11.159845 -0.227799
27.760405 -10.241354 0.206575
30.659346 -11.310830 0.228148
30.672129 -11.315545 0.684817
28.253202 -10.563439 -0.631833
30.641193 -11.456272 -0.685236
27.790386 -10.390400 -0.207134
30.712732 -11.483020 -0.228916
30.643635 -11.609835 0.228776
27.917013 -10.576810 0.625341
27.739925 -10.648359 -0.622409
30.661390 -11.769805 -0.687958
30.658033 -11.768517 -0.229265
27.931595 -10.862003 0.209228
27.823652 -10.820026 0.625341
30.659838 -12.077231 -0.690262
28.060711 -11.053408 -0.210555
27.789305 -11.086808 0.208879
27.681740 -11.043895 0.624294
28.041161 -11.329364 -0.633508
27.916826 -11.279130 -0.210206
27.774794 -11.362968 0.209508
27.621325 -11.300182 0.625131
27.941227 -11.573635 -0.633508
27.854290 -11.537624 -0.210485
27.591581 -11.570110 0.208879
27.530882 -11.544657 0.625341
27.691916 -11.754521 -0.630157
27.715725 -11.764627 -0.210206
27.535501 -11.830185 0.209228
27.465832 -11.800253 0.626178
27.707478 -12.047554 -0.632880
27.492790 -11.954206 -0.209298
27.431217 -12.070024 0.209228
27.352659 -12.035459 0.625969
27.446020 -12.219755 -0.629320
27.213856 -12.116389 -0.207972
27.388664 -12.337693 0.209717
27.283052 -12.290119 0.626807
27.311047 -12.446361 -0.628691
25.996960 -11.847497 -0.199455
27.334570 -12.457082 -0.209717
27.316280 -12.592978 0.209996
27.247400 -12.561223 0.628482
27.337309 -12.747597 -0.631833
25.720388 -11.993614 -0.198128
27.224823 -12.695143 -0.209717
25.948185 -12.237959 0.200292
27.151081 -12.805282 0.209577
26.431425 -12.465870 0.612147
25.284893 -12.060275 -0.586807
27.784506 -13.252529 -0.644817
30.672146 -14.629863 -0.711833
26.246540 -12.518957 -0.203015
27.056316 -13.050418 0.209717
27.024027 -13.034842 0.628482
25.627985 -12.499603 -0.597278
27.703743 -13.512018 -0.645655
30.687084 -14.967092 -0.715184
25.722858 -12.545877 -0.199804
27.268747 -13.299856 -0.211811
26.098360 -12.870287 0.203155
26.918215 -13.274594 0.628691
25.249508 -12.588941 -0.590995
28.372145 -14.145829 -0.664084
30.671621 -15.292307 -0.717906
25.531855 -12.729713 -0.199175
27.625950 -13.773790 -0.215512
25.922546 -13.066039 0.202666
27.119110 -13.669156 0.212021
26.542442 -13.378492 0.622618
25.352484 -12.917736 -0.596021
30.643902 -15.613848 -0.720419
26.132584 -13.315217 -0.204760
30.694427 -15.639591 -0.240504
27.372171 -14.097594 0.214953
26.344688 -13.568406 0.620733
26.320707 -13.701694 -0.621571
27.491304 -14.311068 -0.649215
30.612898 -15.936067 -0.722932
25.758167 -13.408853 -0.202736
30.707567 -15.985348 -0.241691
25.513573 -13.423340 0.201270
27.734837 -14.592004 0.218793
26.605742 -13.997958 0.629739
24.884834 -13.231501 -0.590367
26.359034 -14.015347 -0.625341
30.675699 -16.310558 -0.727749
26.028660 -13.839684 -0.205808
30.672852 -16.309044 -0.242529
25.871130 -13.901060 0.205040
30.707104 -16.499521 0.243367
26.905310 -14.456744 0.639791
24.952932 -13.548337 -0.594765
27.017700 -14.669414 -0.643979
30.707922 -16.673040 -0.731938
25.511438 -13.851582 -0.202666
26.926300 -14.619788 -0.213906
30.705122 -16.671520 -0.243925
25.845274 -14.179203 0.205808
30.719757 -16.853436 0.244623
27.417999 -15.042029 0.655079
25.192268 -13.964302 -0.603351
28.716211 -15.917656 -0.687749
30.674931 -17.003391 -0.734660
25.844383 -14.325775 -0.206296
30.742134 -17.040644 -0.245391
26.104445 -14.619191 0.208879
30.676212 -17.179504 0.245461
26.108078 -14.621226 0.626807
27.407812 -15.349113 0.658011
24.921520 -14.099917 -0.599791
30.664608 -17.349201 -0.738011
30.670588 -17.352583 -0.246020
27.200006 -15.546084 0.218723
30.733490 -17.565636 0.247137
27.099222 -15.488482 0.653822
27.230526 -15.721551 -0.658639
30.676550 -17.711115 -0.741990
27.218515 -15.714617 -0.219421
30.708513 -17.729568 -0.247555
26.899181 -15.687140 0.217396
27.032122 -15.764668 0.655498
27.066450 -15.943358 -0.658011
30.684500 -18.074551 -0.745969
27.364676 -16.119026 -0.221725
27.087830 -16.115566 0.220049
26.970850 -16.045971 0.657383
25.452286 -15.293276 -0.621990
26.943430 -16.189245 -0.658430
30.611301 -18.393126 -0.748063
25.448677 -15.291108 -0.207274
27.034397 -16.243904 -0.220189
30.694412 -18.443064 -0.249999
27.253925 -16.538088 0.222563
30.767529 -18.670195 0.251256
26.787062 -16.254787 0.656335
26.758505 -16.397633 -0.657383
30.688314 -18.805822 -0.753927
26.976877 -16.531452 -0.220887
30.634615 -18.772917 -0.250837
26.844965 -16.612169 0.220398
26.712208 -16.530016 0.658011
24.816923 -15.507335 -0.612985
30.692608 -19.178869 -0.758116
27.264082 -17.036489 -0.224448
30.681633 -19.172012 -0.252582
25.269732 -15.944014 0.208600
27.079544 -17.085920 0.223540
30.733000 -19.391079 0.253699
27.251829 -17.194624 0.674974
30.701643 -19.371294 0.760419
24.967344 -15.905952 -0.620105
30.718012 -19.569532 -0.762932
25.545704 -16.274408 -0.211462
26.996302 -17.198542 -0.223470
30.715569 -19.567974 -0.254258
30.713997 -19.755907 0.254956
26.579412 -17.096453 0.661990
30.682783 -19.735828 0.764189
25.339066 -16.455381 -0.632880
27.099888 -17.598873 -0.676859
30.722151 -19.951199 -0.767330
26.920670 -17.482487 -0.224098
30.711369 -19.944195 -0.255654
28.115255 -18.433168 0.234710
30.640778 -20.088974 0.255793
26.571344 -17.420937 0.665550
30.735136 -20.150839 0.769843
25.819780 -17.089739 -0.648587
30.663593 -20.295790 -0.770262
25.199415 -16.679129 -0.210974
26.850470 -17.771938 -0.224797
30.636219 -20.277670 -0.256492
26.531549 -17.727814 0.222772
27.820295 -18.588926 0.233593
30.655537 -20.483376 0.257399
25.088249 -16.763432 0.632042
24.915403 -16.805653 -0.629529
26.813484 -18.085922 -0.677487
30.700817 -20.707962 -0.775707
27.092287 -18.273979 -0.228148
30.706804 -20.712000 -0.258586
24.921074 -16.968155 0.210485
30.707062 -20.907694 0.259354
24.941008 -16.981728 0.632042
24.817236 -17.056414 -0.630786
26.638157 -18.307898 -0.677068
30.741404 -21.127981 -0.781362
24.929209 -17.133371 -0.211183
30.780363 -21.154757 -0.260750
24.788485 -17.196383 0.210625
23.461090 -16.275537 0.598116
24.849369 -17.238621 0.633508
24.921329 -17.450104 -0.637278
30.736034 -21.521603 -0.785969
25.630642 -17.946770 -0.218444
30.766602 -21.543007 -0.262216
23.445208 -16.569435 0.200432
24.653809 -17.423588 0.210764
23.465132 -16.583515 0.601885
24.947168 -17.794641 -0.641885
30.750538 -21.934147 -0.791205
23.494801 -16.758678 -0.201479
24.984596 -17.821339 -0.214255
30.780958 -21.955843 -0.263961
23.502609 -16.919458 0.202177
26.472898 -19.057760 0.227729
23.384432 -16.834383 0.603561
23.674734 -17.200701 -0.612985
24.718138 -17.958778 -0.640000
26.060810 -18.934288 -0.674765
23.452831 -17.039478 -0.202387
30.644817 -22.264763 -0.264450
23.394388 -17.153475 0.202526
23.397890 -17.156042 0.607749
30.791365 -22.577164 0.799791
23.708576 -17.543425 -0.617801
23.986504 -17.749079 -0.208321
23.372004 -17.452703 0.203643
23.535675 -17.574921 0.615288
30.761398 -22.970625 0.804189
23.283104 -17.545076 -0.610681
23.575146 -17.765146 -0.206087
26.074814 -19.648781 -0.227938
23.409849 -17.801262 0.205319
25.670439 -19.520256 0.225146
23.691782 -18.015650 0.623456
26.190681 -19.915855 0.689215
30.734856 -23.371326 0.808796
23.097382 -17.723246 -0.609843
23.133619 -17.751051 -0.203574
22.897812 -17.729380 0.202177
23.573193 -18.252316 0.624503
26.007982 -20.137531 0.689006
23.154556 -18.090322 -0.615498
24.115719 -18.841265 -0.641047
25.911989 -20.244665 -0.688796
23.056633 -18.013815 -0.204272
25.861883 -20.205517 -0.229125
30.708031 -23.991743 -0.272060
22.742224 -17.928524 0.202177
26.111151 -20.584372 0.232127
22.572910 -17.795048 0.602095
22.862795 -18.185888 -0.611938
23.289850 -18.525583 -0.207762
30.747925 -24.458004 -0.274294
21.516489 -17.268808 0.192613
22.655092 -18.182634 0.202806
22.408964 -17.985096 0.601885
21.592150 -17.484978 -0.581990
22.905239 -18.548296 -0.617383
30.729382 -24.884163 -0.828273
24.495045 -19.835695 -0.220049
30.758688 -24.907894 -0.276318
22.449095 -18.341681 0.202387
24.261129 -19.822174 0.218723
22.467945 -18.357082 0.607749
21.832186 -17.997066 -0.592671
24.817719 -20.458149 -0.673718
30.757925 -25.354877 -0.834974
21.929037 -18.076902 -0.198407
24.892002 -20.519382 -0.225215
25.055944 -20.838810 0.227519
30.768301 -25.589725 0.279390
22.245403 -18.501307 0.606074
21.482834 -18.026237 -0.587435
30.749939 -25.802263 -0.840838
21.747471 -18.248295 -0.198198
24.305998 -20.395153 -0.221515
21.713434 -18.381779 0.198617
30.788048 -26.064007 0.281624
22.197563 -18.791624 0.609215
24.257839 -20.535776 0.665760
21.294300 -18.187050 -0.586597
30.736471 -26.251427 -0.846702
21.450529 -18.320482 -0.196941
21.627953 -18.635838 0.199315
24.347546 -20.979187 0.224378
25.491440 -21.964830 0.234919
21.888826 -18.860619 0.605236
24.108006 -20.772785 0.666597
22.334505 -19.415089 -0.619896
24.500046 -21.297565 -0.680000
21.342667 -18.552896 -0.197430
21.411877 -18.777712 0.198826
30.817163 -27.025927 0.286162
21.760988 -19.083876 0.606283
30.841223 -27.047026 0.859267
21.250702 -18.801033 -0.594346
24.463017 -21.643049 -0.684189
21.509483 -19.029984 -0.200502
30.758862 -27.213142 -0.286720
21.284498 -18.997141 0.199175
21.809933 -19.466110 0.612356
23.831305 -21.270254 0.669110
30.805412 -27.494881 0.864922
20.595457 -18.544233 -0.580524
24.213778 -21.802183 -0.682513
30.714869 -27.655792 -0.865760
22.174902 -19.966372 -0.208321
21.051291 -19.121647 0.198547
21.121193 -19.185141 0.597697
20.823517 -19.081238 -0.591623
21.343658 -19.557859 -0.202107
21.258118 -19.650803 0.202107
21.033726 -19.443377 0.600000
20.612339 -19.221317 -0.590367
21.884615 -20.407734 -0.626807
20.462778 -19.081848 -0.195336
21.808435 -20.336695 -0.208181
23.015963 -21.651255 0.220608
21.970133 -20.667437 0.631833
20.429314 -19.386696 -0.589948
20.745201 -19.686460 -0.199664
20.630213 -19.749132 0.199385
21.045069 -20.146271 0.610262
21.316555 -20.585159 -0.620733
23.344648 -22.543665 -0.679791
20.234535 -19.540264 -0.196383
21.151880 -20.605249 0.206157
20.832653 -20.294273 0.609215
24.535122 -23.901058 0.717487
21.079060 -20.714334 -0.619058
20.919127 -20.557167 -0.204760
23.065958 -22.666853 -0.225774
20.850534 -20.669369 0.204970
23.101767 -22.901041 0.227100
20.321047 -20.144482 0.599372
21.003534 -21.003534 -0.622199
23.718229 -23.718229 -0.702618
20.625803 -20.625803 -0.203643
20.760889 -20.942856 0.205877
20.594954 -20.775467 0.612775
21.134787 -21.506916 -0.631623
23.531372 -23.945698 -0.703246
20.536140 -20.897728 -0.204551
20.472673 -21.015787 0.204830
20.559376 -21.104788 0.617173
20.369862 -21.093609 -0.614241
20.366886 -21.090528 -0.204691
20.426798 -21.338112 0.206226
20.339851 -21.247288 0.616126
20.632343 -21.741955 -0.627854
21.919285 -23.098106 -0.667016
20.677668 -21.789715 -0.209717
20.445362 -21.734060 0.208321
20.578382 -21.875465 0.629110
20.223635 -21.687193 -0.621152
22.139629 -23.741846 -0.680000
20.418533 -21.896196 -0.209019
22.012972 -23.813499 0.226402
21.180725 -22.913179 0.653613
20.161945 -22.002901 -0.625131
21.634409 -23.609814 -0.670786
20.496908 -22.368450 -0.211811
21.895346 -23.894577 -0.226263
20.432730 -22.494680 0.212160
21.427809 -23.590178 0.222493
20.959799 -23.074940 0.652985
19.969168 -22.178007 -0.625131
20.341074 -22.591053 -0.212230
20.129112 -22.552765 0.211043
21.474161 -24.059765 0.225146
21.037247 -23.570242 0.661780
19.880867 -22.471231 -0.628482
19.911247 -22.505571 -0.209787
19.786486 -22.562162 0.209508
20.923046 -23.858162 0.664712
19.893906 -22.885321 -0.635184
19.694412 -22.655830 -0.209577
20.091455 -23.317282 0.214883
20.237640 -23.486938 0.649424
21.405825 -24.842682 0.686911
22.186773 -25.977373 -0.715603
19.651819 -23.009323 -0.211253
19.984127 -23.606205 0.215930
20.025450 -23.655018 0.649215
21.491831 -25.387175 0.696754
22.768970 -27.135002 -0.741990
19.951641 -23.777439 -0.216698
21.785156 -26.193804 0.237852
23.575541 -28.346508 0.257399
19.824656 -23.836555 0.649424
21.876804 -26.303997 0.716650
21.916378 -26.824308 0.241831
20.982233 -25.680971 0.694660
21.449875 -26.725990 0.239248
20.726038 -25.824110 0.693613
22.150642 -28.097956 0.249789
21.081715 -26.742029 0.713299
21.188324 -27.365099 0.241621
20.810822 -26.877550 0.712042
20.829094 -27.893539 0.729215
0.140216 -0.194773 0.001676
0.157713 -0.219077 0.005654
20.508507 -28.488113 0.735288
0.199494 -0.287569 0.002443
0.153865 -0.221796 0.005654
0.151924 -0.223130 0.005654
0.155556 -0.232806 0.001955
0.166635 -0.249386 0.006283
0.148036 -0.225792 0.001885
0.126080 -0.192304 0.004817
0.151469 -0.235485 0.001955
0.162257 -0.252256 0.006283
0.128064 -0.202970 0.001676
0.117369 -0.186019 0.004607
0.147336 -0.238093 0.001955
0.136786 -0.221043 0.005445
0.197129 -0.324859 0.002653
0.140038 -0.230776 0.005654
0.117595 -0.197659 0.001606
0.107348 -0.180436 0.004398
0.115843 -0.198639 0.004817