# This PCD file was generated using the MATLAB® pcwrite function
# from Computer Vision System Toolbox®.
# .PCD v.7 - Point Cloud Data file format
VERSION .7
FIELDS x y z
SIZE 4 4 4
TYPE F F F
COUNT 1 1 1
WIDTH 905
HEIGHT 1
VIEWPOINT 0 0 0 1 0 0 0
POINTS 905
DATA ascii
27.961998 30.515165 -0.288954
28.071714 30.103228 -0.862199
27.741488 29.233429 -0.844189
27.877682 29.376945 -0.282741
28.308065 29.313860 -0.853613
28.438622 29.449053 -0.285813
28.815067 29.322426 -0.861152
28.974882 29.485056 -0.288605
29.971342 29.452755 -0.880210
30.169758 29.647739 -0.295307
30.579620 29.530396 -0.890472
30.801380 29.744547 -0.298938
31.213266 29.620283 -0.901362
28.426729 26.975958 -0.273596
31.328156 29.729309 -0.301521
28.538475 26.612558 -0.817383
28.470905 26.549549 -0.271780
28.622200 26.227415 -0.813194
28.524565 26.137949 -0.270105
28.671669 25.816088 -0.808168
28.573223 25.727446 -0.268429
28.716152 25.405905 -0.803142
28.646858 25.344599 -0.267033
28.755674 24.996925 -0.798116
28.716000 24.962439 -0.265637
28.813065 24.608683 -0.793718
28.750250 24.555033 -0.263961
28.911835 24.259911 -0.790576
28.840870 24.200363 -0.262844
28.937290 23.854061 -0.785550
28.865772 23.795107 -0.261169
29.020035 23.499962 -0.782199
28.916897 23.416441 -0.259773
29.036219 23.096451 -0.777173
28.963621 23.038706 -0.258376
29.110611 22.743702 -0.773822
29.037489 22.686573 -0.257259
29.117613 22.342731 -0.768796
29.075691 22.310562 -0.255863
29.151787 21.967447 -0.764608
29.109554 21.935623 -0.254467
29.245935 21.640854 -0.762095
29.171255 21.585592 -0.253350
29.304256 21.290789 -0.758744
29.196712 21.212652 -0.251954
29.326149 20.918139 -0.754555
29.413277 20.980286 -0.252233
29.597662 20.724506 -0.756859
29.431416 20.608099 -0.250837
29.431332 20.227594 -0.748063
29.321695 20.152243 -0.248393
29.474110 19.880539 -0.744712
29.396955 19.828497 -0.247555
29.358477 19.616707 0.246508
29.261311 19.551783 0.737173
29.438051 19.484621 -0.739477
29.402098 19.460823 -0.246159
29.428192 19.293968 0.245671
29.355568 19.246353 0.735288
29.548269 19.188869 -0.738011
29.470165 19.138149 -0.245321
29.460878 18.949875 0.244554
29.354233 18.881277 0.731100
29.613411 18.865824 -0.735498
29.534849 18.815773 -0.244484
29.455982 18.585340 0.243157
29.391052 18.544373 0.727959
29.598866 18.495424 -0.731100
29.562237 18.472536 -0.243367
29.489496 18.248653 0.242110
29.415733 18.203009 0.724608
29.631271 18.158068 -0.727959
29.585894 18.130259 -0.242250
29.536486 17.923180 0.241203
29.470896 17.883379 0.722095
29.685762 17.837006 -0.725445
29.640123 17.809582 -0.241412
29.554266 17.582941 0.240086
29.488359 17.543730 0.718744
29.728300 17.511307 -0.722723
29.691017 17.489346 -0.240574
29.637474 17.284063 0.239527
29.502150 17.205145 0.715393
29.784740 17.196228 -0.720419
29.669308 17.129583 -0.239178
29.648268 16.945381 0.238410
29.590406 16.912312 0.713927
29.794443 16.856884 -0.717068
29.713219 16.810930 -0.238340
29.690315 16.627377 0.237572
29.597298 16.575283 0.710576
29.870457 16.557465 -0.715393
29.788822 16.512213 -0.237782
29.694012 16.290693 0.236455
29.591805 16.234619 0.707016
29.873228 16.219839 -0.712042
29.791174 16.175287 -0.236665
29.738146 15.978883 0.235687
29.635473 15.923714 0.704712
29.943014 15.920983 -0.710367
29.825243 15.858363 -0.235827
29.805656 15.681515 0.235129
29.737911 15.645872 0.703875
29.938919 15.585215 -0.707016
29.856056 15.542080 -0.234989
29.799128 15.347560 0.234012
29.695549 15.294212 0.699686
29.966887 15.268891 -0.704503
29.883631 15.226470 -0.234151
29.824770 15.032922 0.233174
29.792171 15.016491 0.698849
29.991621 14.953271 -0.701990
29.943773 14.929415 -0.233593
29.847197 14.719008 0.232336
29.778612 14.685186 0.695498
30.049082 14.655916 -0.700315
29.965063 14.614938 -0.232755
30.577961 14.749057 0.237014
30.815134 14.863456 0.716650
30.446548 14.522259 -0.706597
30.939869 14.757561 -0.239318
31.013012 14.626686 0.239387
31.006966 14.623835 0.718116
30.834890 14.378546 -0.712671
31.130915 14.516583 -0.239806
31.166714 14.368052 0.239597
31.169718 14.369436 0.718953
31.304899 14.266465 -0.720629
34.461773 15.705135 -0.793299
31.283707 14.256806 -0.240016
27.607481 12.436264 0.211393
31.345615 14.120170 0.240016
34.138000 15.378048 0.784294
34.524445 15.371273 -0.791623
27.643211 12.307550 -0.211253
34.430691 15.329531 -0.263124
34.341648 15.110687 0.261937
34.243443 15.067476 0.783665
34.556416 15.025557 -0.789320
28.024673 12.185474 -0.213347
34.361954 14.763061 0.261099
34.300140 14.736503 0.781990
34.612595 14.692175 -0.787644
27.853798 11.823236 -0.211253
34.518089 14.652061 -0.261797
27.720686 11.624249 0.209857
34.443367 14.443302 0.260750
27.678402 11.606517 0.628691
34.344452 14.401824 0.780105
34.702541 14.374264 -0.786807
27.660278 11.457263 -0.209019
34.644638 14.350279 -0.261797
27.756283 11.355395 0.209368
34.540329 14.130822 0.260541
34.441063 14.090211 0.779477
28.041161 11.329364 -0.633508
34.743229 14.037176 -0.784922
27.685036 11.185480 -0.208460
34.657288 14.002453 -0.260960
27.854321 11.112747 0.209368
29.061743 11.594460 0.218444
34.560162 13.788106 0.259773
29.993969 11.966380 0.676440
34.836494 13.722461 -0.784294
27.902542 10.991104 -0.209368
34.750248 13.688487 -0.260750
28.043434 10.905495 0.210066
30.336117 11.797071 0.227240
27.926149 10.859886 0.627644
30.069298 11.693311 0.675812
34.880249 13.389273 -0.782618
34.756351 13.341714 -0.259912
28.202991 10.685158 0.210555
26.888590 10.187176 0.602304
30.628311 11.604029 0.686074
34.995762 13.084379 -0.782618
28.108847 10.509467 -0.209508
35.058784 13.107943 -0.261309
34.899868 12.875240 0.259703
27.004604 9.962524 0.602932
35.155586 12.795587 -0.783665
35.030888 12.750200 -0.260261
33.937981 12.184979 0.251744
27.353987 9.821085 0.608796
35.143391 12.444928 -0.780943
28.910110 10.237607 -0.214115
35.084263 12.423988 -0.259843
29.162199 10.183896 0.215651
33.844765 11.819121 0.250278
27.844519 9.723741 0.617801
33.639954 11.747598 0.746388
35.222294 12.128009 -0.780315
28.998348 9.984932 -0.214115
35.115704 12.091307 -0.259284
29.335180 9.957952 0.216279
27.265606 9.255426 0.603142
29.471470 10.004216 0.651938
27.172995 9.091957 -0.600210
35.241459 11.791628 -0.778430
27.225708 9.109594 -0.200432
35.144020 11.759024 -0.258725
29.686871 9.789262 0.218234
35.175999 11.599305 0.258586
27.525740 9.076628 0.607121
29.605124 9.762306 0.652985
27.412947 8.907006 -0.603770
35.504662 11.536164 -0.781990
27.446823 8.918014 -0.201479
27.856897 8.917064 0.204202
29.346401 9.393857 0.645445
35.480026 11.186809 -0.779267
27.790634 8.762354 -0.203434
35.467869 11.182976 -0.259633
28.172401 8.747764 0.205947
27.641764 8.582995 0.606283
35.423321 10.829996 -0.775917
28.200741 8.621832 -0.205877
35.449352 10.837955 -0.258795
28.582809 8.602449 0.208391
35.371822 10.645711 0.257888
27.840069 8.378909 0.609006
35.593170 10.543177 -0.777592
35.542580 10.528193 -0.258795
28.695190 8.363885 0.208670
28.881565 8.418208 0.630157
27.764759 7.961417 -0.605026
35.703041 10.237682 -0.778011
28.154669 8.073221 -0.204481
28.545727 8.050728 0.207064
28.771101 8.114289 0.626178
27.987326 7.761572 -0.608377
35.723579 9.907025 -0.776545
28.195141 7.819204 -0.204272
28.721018 7.830248 0.207832
28.889044 7.876057 0.627225
35.750732 9.579380 -0.775288
30.715693 8.230245 -0.222004
35.719067 9.570895 -0.258167
30.693291 8.080869 0.221585
31.509115 8.295658 0.682513
35.784569 9.254519 -0.774241
35.694733 9.231286 -0.257399
27.825941 7.066889 0.200432
30.830484 7.829946 0.222074
28.033701 7.119653 0.605864
30.262444 7.685681 0.654032
35.825161 8.932217 -0.773404
35.773933 8.919443 -0.257399
27.760281 6.792897 0.199524
28.182165 6.896132 0.607749
35.901745 8.619246 -0.773404
35.811512 8.597583 -0.257120
28.791857 6.779583 0.206506
28.650000 6.746180 0.616545
35.907402 8.289877 -0.771938
28.636038 6.611150 -0.205179
28.957209 6.552347 0.207274
29.127085 6.590786 0.625550
36.017422 7.984870 -0.772775
28.809793 6.386977 -0.206017
35.936581 7.966948 -0.256980
28.622402 6.214532 0.204481
35.804874 7.774001 0.255793
28.226015 6.128469 0.605026
36.075951 7.668180 -0.772566
35.955830 7.642647 -0.256631
35.832191 7.453106 0.255514
26.643772 5.541913 0.570053
35.825207 7.451653 0.766493
36.102306 7.345097 -0.771728
35.981956 7.320612 -0.256352
35.905674 7.142083 0.255584
26.808788 5.332600 0.572566
29.740694 5.915792 0.635184
36.165028 7.029769 -0.771728
36.034657 7.004427 -0.256282
28.234936 5.360570 0.200641
35.966633 6.828478 0.255584
28.239254 5.361390 0.602095
36.224998 6.713906 -0.771728
36.064911 6.684236 -0.256073
35.975651 6.505457 0.255235
28.284966 5.114755 0.602095
36.242825 6.390587 -0.770890
36.112019 6.367524 -0.256003
36.031052 6.191267 0.255235
29.944479 5.145403 0.636440
35.994469 6.184980 0.765027
36.267628 6.069119 -0.770262
36.176075 6.053799 -0.256073
36.083706 5.876605 0.255235
30.155994 4.911215 0.640000
36.056938 5.872245 0.765236
36.319210 5.752398 -0.770262
36.217648 5.736312 -0.256003
30.608810 4.711146 0.216210
30.731302 4.730000 0.651309
36.368027 5.435238 -0.770262
36.276218 5.421517 -0.256073
36.230255 5.253137 0.255584
36.144035 5.240636 0.765027
36.453674 5.123230 -0.771100
36.361759 5.110312 -0.256352
36.225174 4.930030 0.255235
36.158672 4.920979 0.764398
36.487080 4.803616 -0.770890
36.355396 4.786279 -0.256003
36.266819 4.613722 0.255235
28.176680 3.584526 0.594974
36.220074 4.607776 0.764817
36.567303 4.489901 -0.771728
36.485107 4.479808 -0.256631
36.355350 4.302939 0.255584
28.326029 3.352607 0.597487
36.229122 4.287999 0.764189
36.565357 4.166096 -0.770890
36.483070 4.156721 -0.256352
36.381577 3.984431 0.255514
36.265160 3.971681 0.764189
36.650036 3.852074 -0.771938
36.557735 3.842373 -0.256631
36.424911 3.667796 0.255584
36.298439 3.655061 0.764189
36.722065 3.535933 -0.772775
36.619732 3.526079 -0.256841
36.485405 3.352538 0.255793
36.368774 3.341821 0.765027
36.671844 3.208371 -0.771100
36.579376 3.200281 -0.256352
36.513271 3.034019 0.255793
36.446369 3.028460 0.766074
36.778183 2.894506 -0.772775
36.675694 2.886440 -0.256841
36.538357 2.715269 0.255793
36.421558 2.706589 0.765027
36.871853 2.578331 -0.774241
36.789265 2.572556 -0.257469
36.650467 2.402198 0.256422
36.483696 2.391268 0.765864
36.863014 2.254638 -0.773613
36.750427 2.247752 -0.257050
36.670033 2.082275 0.256422
36.593010 2.077902 0.767749
36.951172 1.936529 -0.775079
36.858517 1.931673 -0.257678
36.766712 1.766032 0.256980
36.649696 1.760411 0.768587
36.966667 1.613999 -0.775079
36.883961 1.610389 -0.257748
36.750748 1.443941 0.256771
34.136169 1.341214 0.715603
36.683643 1.441304 0.769006
37.019310 1.292743 -0.775917
36.926590 1.289505 -0.257958
34.133240 1.042865 0.238410
34.146572 1.043272 0.715603
37.029182 0.969643 -0.775917
34.207439 0.895753 -0.238899
36.976425 0.968262 -0.258237
33.991081 0.741688 0.237363
34.154377 0.745251 0.715603
34.237274 0.597614 -0.717278
34.093975 0.595113 -0.238061
33.996258 0.445035 0.237363
34.199566 0.447697 0.716440
32.161720 0.280671 -0.673718
34.101219 0.297597 -0.714346
33.867886 0.295561 -0.236455
33.998848 0.148349 0.237363
33.142414 0.144612 0.694241
31.843016 0.000000 -0.667016
33.942554 0.000000 -0.710995
30.579254 0.000000 -0.213487
33.849174 0.000000 -0.236316
33.288872 -0.145251 0.232406
32.572544 -0.142125 0.682304
34.252159 -0.149454 0.717487
31.861797 -0.278054 -0.667435
33.791302 -0.294892 -0.707854
33.897884 -0.295822 -0.236665
30.606632 -0.400663 0.213696
32.730015 -0.428459 0.685655
34.259548 -0.448482 0.717697
32.028095 -0.559052 -0.670995
33.817429 -0.590285 -0.708482
30.784561 -0.537346 -0.214953
34.003990 -0.593542 -0.237433
30.681950 -0.669483 0.214255
34.181030 -0.745833 0.238689
31.455610 -0.686364 0.659058
31.962030 -0.836955 -0.669739
33.930923 -0.888512 -0.710995
30.908651 -0.809372 -0.215861
34.017509 -0.890780 -0.237572
30.744904 -0.939342 0.214744
34.203205 -1.045002 0.238899
31.408451 -0.959615 0.658220
34.316456 -1.048463 0.719163
32.223286 -1.125262 -0.675393
33.891903 -1.183531 -0.710367
32.339500 -1.129320 -0.225914
33.868530 -1.182715 -0.236595
32.534103 -1.278268 0.227310
34.132832 -1.341083 0.238480
31.618664 -1.242301 0.662828
34.365940 -1.350241 0.720419
32.032448 -1.398567 -0.671623
33.960190 -1.482734 -0.712042
32.248489 -1.408000 -0.225355
34.056725 -1.486949 -0.237991
32.042274 -1.539101 0.223959
30.977482 -1.487955 0.649634
34.332874 -1.649126 0.720000
31.609676 -1.656593 -0.663037
32.075199 -1.680990 -0.224238
34.042450 -1.784089 -0.237991
32.077541 -1.821495 0.224308
34.243999 -1.944515 0.239457
30.813591 -1.749722 0.646492
31.554100 -1.929931 -0.662199
33.939121 -2.075805 -0.712252
32.139156 -1.965715 -0.224797
31.082548 -2.037258 0.217466
34.175835 -2.240003 0.239108
31.026606 -2.033591 0.651309
34.298866 -2.248066 0.720000
32.433666 -2.267983 -0.681047
33.939659 -2.373292 -0.712671
32.200584 -2.251684 -0.225355
31.671894 -2.353628 0.221725
34.174931 -2.539636 0.239248
30.917946 -2.297600 0.649424
30.598650 -2.408166 -0.642932
34.246567 -2.695263 -0.719582
30.066294 -2.366269 -0.210555
32.369118 -2.547505 -0.226682
30.264957 -2.514824 0.212021
31.115915 -2.585533 0.654032
29.411179 -2.573145 -0.618430
34.610172 -3.027998 -0.727749
29.646032 -2.593692 -0.207762
34.557152 -3.023359 -0.242180
30.879158 -2.837396 0.216489
34.692997 -3.187839 0.243227
30.405212 -2.793847 0.639582
28.939774 -2.786583 -0.609006
29.064861 -2.798628 -0.203853
30.733829 -3.094734 0.215651
30.976524 -3.119172 0.652147
37.442402 -3.770252 0.788273
29.043613 -3.052607 -0.611728
28.830486 -3.030206 -0.202387
37.641735 -3.956306 -0.264241
30.626129 -3.354107 0.215093
37.554535 -4.112890 0.263752
31.017694 -3.396990 0.653613
37.467705 -4.103381 0.789529
28.618526 -3.260669 -0.603351
30.118492 -3.431569 -0.634974
28.653913 -3.264701 -0.201340
28.569883 -3.381469 0.200851
31.201450 -3.692935 0.219351
37.606586 -4.451033 0.264380
28.772812 -3.405487 0.606911
28.350824 -3.481044 -0.598325
37.787868 -4.639767 -0.797487
28.108223 -3.451256 -0.197709
32.524944 -3.993561 -0.228776
27.765541 -3.532223 0.195405
37.605991 -4.784086 0.264660
28.384954 -3.611022 0.599372
28.339191 -3.730925 -0.598744
31.233576 -4.111979 -0.659896
32.908749 -4.332519 -0.695288
27.868835 -3.669002 -0.196243
27.644485 -3.762249 0.194777
29.144882 -3.966444 0.616126
28.364958 -3.986435 -0.600000
30.869787 -4.338466 -0.652985
27.934782 -3.925977 -0.196941
27.798630 -4.030610 0.196104
28.515497 -4.134551 0.603561
37.657871 -5.460132 0.797068
29.268450 -4.374199 -0.619896
31.275711 -4.674186 -0.662409
32.650143 -4.879596 -0.691519
27.790668 -4.153343 -0.196173
27.930416 -4.298902 0.197290
27.964497 -4.304148 0.592671
28.172567 -4.462097 -0.597487
31.273230 -4.953193 -0.663246
38.017662 -6.021406 -0.806283
28.207691 -4.467659 -0.199385
37.965813 -6.013194 -0.268360
27.842489 -4.534437 0.196941
28.360054 -4.618728 0.601885
27.964926 -4.679724 -0.593927
31.011879 -5.189609 -0.658639
38.012970 -6.361190 -0.807330
28.049278 -4.693840 -0.198547
37.990795 -6.357479 -0.268918
27.762438 -4.770459 0.196662
28.289108 -4.860958 0.601257
30.279495 -5.202969 0.643561
37.797638 -6.494822 0.803351
28.533470 -5.031220 -0.606911
31.359247 -5.529481 -0.667016
38.113548 -6.720447 -0.810681
28.194359 -4.971426 -0.199873
29.838947 -5.261412 -0.211532
31.109320 -5.485412 -0.220538
28.457764 -5.146002 0.201898
32.659515 -5.905802 0.231708
28.432539 -5.141440 0.605236
27.928146 -5.176176 -0.594974
27.717279 -5.137094 -0.196802
30.008209 -5.561693 -0.213068
28.028627 -5.321401 0.199175
32.744274 -6.216695 0.232685
28.091919 -5.333417 0.598953
37.914268 -7.198249 0.808377
27.832842 -5.410156 -0.593927
28.191647 -5.479901 -0.200502
29.772026 -5.787096 -0.211742
27.981123 -5.565791 0.199175
28.279644 -5.625171 0.603979
32.545124 -6.473628 0.695079
27.618019 -5.618949 -0.590367
27.868380 -5.669886 -0.198547
27.814005 -5.785321 0.198338
27.710699 -5.763834 0.592880
37.978634 -7.899567 0.812566
27.665728 -5.880532 -0.592461
27.651558 -5.877520 -0.197360
27.918812 -6.061769 0.199455
28.323717 -6.149682 0.607121
31.518562 -6.843350 0.675602
28.033072 -6.214782 -0.601466
29.083149 -6.447579 -0.207972
33.124916 -7.343617 -0.236874
38.269871 -8.484226 -0.273665
27.708799 -6.269861 0.198338
28.034943 -6.343660 0.602095
29.546391 -6.685666 0.634555
28.425882 -6.562632 -0.611100
32.137417 -7.419508 -0.690890
28.139122 -6.496428 -0.201619
28.246778 -6.651233 0.202596
28.075832 -6.610981 0.604189
28.095327 -6.745091 -0.605236
32.226994 -7.737017 -0.694241
27.653526 -6.639024 -0.198547
27.663149 -6.769129 0.198826
27.677177 -6.772563 0.596859
27.783175 -6.927124 -0.599791
30.295691 -7.553564 -0.654032
27.769186 -6.923636 -0.199804
28.155472 -7.150579 0.202806
27.849586 -7.072894 0.601885
27.789423 -7.186833 -0.601257
27.823885 -7.195746 -0.200641
29.314796 -7.581322 -0.211393
27.782553 -7.314536 0.200572
27.980171 -7.366564 0.606074
27.532505 -7.377313 -0.597068
27.653782 -7.409809 -0.199873
27.910618 -7.609308 0.201968
28.223486 -7.694605 0.612775
27.881350 -7.732183 -0.606074
27.848242 -7.723001 -0.201758
28.410986 -8.012727 0.206087
30.210733 -8.520308 0.219142
28.665253 -8.084437 0.623875
28.379833 -8.137786 -0.618430
28.135445 -8.067709 -0.204341
29.702263 -8.516987 -0.215721
28.551188 -8.321912 0.207623
28.507227 -8.309099 0.621990
28.537804 -8.453282 -0.623456
28.111910 -8.327127 -0.204691
28.008280 -8.429536 0.204202
30.009556 -9.031851 0.218793
28.021967 -8.433655 0.612985
28.759338 -8.792612 -0.629948
28.764946 -8.794327 -0.209996
28.506651 -8.851550 0.208391
30.158794 -9.364554 0.220468
28.090525 -8.722340 0.616126
30.086079 -9.341976 0.659896
28.919891 -9.118406 -0.635184
30.556347 -9.634379 -0.223680
38.796261 -12.232414 -0.283998
29.466408 -9.432272 0.216000
28.346605 -9.073820 0.623456
30.041498 -9.616359 0.660733
29.333658 -9.531083 -0.646074
38.975258 -12.663829 -0.858430
30.309433 -9.848131 -0.222493
29.468445 -9.717237 0.216629
32.336468 -10.662968 0.237712
29.519670 -9.734127 0.651100
31.931377 -10.529389 0.704294
38.606297 -12.730448 0.851519
29.657059 -9.923113 -0.655079
29.890432 -10.001199 -0.220049
32.005142 -10.708771 -0.235618
29.619253 -10.054381 0.218374
32.052803 -10.880461 0.236316
32.207497 -10.932972 0.712461
38.739883 -13.150418 0.856964
29.607147 -10.194558 -0.655917
31.270895 -10.767432 -0.692775
29.565645 -10.180268 -0.218304
32.184669 -11.082070 -0.237642
38.935505 -13.406569 -0.287488
29.568148 -10.325660 0.218653
29.779476 -10.399459 0.660733
32.007038 -11.177358 0.710157
30.534885 -10.812970 -0.678534
39.129890 -13.856621 -0.869529
29.862154 -10.574743 -0.221166
32.190422 -11.399226 -0.238410
29.702791 -10.664392 0.220329
32.243904 -11.576745 0.239178
32.199978 -11.560974 0.716650
29.424719 -10.709722 -0.655917
29.768736 -10.834934 -0.221166
29.505398 -10.885117 0.219561
32.141651 -11.857681 0.239178
30.006159 -11.069857 0.669948
32.491821 -11.986865 0.725445
29.779642 -11.134152 -0.665969
29.907215 -11.181849 -0.222912
31.068659 -11.616096 -0.231568
39.170677 -14.645316 -0.291956
29.521500 -11.184695 0.220398
32.993683 -12.500189 0.739058
38.967888 -14.763612 0.872880
27.095896 -10.401140 -0.607958
29.774685 -11.429430 -0.668063
39.332451 -15.098313 -0.882514
29.948530 -11.496163 -0.223959
29.814205 -11.594110 0.223331
31.855253 -12.387831 0.238619
29.444990 -11.450530 0.661780
27.218048 -10.721474 -0.612775
27.186138 -10.708905 -0.203992
29.419086 -11.588487 -0.220747
29.656166 -11.831611 0.222912
29.018932 -11.577380 0.654451
39.066448 -15.585933 0.881048
27.179068 -10.981056 -0.614032
29.941471 -12.097139 -0.676440
29.465185 -11.904707 -0.221864
29.357430 -12.010442 0.221446
30.323311 -12.405594 0.686283
27.387020 -11.344075 -0.620943
30.130341 -12.480396 -0.683142
29.849821 -12.364201 -0.225565
39.337833 -16.294264 -0.297262
29.731035 -12.467257 0.225076
39.257137 -16.461884 0.297192
29.752899 -12.476426 0.675812
31.320297 -13.133690 0.711414
39.129627 -16.408413 0.888796
30.047892 -12.754574 -0.683770
30.155005 -12.800040 -0.228706
30.493937 -13.101230 0.231708
31.899652 -13.705173 0.242389
39.205410 -16.843973 0.893822
30.008793 -13.048195 -0.685445
30.372290 -13.206247 -0.231219
30.781176 -13.544041 0.234780
32.465305 -14.285077 0.247625
30.262712 -13.315912 0.692566
31.909912 -14.040697 0.730262
39.230797 -17.261965 0.897802
29.921186 -13.321770 -0.686074
31.473873 -14.013071 -0.721676
29.844803 -13.287763 -0.228078
32.275589 -14.539093 0.247137
39.332455 -17.717979 0.301172
39.242748 -17.677568 0.901571
30.085819 -13.710897 -0.692566
31.805269 -14.494496 -0.732147
30.273674 -13.796508 -0.232267
31.693178 -14.443414 -0.243157
30.948765 -14.267576 0.237921
32.356354 -14.916483 0.248742
39.268578 -18.103062 0.905760
31.713816 -14.788395 -0.732985
39.778187 -18.548872 -0.919372
32.472218 -15.142043 -0.250139
39.595623 -18.463741 -0.305011
32.369659 -15.266523 0.249859
39.460415 -18.610741 0.304592
39.326126 -18.547405 0.910786
31.827202 -15.180797 -0.738639
39.741138 -18.955551 -0.922304
39.523247 -18.851622 -0.305709
39.476643 -19.041271 0.305989
39.378895 -18.994125 0.915812
39.798859 -19.411200 -0.927540
39.680790 -19.353615 -0.308223
39.604935 -19.530993 0.308292
39.462711 -19.460855 0.921676
30.734253 -15.323533 -0.719372
39.797951 -19.842525 -0.931519
39.680424 -19.783930 -0.309549
39.602650 -19.961380 0.309619
39.469940 -19.894487 0.925864
39.917248 -20.338852 -0.938430
39.809200 -20.283802 -0.311923
39.684757 -20.438993 0.311643
39.579250 -20.384653 0.932566
39.951073 -20.797213 -0.943456
39.799206 -20.718155 -0.313249
39.752674 -20.914894 0.313598
39.612206 -20.840990 0.937592
40.050545 -21.295254 -0.950158
39.934746 -21.233681 -0.315762
39.780056 -21.374596 0.315274
39.675423 -21.318375 0.943456
40.074059 -21.758438 -0.955184
39.950054 -21.691109 -0.317368
39.872562 -21.874836 0.317508
39.768368 -21.817675 0.950158
40.092518 -22.223646 -0.960210
40.012875 -22.179499 -0.319393
39.889545 -22.339218 0.319183
39.820709 -22.300667 0.956021
40.201614 -22.744980 -0.967540
40.052792 -22.660780 -0.321278
39.996944 -22.860138 0.321627
39.867626 -22.786226 0.961885
40.218056 -23.219906 -0.972775
40.070019 -23.134436 -0.323023
40.046436 -23.354393 0.323651
39.874538 -23.254143 0.966912
40.324017 -23.752661 -0.980315
40.245716 -23.706539 -0.326095
40.116116 -23.866579 0.325885
40.013779 -23.805696 0.975289
40.355156 -24.247824 -0.986179
40.208736 -24.159847 -0.327491
40.179878 -24.381748 0.328119
40.043839 -24.299196 0.981152
40.406281 -24.761000 -0.992671
40.235107 -24.656107 -0.329446
40.195171 -24.873526 0.330004
40.068310 -24.795023 0.987016
40.527809 -25.324585 -1.001048
40.391548 -25.239439 -0.332517
40.289490 -25.420776 0.332587
40.188629 -25.357136 0.995393
40.575096 -25.849186 -1.007749
40.473370 -25.784380 -0.335031
40.368889 -25.966143 0.335101
40.260117 -25.896177 1.002723
40.591137 -26.360193 -1.013823
40.515186 -26.310871 -0.337265
40.441814 -26.514814 0.337614
40.333595 -26.443865 1.010262
40.718052 -26.950691 -1.022828
40.575893 -26.856600 -0.339708
40.499897 -27.061167 0.340057
40.375622 -26.978128 1.017173
40.812859 -27.528620 -1.031205
40.713043 -27.461294 -0.342850
40.568035 -27.621792 0.342640
40.427902 -27.526379 1.024503
40.867695 -28.087587 -1.038744
40.768528 -28.019434 -0.345363
40.645882 -28.197052 0.345363
40.514740 -28.106075 1.032880
40.915859 -28.649593 -1.046283
40.841927 -28.597824 -0.348086
40.733089 -28.787300 0.348225
40.561855 -28.666285 1.040419
41.022423 -29.261009 -1.055498
40.883884 -29.162191 -0.350599
40.829292 -29.392885 0.351227
40.634712 -29.252806 1.048796
41.089050 -29.852942 -1.063875
40.983803 -29.776476 -0.353671
40.861553 -29.960930 0.353740
40.708458 -29.848677 1.057383
41.148445 -30.448248 -1.072252
41.011776 -30.347118 -0.356184
40.951084 -30.579624 0.356812
40.758854 -30.436079 1.065550
41.264431 -31.094978 -1.082304
41.128727 -30.992718 -0.359535
41.032902 -31.202145 0.359884
40.873695 -31.081081 1.075603
41.308781 -31.697342 -1.090681
41.174034 -31.593948 -0.362327
41.083229 -31.810034 0.362746
40.948738 -31.705900 1.084817
41.377247 -32.327450 -1.099896
41.274998 -32.247562 -0.365678
41.141750 -32.433540 0.365748
41.015961 -32.334373 1.094032
41.469135 -32.986038 -1.109948
41.273746 -32.830624 -0.368192
41.200294 -33.066730 0.368820
41.036320 -32.935127 1.102200
41.490494 -33.598339 -1.118325
41.389786 -33.516788 -0.371822
41.281864 -33.728699 0.372171
41.118973 -33.595612 1.112252
41.596874 -34.289814 -1.129215
41.466095 -34.182011 -0.375173
41.385746 -34.420162 0.375801
41.223946 -34.285591 1.123142
41.686653 -34.979256 -1.139896
41.595200 -34.902515 -0.379082
41.450146 -35.090137 0.379152
41.327606 -34.986401 1.134241
41.775143 -35.679344 -1.150786
41.616005 -35.543427 -0.382084
41.589306 -35.835636 0.383271
41.376698 -35.652443 1.144084
30.204399 -26.256283 -0.838325
41.779106 -36.318020 -1.159582
41.666500 -36.220135 -0.385435
41.462387 -36.361538 1.155184
41.977249 -37.138332 -1.174032
29.875116 -26.431269 -0.278482
41.693348 -36.887157 -0.388647
29.923632 -26.707863 0.280018
30.081896 -26.849117 0.844608
42.015625 -37.831036 -1.184294
29.613600 -26.664206 -0.278203
41.890053 -37.717972 -0.393534
29.689426 -26.967976 0.280018
29.580030 -26.868607 0.837068
41.986107 -38.473179 -1.192880
41.846844 -38.345566 -0.396256
29.254696 -27.042763 0.278133
29.307726 -27.091784 0.836021
29.268063 -27.292910 -0.279390
41.825100 -39.002537 -0.399258
28.930189 -27.214806 0.277296
29.077475 -27.353357 0.836231
37.703941 -35.779705 -1.088796
28.992508 -27.512861 -0.279041
28.698820 -27.473145 0.277365
28.895443 -27.661369 0.837906
37.268013 -35.989304 -1.085236
28.880789 -27.889854 -0.280298
28.508123 -27.771383 0.277854
28.738894 -27.996189 0.840419
31.132624 -30.593945 -0.304732
36.431946 -35.801571 -0.356603
28.740501 -28.490782 0.282532
28.706497 -28.457073 0.846702
30.609907 -30.609907 -0.302219
35.870651 -35.870651 -0.354159
28.518942 -28.768908 0.282811
28.625999 -28.876905 0.851728
29.284575 -29.800200 -0.875184
29.276266 -29.791746 -0.291607
31.449032 -32.002769 -0.313249
38.028652 -39.037506 0.380479
37.993336 -39.001247 1.140524
32.218136 -33.362854 -0.971519
37.409565 -39.078541 1.133194
31.905119 -33.620979 -0.970891
38.429901 -40.496666 -0.389764
36.800282 -39.119850 0.374963
32.087803 -34.409958 -0.985550
31.350700 -33.619511 -0.320929
36.240288 -39.204525 0.372729
31.894373 -34.806599 -0.988901
31.022346 -33.854950 -0.320579
31.743284 -35.254490 -0.993718
35.523277 -39.452599 -0.370635
35.090923 -39.316059 1.103875
31.871658 -36.024357 -1.007540
34.846340 -39.386623 -0.367144
34.383217 -39.553364 -0.365888
33.949116 -39.399887 1.089425
25.955568 -30.659954 0.841466
33.410202 -39.465725 1.083142
32.879135 -39.532864 1.077069
0.134374 -0.186657 0.001606
0.157713 -0.219077 0.005654
0.170995 -0.246488 0.002094
0.136769 -0.197152 0.005026
0.146297 -0.214866 0.005445
0.155556 -0.232806 0.001955
0.166635 -0.249386 0.006283
0.148007 -0.225748 0.005654
0.113602 -0.176614 0.001466
0.118988 -0.184988 0.004607
0.128064 -0.202970 0.001676
0.117369 -0.186019 0.004607
0.126288 -0.204080 0.001676
0.136786 -0.221043 0.005445
0.160816 -0.265016 0.002164
0.134851 -0.222228 0.005445
0.138046 -0.232034 0.001885
0.127795 -0.214804 0.005236
0.115843 -0.198639 0.004817