# This PCD file was generated using the MATLAB® pcwrite function
# from Computer Vision System Toolbox®.
# .PCD v.7 - Point Cloud Data file format
VERSION .7
FIELDS x y z
SIZE 4 4 4
TYPE F F F
COUNT 1 1 1
WIDTH 774
HEIGHT 1
VIEWPOINT 0 0 0 1 0 0 0
POINTS 774
DATA ascii
7.018292 8.073622 -0.224084
7.039342 8.097836 -0.074909
6.983845 7.893801 -0.073582
6.964122 7.734441 -0.218011
6.978862 7.750812 -0.072815
6.950299 7.584920 -0.215497
6.958410 7.593771 -0.071907
6.988950 7.494731 -0.214660
6.976673 7.481566 -0.071418
6.978384 7.353683 -0.212356
6.979745 7.355117 -0.070790
7.007566 7.256547 -0.211309
6.995039 7.243575 -0.070301
7.014563 7.138071 -0.209634
7.022940 7.146595 -0.069952
6.963474 6.963474 -0.206283
7.007257 7.007257 -0.069184
6.995452 6.874412 -0.205445
6.975420 6.854725 -0.068277
7.026409 6.785324 -0.204607
7.042165 6.800539 -0.068347
6.998328 6.641165 -0.202094
7.050467 6.690643 -0.067858
6.997520 6.525293 -0.200419
7.006198 6.533385 -0.066880
7.002599 6.416699 -0.198953
7.033454 6.444973 -0.066601
7.013749 6.315207 -0.197696
7.000254 6.303057 -0.065763
6.986224 6.180889 -0.195393
7.040012 6.228477 -0.065624
7.002169 6.086893 -0.194346
7.018628 6.101200 -0.064926
7.039815 6.012570 -0.193927
7.048791 6.020236 -0.064716
6.984793 5.860937 -0.190995
7.024457 5.894219 -0.064018
7.012529 5.780683 -0.190367
7.060193 5.819974 -0.063879
6.992780 5.662642 -0.188482
7.025229 5.688918 -0.063111
6.963685 5.539165 -0.186388
7.035476 5.596270 -0.062762
6.996001 5.465875 -0.185969
7.036765 5.497723 -0.062343
7.019637 5.386357 -0.185340
7.036873 5.399582 -0.061924
7.026451 5.294811 -0.184293
7.027821 5.295843 -0.061435
7.016131 5.191664 -0.182827
7.073768 5.234313 -0.061435
6.988374 5.077351 -0.180943
6.973557 5.066586 -0.060178
7.007998 4.998756 -0.180314
7.041928 5.022958 -0.060388
7.010404 4.908738 -0.179267
7.060918 4.944108 -0.060178
7.024910 4.873353 0.059690
6.990682 4.849608 0.178220
7.036494 4.836049 -0.178848
7.087313 4.870975 -0.060039
7.042373 4.794981 0.059480
7.024472 4.782793 0.178011
7.028697 4.740916 -0.177592
7.030067 4.741840 -0.059201
6.992489 4.672232 0.058712
7.024377 4.693539 0.176963
6.978094 4.618700 -0.175288
6.996131 4.630639 -0.058573
7.024632 4.605551 0.058643
7.014902 4.599171 0.175707
7.001363 4.546739 -0.174869
7.011115 4.553071 -0.058363
6.997274 4.500798 0.058084
6.979093 4.489103 0.173822
7.023910 4.474724 -0.174450
7.050581 4.491715 -0.058363
7.002456 4.418221 0.057805
7.001091 4.417359 0.173403
7.020298 4.386769 -0.173403
7.030148 4.392924 -0.057875
7.015235 4.341159 0.057595
7.022369 4.345574 0.172984
7.024214 4.304444 -0.172566
7.093793 4.347082 -0.058084
7.044302 4.274588 0.057526
7.008740 4.253008 0.171728
7.061510 4.242983 -0.172566
7.062886 4.243810 -0.057526
7.021179 4.177163 0.057037
7.036995 4.186572 0.171518
7.037966 4.145679 -0.171100
7.056571 4.156638 -0.057177
7.022811 4.095582 0.056758
7.021442 4.094784 0.170262
7.021925 4.054111 -0.169843
7.031955 4.059901 -0.056688
7.032239 4.019256 0.056548
7.039548 4.023433 0.169843
6.978722 3.948371 -0.167958
7.067116 3.998382 -0.056688
7.023422 3.933305 0.056199
7.022052 3.932538 0.168586
7.056633 3.911556 -0.169005
7.066755 3.917166 -0.056409
7.022410 3.852626 0.055920
6.994745 3.837449 0.167121
7.028995 3.816433 -0.167539
7.056729 3.831491 -0.056060
7.055763 3.791198 0.055920
7.054387 3.790459 0.167749
7.053204 3.750255 -0.167330
7.063408 3.755681 -0.055850
7.062029 3.715513 0.055710
7.025261 3.696168 0.166283
7.023585 3.656247 -0.165864
7.087044 3.689281 -0.055780
7.049734 3.630852 0.055361
7.057248 3.634722 0.166283
7.010684 3.572122 -0.164817
7.020960 3.577358 -0.055012
7.081151 3.569194 0.055361
7.061914 3.559498 0.165655
7.014747 3.497424 -0.164189
7.025064 3.502568 -0.054803
7.076153 3.489573 0.055082
7.038907 3.471205 0.164398
7.045000 3.436076 -0.164189
7.046373 3.436746 -0.054733
7.079316 3.414656 0.054873
7.077936 3.413991 0.164607
7.074717 3.374467 -0.164189
7.112199 3.392345 -0.055012
7.063622 3.331421 0.054524
7.062245 3.330771 0.163560
7.031406 3.278798 -0.162513
7.032777 3.279438 -0.054175
7.056100 3.252907 0.054244
7.054725 3.252273 0.162723
7.059751 3.217314 -0.162513
7.097525 3.234529 -0.054454
7.084219 3.191208 0.054244
7.046375 3.174160 0.161885
7.041891 3.135252 -0.161466
7.061534 3.143998 -0.053965
7.084338 3.117183 0.054035
7.082957 3.116576 0.162094
7.041477 3.061721 -0.160838
7.070361 3.074281 -0.053826
7.065332 3.035506 0.053686
7.027211 3.019128 0.160210
7.049521 2.992344 -0.160419
7.032485 2.985113 -0.053337
7.054666 2.958267 0.053407
7.062510 2.961556 0.160419
7.056891 2.923060 -0.160000
7.085983 2.935110 -0.053546
7.117233 2.911737 0.053686
7.078832 2.896027 0.160210
7.035782 2.842640 -0.158953
7.046425 2.846941 -0.053058
7.030917 2.805051 0.052848
7.075976 2.823028 0.159581
6.995205 2.755485 -0.157487
7.043089 2.774347 -0.052848
7.092407 2.758086 0.053127
7.053752 2.743054 0.158534
7.046987 2.705085 -0.158115
7.057696 2.709196 -0.052778
7.041397 2.667747 0.052569
7.040024 2.667226 0.157696
7.042230 2.632982 -0.157487
7.052970 2.636997 -0.052569
7.064409 2.606198 0.052569
7.063031 2.605690 0.157696
7.055544 2.568008 -0.157278
7.103903 2.585609 -0.052778
7.049237 2.530935 0.052290
7.047863 2.530441 0.156859
7.049412 2.496328 -0.156649
7.097918 2.513505 -0.052569
7.071054 2.469323 0.052290
7.031920 2.455657 0.156021
7.070928 2.434716 -0.156649
7.072307 2.435190 -0.052220
7.092334 2.407523 0.052290
7.081484 2.403840 0.156649
7.053981 2.360229 -0.155812
7.083805 2.370208 -0.052150
7.075086 2.333014 0.052010
7.083202 2.335690 0.156230
7.026766 2.283135 -0.154764
7.037647 2.286670 -0.051661
7.057081 2.258989 0.051731
7.093792 2.270741 0.156021
7.055958 2.224735 -0.154974
7.105018 2.240204 -0.052010
7.076525 2.197320 0.051731
7.075146 2.196891 0.155183
7.094225 2.168922 -0.155393
7.114734 2.175192 -0.051941
7.095431 2.135482 0.051731
7.094048 2.135066 0.155183
7.055366 2.089895 -0.154136
7.143033 2.115863 -0.052010
7.075395 2.062289 0.051452
7.083614 2.064685 0.154555
7.063724 2.025490 -0.153927
7.074714 2.028641 -0.051382
7.083498 1.997753 0.051382
7.091739 2.000077 0.154346
6.936618 1.923694 -0.150785
7.043967 1.953465 -0.051033
7.110309 1.938493 0.051452
7.070340 1.927596 0.153508
6.991769 1.873439 -0.151623
6.896543 1.847923 -0.049846
7.088274 1.866187 0.051173
7.077224 1.863278 0.153299
7.046569 1.822367 -0.152461
7.047943 1.822722 -0.050824
7.065521 1.794414 0.050893
7.073834 1.796525 0.152880
7.023400 1.751130 -0.151623
7.102392 1.770825 -0.051103
7.080911 1.732688 0.050893
7.079531 1.732350 0.152670
7.077301 1.699110 -0.152461
7.068957 1.697106 -0.050754
7.056828 1.661662 0.050614
7.055452 1.661338 0.151833
7.043150 1.626039 -0.151414
7.054267 1.628606 -0.050544
7.032047 1.591190 0.050335
7.059930 1.597499 0.151623
7.027790 1.558023 -0.150785
7.058448 1.564820 -0.050475
7.084753 1.538251 0.050614
7.044291 1.529466 0.150995
7.021560 1.492478 -0.150367
7.081616 1.505244 -0.050544
7.058746 1.468221 0.050335
7.086735 1.474043 0.151623
7.073505 1.439121 -0.151204
7.123879 1.449370 -0.050754
7.071290 1.406567 0.050335
7.030688 1.398491 0.150157
7.046537 1.369708 -0.150367
7.067544 1.373791 -0.050265
7.083295 1.344805 0.050335
7.081914 1.344543 0.150995
7.058222 1.308164 -0.150367
7.069430 1.310241 -0.050195
7.055400 1.275824 0.050056
7.054024 1.275575 0.150157
7.069369 1.246521 -0.150367
7.011660 1.236345 -0.049707
7.066265 1.214206 0.050056
7.074740 1.215663 0.150367
7.040535 1.178181 -0.149529
7.110946 1.189964 -0.050335
7.076591 1.152496 0.050056
7.035741 1.145843 0.149319
7.060423 1.118261 -0.149738
7.071676 1.120044 -0.049986
7.056729 1.086135 0.049846
6.996065 1.076797 0.148272
7.000697 1.046261 -0.148272
7.091071 1.059768 -0.050056
7.095627 1.028817 0.050056
7.054667 1.022878 0.149319
6.999660 0.983738 -0.148063
6.971317 0.979755 -0.049148
7.054793 0.960115 0.049707
7.093044 0.965321 0.149948
7.037714 0.926533 -0.148691
7.148143 0.941071 -0.050335
7.112502 0.904825 0.050056
7.081362 0.900863 0.149529
7.045532 0.865083 -0.148691
7.066756 0.867689 -0.049707
7.070475 0.836846 0.049707
7.029383 0.831982 0.148272
7.032946 0.801303 -0.148272
7.123736 0.811647 -0.050056
7.127210 0.780556 0.050056
7.096005 0.777139 0.149529
7.059557 0.741989 -0.148691
7.080823 0.744225 -0.049707
7.054155 0.710316 0.049497
7.042832 0.709176 0.148272
6.946342 0.668857 -0.146178
7.097002 0.683364 -0.049776
7.139747 0.656051 0.050056
7.108488 0.653178 0.149529
7.071431 0.618670 -0.148691
7.092733 0.620534 -0.049707
7.095374 0.589580 0.049707
7.054136 0.586154 0.148272
6.937023 0.545956 -0.145759
7.067972 0.556261 -0.049497
7.070332 0.525416 0.049497
7.078923 0.526055 0.148691
7.081151 0.495162 -0.148691
6.992754 0.488981 -0.048939
7.074647 0.463697 0.049497
7.063292 0.462953 0.148272
7.025328 0.429687 -0.147435
7.076603 0.432824 -0.049497
7.068441 0.401375 0.049427
7.087026 0.402431 0.148691
7.088715 0.371504 -0.148691
7.070125 0.370530 -0.049427
7.081663 0.340157 0.049497
7.070296 0.339611 0.148272
7.051733 0.307885 -0.147853
7.123040 0.310999 -0.049776
7.124330 0.279916 0.049776
7.132931 0.280254 0.149529
7.064144 0.246685 -0.148063
6.975578 0.243593 -0.048729
7.076525 0.216207 0.049427
7.045166 0.215249 0.147644
7.076022 0.185292 -0.148272
7.167368 0.187684 -0.050056
7.128129 0.155536 0.049776
7.086758 0.154634 0.148482
7.037384 0.122838 -0.147435
7.078749 0.123560 -0.049427
7.119216 0.093196 0.049707
7.077841 0.092654 0.148272
7.058183 0.061596 -0.147853
7.079558 0.061782 -0.049427
7.129758 0.031110 0.049776
7.138366 0.031147 0.149529
7.018460 0.000000 -0.147016
7.039828 0.000000 -0.049148
7.089760 -0.030935 0.049497
7.078380 -0.030885 0.148272
7.058183 -0.061596 -0.147853
7.069559 -0.061695 -0.049358
7.129215 -0.093327 0.049776
7.097835 -0.092916 0.148691
7.097362 -0.123885 -0.148691
7.078749 -0.123560 -0.049427
7.088140 -0.154664 0.049497
7.076763 -0.154416 0.148272
7.036044 -0.184245 -0.147435
7.067405 -0.185067 -0.049358
7.166481 -0.218956 0.050056
7.135105 -0.217997 0.149529
7.094119 -0.247732 -0.148691
7.005559 -0.244640 -0.048939
7.084361 -0.278345 0.049497
7.072990 -0.277899 0.148272
6.991804 -0.305269 -0.146597
7.033128 -0.307073 -0.049148
7.161569 -0.343995 0.050056
7.130213 -0.342489 0.149529
7.018826 -0.367841 -0.147225
7.030180 -0.368436 -0.049148
7.108376 -0.403643 0.049707
7.077044 -0.401864 0.148482
7.125120 -0.435791 -0.149529
7.196376 -0.440149 -0.050335
7.154474 -0.468929 0.050056
7.123150 -0.466876 0.149529
7.081151 -0.495162 -0.148691
7.062582 -0.493864 -0.049427
7.100248 -0.527640 0.049707
7.068953 -0.525314 0.148482
7.106462 -0.559291 -0.149319
7.187599 -0.565676 -0.050335
7.145201 -0.593720 0.050056
7.113917 -0.591121 0.149529
7.071431 -0.618670 -0.148691
7.092733 -0.620534 -0.049707
7.089958 -0.651476 0.049707
7.098532 -0.652263 0.149319
7.045859 -0.678439 -0.148272
7.136817 -0.687197 -0.050056
7.133750 -0.718331 0.050056
7.102517 -0.715186 0.149529
7.109272 -0.747215 -0.149738
7.050988 -0.741089 -0.049497
7.077508 -0.775113 0.049707
7.096005 -0.777139 0.149529
7.092547 -0.808094 -0.149529
7.163478 -0.816175 -0.050335
7.120127 -0.842723 0.050056
7.128668 -0.843733 0.150367
7.015762 -0.861427 -0.148063
7.027056 -0.862814 -0.049427
7.112502 -0.904825 0.050056
7.150787 -0.909695 0.150995
7.097188 -0.934363 -0.149948
7.148143 -0.941071 -0.050335
7.143969 -0.972252 0.050335
7.102951 -0.966669 0.150157
7.108565 -0.999044 -0.150367
7.020830 -0.986713 -0.049497
7.095627 -1.028817 0.050056
7.104138 -1.030051 0.150367
7.099576 -1.061039 -0.150367
7.130630 -1.065680 -0.050335
7.125913 -1.096783 0.050335
7.084998 -1.090485 0.150157
7.090047 -1.122953 -0.150367
7.111183 -1.126301 -0.050265
7.116070 -1.158926 0.050335
7.114683 -1.158700 0.150995
7.119421 -1.191382 -0.151204
7.189847 -1.203168 -0.050893
7.105686 -1.220980 0.050335
7.104301 -1.220742 0.150995
7.069369 -1.246521 -0.150367
7.129834 -1.257182 -0.050544
7.134121 -1.290059 0.050614
7.132730 -1.289808 0.151833
7.156526 -1.326384 -0.152461
7.148089 -1.324820 -0.050754
7.161889 -1.359727 0.050893
7.121203 -1.352003 0.151833
7.105422 -1.381154 -0.151623
7.146072 -1.389056 -0.050824
7.149750 -1.422174 0.050893
7.138551 -1.419946 0.152461
7.151882 -1.455067 -0.152880
7.143477 -1.453357 -0.050893
7.137068 -1.484512 0.050893
7.135676 -1.484223 0.152670
7.109573 -1.511186 -0.152251
7.159866 -1.521876 -0.051103
7.162930 -1.555224 0.051173
7.171303 -1.557043 0.153717
7.125398 -1.579663 -0.152880
7.156075 -1.586464 -0.051173
7.149085 -1.617673 0.051173
7.196448 -1.628390 0.154555
7.121083 -1.644032 -0.153089
7.132215 -1.646602 -0.051103
7.134696 -1.679998 0.051173
7.172232 -1.688836 0.154346
7.096744 -1.703777 -0.152880
7.185638 -1.725119 -0.051592
7.158617 -1.751702 0.051452
7.166932 -1.753737 0.154555
7.168913 -1.787411 -0.154764
7.180013 -1.790178 -0.051661
7.143058 -1.814106 0.051452
7.151355 -1.816213 0.154555
7.133683 -1.844896 -0.154346
7.193161 -1.860278 -0.051871
7.165636 -1.886554 0.051731
7.173907 -1.888732 0.155393
7.088341 -1.899315 -0.153717
7.118700 -1.907450 -0.051452
7.187490 -1.959535 0.052010
7.186089 -1.959153 0.156021
7.100399 -1.969115 -0.154346
7.198144 -1.996222 -0.052150
7.170117 -2.022182 0.052010
7.130229 -2.010933 0.155183
7.130998 -2.044781 -0.155393
7.122776 -2.042423 -0.051731
7.190598 -2.095868 0.052290
7.179598 -2.092662 0.156649
7.141640 -2.115450 -0.156021
7.181385 -2.127223 -0.052290
7.172035 -2.158537 0.052290
7.141916 -2.149473 0.156230
7.180274 -2.195230 -0.157278
7.095608 -2.169345 -0.051801
7.181575 -2.229938 0.052499
7.151531 -2.220609 0.156859
7.075028 -2.230748 -0.155393
7.133629 -2.249225 -0.052220
7.171366 -2.295572 0.052569
7.169968 -2.295125 0.157696
7.169394 -2.329477 -0.157906
7.189812 -2.336112 -0.052778
7.189047 -2.370592 0.052848
7.149666 -2.357606 0.157696
7.129830 -2.385608 -0.157487
7.169152 -2.398765 -0.052778
7.205963 -2.446095 0.053127
7.204558 -2.445618 0.159372
6.995303 -2.408676 -0.154974
7.147946 -2.461235 -0.052778
7.174901 -2.505588 0.053058
7.220697 -2.521580 0.160210
7.124807 -2.523026 -0.158325
7.229884 -2.560236 -0.053546
7.199821 -2.585000 0.053407
7.160779 -2.570982 0.159372
7.121308 -2.591944 -0.158744
7.141490 -2.599290 -0.053058
7.176989 -2.647731 0.053407
7.213109 -2.661057 0.161047
7.098418 -2.653990 -0.158744
7.146635 -2.672017 -0.053267
7.191014 -2.724432 0.053686
7.152215 -2.709732 0.160210
7.149658 -2.744496 -0.160419
7.132380 -2.737864 -0.053337
7.166966 -2.787081 0.053686
7.137615 -2.775666 0.160419
7.162644 -2.821440 -0.161257
7.210560 -2.840315 -0.054105
7.142371 -2.849517 0.053686
7.140979 -2.848962 0.161047
7.109941 -2.872602 -0.160628
7.157685 -2.891892 -0.053895
7.191275 -2.942028 0.054244
7.189873 -2.941454 0.162723
7.130786 -2.953668 -0.161675
7.159892 -2.965724 -0.054105
7.165327 -3.004671 0.054244
7.163930 -3.004085 0.162723
7.123145 -3.023596 -0.162094
7.142943 -3.032000 -0.054175
7.212335 -3.098664 0.054803
7.229301 -3.105953 0.164817
7.133162 -3.101587 -0.162932
7.226257 -3.142066 -0.055012
7.221632 -3.177594 0.055082
7.192770 -3.164895 0.164607
7.178893 -3.196249 -0.164607
7.198563 -3.205007 -0.055012
7.193627 -3.240493 0.055082
7.192225 -3.239861 0.165236
7.168922 -3.267066 -0.165026
7.215817 -3.288437 -0.055361
7.201400 -3.319891 0.055361
7.199996 -3.319244 0.166073
7.158261 -3.337952 -0.165445
7.214034 -3.363959 -0.055571
7.208332 -3.399670 0.055641
7.170756 -3.381948 0.166073
7.164956 -3.417508 -0.166283
7.211481 -3.439700 -0.055780
7.178390 -3.462444 0.055641
7.185996 -3.466113 0.167121
7.206748 -3.514966 -0.167958
7.226128 -3.524418 -0.056129
7.219650 -3.560337 0.056199
7.182375 -3.541955 0.167749
7.140010 -3.559878 -0.167121
7.168250 -3.573957 -0.055920
7.188305 -3.623204 0.056199
7.195832 -3.626998 0.168796
7.153213 -3.644744 -0.168168
7.199157 -3.668154 -0.056409
7.183084 -3.699531 0.056409
7.181683 -3.698810 0.169215
7.183212 -3.739343 -0.169634
7.246702 -3.772394 -0.057037
7.194774 -3.785354 0.056758
7.193371 -3.784616 0.170262
7.159134 -3.806579 -0.169843
7.169360 -3.812016 -0.056688
7.196702 -3.866927 0.057037
7.195299 -3.866174 0.171100
7.152002 -3.883220 -0.170471
7.197337 -3.907835 -0.057177
7.197751 -3.948822 0.057316
7.170052 -3.933625 0.171309
7.161564 -3.969720 -0.171518
7.206691 -3.994734 -0.057526
7.189192 -4.026141 0.057526
7.196513 -4.030241 0.172775
7.170158 -4.056680 -0.172566
7.267293 -4.111637 -0.058294
7.197193 -4.113534 0.057875
7.195790 -4.112732 0.173613
7.221068 -4.169086 -0.174660
7.239796 -4.179898 -0.058363
7.186936 -4.191298 0.058084
7.194171 -4.195517 0.174450
7.167182 -4.221793 -0.174241
7.177196 -4.227692 -0.058154
7.193057 -4.279419 0.058433
7.200246 -4.283696 0.175497
7.181487 -4.315073 -0.175497
7.234316 -4.346816 -0.058922
7.223829 -4.383527 0.058992
7.213874 -4.377486 0.176754
7.160606 -4.388025 -0.175916
7.170529 -4.394106 -0.058712
7.185301 -4.446399 0.058992
7.217907 -4.466577 0.177801
7.215306 -4.508624 -0.178220
7.191273 -4.493606 -0.059201
7.213882 -4.551621 0.059550
7.178655 -4.529394 0.177801
7.167255 -4.566045 -0.178011
7.252990 -4.620664 -0.060039
7.207529 -4.636038 0.059829
7.214532 -4.640543 0.179686
7.202600 -4.677423 -0.179895
7.178845 -4.661996 -0.059760
7.158435 -4.693275 0.059760
7.198844 -4.719769 0.180314
7.219867 -4.778726 -0.181361
7.246291 -4.796216 -0.060667
7.192037 -4.805565 0.060388
7.190635 -4.804628 0.181152
7.194468 -4.852730 -0.181780
7.204161 -4.859268 -0.060667
7.249015 -4.935679 0.061226
7.214546 -4.912210 0.182827
7.184804 -4.937979 -0.182618
7.243893 -4.978590 -0.061365
7.205668 -4.998750 0.061226
7.204263 -4.997775 0.183665
7.166008 -5.017693 -0.183246
7.175597 -5.024407 -0.061156
7.227102 -5.107610 0.061784
7.225693 -5.106615 0.185340
7.227760 -5.155511 -0.185969
7.237310 -5.162323 -0.062063
7.214717 -5.193853 0.062063
7.188969 -5.175317 0.185550
7.214849 -5.241895 -0.186806
7.216256 -5.242917 -0.062273
7.201375 -5.280266 0.062343
7.191908 -5.273325 0.186806
7.200978 -5.328444 -0.187644
7.210420 -5.335430 -0.062622
7.219121 -5.390773 0.062901
7.217713 -5.389722 0.188691
7.210097 -5.433198 -0.189110
7.187544 -5.416203 -0.062831
7.211602 -5.483830 0.063250
7.210196 -5.482761 0.189738
7.170341 -5.501997 -0.189319
7.195539 -5.521332 -0.063320
7.218820 -5.589407 0.063739
7.185792 -5.563835 0.190367
7.216596 -5.638222 -0.191833
7.249522 -5.663948 -0.064228
7.264005 -5.726480 0.064577
7.231183 -5.700605 0.192880
7.198416 -5.725879 -0.192670
7.254601 -5.770570 -0.064716
7.213756 -5.789651 0.064577
7.181161 -5.763491 0.192880
7.210333 -5.838812 -0.194346
7.211739 -5.839951 -0.064786
7.224907 -5.902997 0.065135
7.223499 -5.901846 0.195393
7.220822 -5.952386 -0.196021
7.245378 -5.972629 -0.065554
7.234625 -6.016974 0.065694
7.210155 -5.996623 0.196440
7.229874 -6.066584 -0.197696
7.231283 -6.067767 -0.065903
7.242899 -6.131567 0.066252
7.210965 -6.104533 0.197906
7.245080 -6.187882 -0.199581
7.292116 -6.228055 -0.066950
7.249720 -6.246758 0.066811
7.218011 -6.219436 0.199581
7.205896 -6.263989 -0.200000
7.184660 -6.245530 -0.066462
7.194932 -6.309786 0.066811
7.201046 -6.315147 0.200628
7.248302 -6.412755 -0.202723
7.272183 -6.433884 -0.067788
7.229120 -6.452236 0.067648
7.197875 -6.424349 0.202094
7.221784 -6.502523 -0.203560
7.252917 -6.530556 -0.068137
7.202147 -6.541970 0.067928
7.230345 -6.567583 0.204607
7.231104 -6.626086 -0.205445
7.276750 -6.667913 -0.068905
7.262273 -6.713176 0.069045
7.202124 -6.657575 0.205445
7.253438 -6.763940 -0.207749
7.254852 -6.765259 -0.069254
7.232547 -6.803701 0.069324
7.231137 -6.802375 0.207958
7.194136 -6.826980 -0.207749
7.275328 -6.904028 -0.070022
7.288475 -6.977197 0.070441
7.229278 -6.920527 0.209634
7.249355 -7.000621 -0.211100
7.221996 -6.974200 -0.070092
7.227311 -7.040534 0.070441
7.204417 -7.018232 0.210681
7.245035 -7.119676 -0.212775
7.303507 -7.177136 -0.071488
7.250816 -7.187815 0.071279
7.221001 -7.158259 0.212984
7.239185 -7.239185 -0.214450
7.240597 -7.240597 -0.071488
7.244135 -7.307630 0.071837
7.221607 -7.284904 0.214869
7.210774 -7.337738 -0.215497
7.233207 -7.360565 -0.072047
7.235911 -7.427870 0.072396
7.234500 -7.426422 0.217173
7.250643 -7.508260 -0.218639
7.231217 -7.488145 -0.072675
7.233050 -7.555743 0.073024
7.231640 -7.554270 0.219058
7.246784 -7.636517 -0.220524
7.268847 -7.659767 -0.073722
7.242208 -7.698694 0.073792
7.213395 -7.668064 0.220524
7.254871 -7.779897 -0.222827
7.235826 -7.759474 -0.074071
7.229052 -7.820344 0.074350
7.227643 -7.818820 0.223037
7.274511 -7.938735 -0.225550
7.269174 -7.932911 -0.075118
7.268108 -8.001563 0.075467
7.239802 -7.970401 0.225550
7.251785 -8.053924 -0.227016
7.259890 -8.062925 -0.075747
7.231298 -8.101986 0.075816
7.209917 -8.078030 0.226806
7.247474 -8.191778 -0.229110
7.288643 -8.238312 -0.076794
7.259221 -8.277555 0.076864
7.224845 -8.238358 0.229529
7.247862 -8.337712 -0.231414
7.255836 -8.346885 -0.077213
7.245457 -8.408767 0.077492
7.224466 -8.384405 0.231833
7.233264 -8.469065 -0.233299
7.234675 -8.470716 -0.077771
7.236412 -8.547996 0.078190
7.209162 -8.515806 0.233717
7.204069 -8.585475 -0.234765
7.224757 -8.610129 -0.078469
7.219090 -8.680013 0.078818
7.230469 -8.693694 0.236859
7.237973 -8.858836 0.079866
7.242887 -8.864851 0.239791
7.241758 -9.023044 0.080773
7.246604 -9.029081 0.242513
7.206078 -9.140866 0.081262
7.217052 -9.154787 0.244189
7.223988 -9.329909 0.082379
7.259305 -9.375522 0.248377
7.214929 -9.488112 0.083217
7.231677 -9.510138 0.250262
7.251517 -9.710959 0.084613
7.232158 -9.685034 0.253194
7.230131 -9.860655 0.256126
0.146059 -0.202889 0.001745
7.238677 -10.055157 0.086498
0.157713 -0.219077 0.005654
7.225584 -10.036968 0.259058
0.193794 -0.279353 0.002374
0.159564 -0.230011 0.005864
0.151924 -0.223130 0.005654
0.155556 -0.232806 0.001955
0.138862 -0.207822 0.005236
0.109656 -0.167253 0.001396
0.126080 -0.192304 0.004817
0.129831 -0.201844 0.001676
0.118988 -0.184988 0.004607
0.128064 -0.202970 0.001676
0.138709 -0.219841 0.005445
0.147336 -0.238093 0.001955
0.136786 -0.221043 0.005445
0.140065 -0.230821 0.001885
0.140038 -0.230776 0.005654
0.117595 -0.197659 0.001606
0.102236 -0.171844 0.004188
0.115843 -0.198639 0.004817