# This PCD file was generated using the MATLAB® pcwrite function
# from Computer Vision System Toolbox®.
# .PCD v.7 - Point Cloud Data file format
VERSION .7
FIELDS x y z
SIZE 4 4 4
TYPE F F F
COUNT 1 1 1
WIDTH 753
HEIGHT 1
VIEWPOINT 0 0 0 1 0 0 0
POINTS 753
DATA ascii
30.533188 32.742836 -0.937802
30.521830 32.163300 -0.928796
30.624149 32.271118 -0.310596
30.523540 31.608051 -0.920419
30.612848 31.700533 -0.307664
30.517904 31.055244 -0.912042
30.600952 31.139755 -0.304802
30.533243 30.533243 -0.904503
30.588694 30.588694 -0.302009
30.541817 30.013359 -0.896964
30.583433 30.054256 -0.299356
30.493319 29.447056 -0.887959
30.556810 29.508368 -0.296564
30.538816 28.980253 -0.881885
30.523010 28.965254 -0.293771
30.527321 28.467186 -0.874346
30.547899 28.486378 -0.291607
30.509216 27.956547 -0.866807
30.500420 27.948486 -0.288815
30.514265 27.475166 -0.860105
30.505352 27.467142 -0.286581
30.483301 26.969345 -0.852566
30.504223 26.987858 -0.284347
30.476034 26.492413 -0.845864
30.466883 26.484457 -0.281833
30.523603 26.069620 -0.840838
30.483932 26.035738 -0.279879
30.474224 25.570910 -0.833299
30.495485 25.588751 -0.277924
30.449343 25.100502 -0.826597
30.439848 25.092674 -0.275411
30.418592 24.632490 -0.819896
30.408981 24.624706 -0.273177
30.413307 24.191837 -0.814032
30.434889 24.209003 -0.271501
30.434179 23.777786 -0.809006
30.455873 23.794737 -0.269826
30.418428 23.340881 -0.803142
30.408493 23.333258 -0.267592
30.341494 22.863955 -0.795812
30.363382 22.880449 -0.265428
30.435383 22.520998 -0.793089
30.457394 22.537287 -0.264520
30.371925 22.066496 -0.786388
30.361668 22.059044 -0.262007
30.302874 21.614830 -0.779686
30.292500 21.607430 -0.259773
30.400255 21.286488 -0.777383
30.389801 21.279167 -0.259005
30.345911 20.856167 -0.771309
30.335346 20.848906 -0.256980
30.327831 20.456381 -0.766283
30.358616 20.477144 -0.255654
30.305101 20.058510 -0.761257
30.336027 20.078978 -0.253978
30.389898 19.924490 0.253699
30.425779 19.948015 0.762095
30.319677 19.689829 -0.757278
30.342361 19.704559 -0.252582
30.335539 19.512474 0.251814
30.388483 19.546530 0.756859
30.313272 19.311686 -0.752880
30.336052 19.326197 -0.251116
30.369347 19.161631 0.250697
30.363426 19.157894 0.752042
30.285635 18.924564 -0.748063
30.308500 18.938852 -0.249510
30.331326 18.769594 0.249022
30.333914 18.771194 0.747226
30.313234 18.575974 -0.744712
30.336197 18.590046 -0.248393
30.322985 18.400438 0.247625
30.325621 18.402039 0.743037
30.259939 18.182007 -0.739477
30.248697 18.175251 -0.246369
30.276150 18.012417 0.245950
30.278839 18.014017 0.738011
30.288237 17.841135 -0.736335
30.276911 17.834463 -0.245321
30.293972 17.666924 0.244833
30.296703 17.668516 0.734660
30.269608 17.476166 -0.732147
30.292830 17.489574 -0.244204
30.316763 17.327457 0.243786
30.345573 17.343924 0.732147
30.246929 17.112888 -0.727959
30.305046 17.145771 -0.243087
30.257423 16.944971 0.242110
30.286417 16.961208 0.727121
30.255205 16.770735 -0.724608
30.278597 16.783701 -0.241691
30.290171 16.617758 0.241203
30.301796 16.624134 0.723979
30.224678 16.410662 -0.720419
30.248148 16.423405 -0.240295
30.293095 16.277067 0.240086
30.304802 16.283358 0.720629
30.234324 16.075874 -0.717278
30.249048 16.083704 -0.239178
30.230440 15.905005 0.238480
30.259939 15.920525 0.716231
30.258173 15.751408 -0.714555
30.281813 15.763714 -0.238340
30.252516 15.581070 0.237572
30.299948 15.605498 0.713927
30.198496 15.386903 -0.709948
30.204386 15.389903 -0.236665
30.253389 15.248963 0.236525
30.292131 15.268491 0.710576
30.242147 15.078178 -0.707854
30.230146 15.072195 -0.235827
30.205938 14.895920 0.235129
30.244883 14.915126 0.706388
30.228800 14.743571 -0.704503
30.252670 14.755213 -0.234989
30.217690 14.575283 0.234221
30.301849 14.615877 0.704712
30.211927 14.410351 -0.701152
30.199768 14.404551 -0.233593
30.199022 14.242784 0.233104
30.238346 14.261331 0.700315
30.191553 14.078552 -0.697801
30.179314 14.072845 -0.232476
30.222269 13.932656 0.232336
30.261774 13.950869 0.698011
30.204088 13.764796 -0.695288
30.228176 13.775774 -0.231917
30.233294 13.619105 0.231499
30.272976 13.636982 0.695498
30.176922 13.435632 -0.691938
30.201077 13.446385 -0.230800
30.241154 13.306426 0.230661
30.207806 13.291753 0.691309
30.109648 13.092048 -0.687749
30.170542 13.118525 -0.229683
30.172367 12.963073 0.229265
30.249159 12.996064 0.689634
30.149126 12.797544 -0.686074
30.182619 12.811762 -0.228916
30.164459 12.649007 0.228357
30.177017 12.654274 0.685445
30.185760 12.503352 -0.684398
30.210125 12.513443 -0.228287
30.245926 12.373936 0.228148
30.249283 12.375309 0.684608
30.145407 12.179535 -0.681047
30.169827 12.189402 -0.227170
30.204151 12.050234 0.227031
30.244692 12.066409 0.682095
30.148220 11.875700 -0.678744
30.172707 11.885345 -0.226402
30.149719 11.724585 0.225844
30.199751 11.744040 0.678744
30.176035 11.583495 -0.677068
30.153913 11.575003 -0.225495
30.185429 11.436236 0.225355
30.179544 11.434007 0.676021
30.191689 11.288210 -0.675184
30.216309 11.297415 -0.225215
30.171497 11.130854 0.224517
30.174995 11.132144 0.673718
30.148123 10.973020 -0.672042
30.172794 10.981999 -0.224168
30.192190 10.840104 0.223959
30.233353 10.854883 0.672880
30.091942 10.656116 -0.668691
30.192072 10.691573 -0.223610
30.181791 10.539953 0.223191
30.175907 10.537898 0.669529
30.145975 10.380092 -0.667854
30.180218 10.391882 -0.222842
30.111645 10.221526 0.222004
30.115242 10.222747 0.666178
30.159559 10.091248 -0.666178
30.184406 10.099561 -0.222214
30.161709 9.945840 0.221725
30.174818 9.950163 0.665550
30.132372 9.790601 -0.663665
30.119226 9.786329 -0.221097
30.133068 9.645671 0.220887
30.174803 9.659031 0.663665
30.149916 9.506232 -0.662199
30.127184 9.499064 -0.220538
30.177895 9.370485 0.220608
30.143368 9.359764 0.661152
30.116993 9.207689 -0.659686
30.170679 9.224102 -0.220259
30.181913 9.083725 0.220049
30.195177 9.087717 0.660524
30.071579 8.907607 -0.656964
30.058266 8.903664 -0.218863
30.106430 8.775224 0.218932
30.148552 8.787501 0.657801
30.109724 8.633824 -0.656126
30.134819 8.641021 -0.218863
30.104866 8.490450 0.218374
30.147110 8.502364 0.656126
30.116482 8.352039 -0.654660
30.141626 8.359013 -0.218374
30.148869 8.219525 0.218164
30.142992 8.217923 0.654451
30.110962 8.068208 -0.652985
30.126492 8.072370 -0.217746
30.142088 7.935750 0.217606
30.174885 7.944384 0.653613
30.102789 7.785110 -0.651309
30.128021 7.791636 -0.217257
30.171423 7.662565 0.217327
30.175232 7.663532 0.652147
30.091972 7.502771 -0.649634
30.117245 7.509073 -0.216698
30.110870 7.368083 0.216419
30.114712 7.369023 0.649424
30.068806 7.218882 -0.647749
30.094116 7.224958 -0.216070
30.135088 7.095871 0.216140
30.138945 7.096779 0.648587
30.091690 6.947214 -0.646911
30.078072 6.944070 -0.215512
30.117836 6.814970 0.215581
30.131468 6.818055 0.647121
30.073084 6.667042 -0.645236
30.137524 6.681328 -0.215512
30.097984 6.534913 0.215023
30.111658 6.537882 0.645445
30.051884 6.387725 -0.643561
30.087088 6.395208 -0.214744
30.075544 6.255722 0.214464
30.079470 6.256538 0.643561
30.067293 6.117260 -0.642723
30.092754 6.122440 -0.214395
30.099567 5.987176 0.214255
30.132921 5.993811 0.643561
30.080275 5.847013 -0.641885
30.066507 5.844337 -0.213836
30.101547 5.714957 0.213906
30.066212 5.708249 0.641047
30.022018 5.564252 -0.639582
30.037704 5.567160 -0.213278
30.071550 5.437822 0.213347
30.075527 5.438541 0.640210
29.941435 5.279483 -0.636859
29.996513 5.289195 -0.212649
30.039017 5.161647 0.212789
30.043015 5.162334 0.638534
30.035671 5.026248 -0.637906
30.011940 5.022276 -0.212440
30.053307 4.894492 0.212579
30.096786 4.901573 0.638744
30.029015 4.756129 -0.636859
30.064501 4.761749 -0.212510
30.045458 4.624438 0.212230
30.089008 4.631141 0.637697
30.029825 4.487988 -0.636021
30.055460 4.491818 -0.212160
30.005499 4.350590 0.211672
30.049122 4.356915 0.636021
30.028244 4.220194 -0.635184
30.053904 4.223801 -0.211881
30.042322 4.088581 0.211672
30.056278 4.090480 0.635393
30.034191 3.954076 -0.634555
30.010305 3.950932 -0.211323
30.007418 3.817426 0.211183
30.041241 3.821728 0.634346
30.017937 3.685739 -0.633508
30.003939 3.684021 -0.211043
29.999866 3.550718 0.210904
30.033733 3.554727 0.633508
29.979422 3.415724 -0.632042
30.005138 3.418654 -0.210834
30.029711 3.288788 0.210904
30.063610 3.292501 0.633508
30.008087 3.153977 -0.632042
30.033829 3.156683 -0.210834
30.007519 3.021598 0.210555
30.021564 3.023013 0.632042
29.954855 2.884325 -0.630367
30.020418 2.890637 -0.210555
30.002871 2.756876 0.210345
30.006979 2.757254 0.631205
29.968924 2.621941 -0.630157
30.044500 2.628553 -0.210555
30.025787 2.494951 0.210345
30.029898 2.495292 0.631205
29.960762 2.357963 -0.629529
29.986542 2.359992 -0.209996
30.006527 2.229870 0.210066
30.010647 2.230176 0.630367
29.940306 2.093630 -0.628691
29.956118 2.094736 -0.209647
29.984930 1.965316 0.209787
30.028967 1.968202 0.630367
29.957436 1.832275 -0.628691
29.983238 1.833853 -0.209717
29.961004 1.701309 0.209508
30.005072 1.703811 0.629529
29.932348 1.568688 -0.627854
29.918211 1.567947 -0.209159
29.934757 1.437869 0.209228
30.018797 1.441906 0.629529
29.944897 1.307422 -0.627854
29.930756 1.306805 -0.209159
29.986132 1.178158 0.209508
30.030237 1.179891 0.629529
29.875233 1.043266 -0.626178
29.891050 1.043818 -0.208809
29.905315 0.913690 0.208879
29.959446 0.915344 0.627854
29.963154 0.784613 -0.627854
29.949003 0.784242 -0.209159
29.962137 0.653776 0.209228
29.966291 0.653867 0.627854
29.928875 0.522410 -0.627016
29.954706 0.522861 -0.209159
29.926706 0.391762 0.208949
29.930870 0.391817 0.627016
29.932293 0.261215 -0.627016
29.958130 0.261441 -0.209159
29.878988 0.130373 0.208600
29.933149 0.130609 0.627016
29.933434 0.000000 -0.627016
29.959270 0.000000 -0.209159
29.888987 -0.130416 0.208670
29.933149 -0.130609 0.627016
29.892303 -0.260866 -0.626178
29.918131 -0.261092 -0.208879
29.886711 -0.391238 0.208670
29.930870 -0.391817 0.627016
29.888889 -0.521712 -0.626178
29.904716 -0.521989 -0.208809
29.882158 -0.652031 0.208670
29.886328 -0.652122 0.626178
29.923176 -0.783566 -0.627016
29.949003 -0.784242 -0.209159
29.875332 -0.912774 0.208670
29.919472 -0.914123 0.627016
29.915199 -1.044662 -0.627016
29.941019 -1.045563 -0.209159
29.866228 -1.173447 0.208670
29.910357 -1.175181 0.627016
29.864990 -1.303934 -0.626178
29.930756 -1.306805 -0.209159
29.844862 -1.433552 0.208600
29.898962 -1.436150 0.627016
29.852474 -1.564502 -0.626178
29.868282 -1.565330 -0.208809
29.831217 -1.693939 0.208600
29.885290 -1.697010 0.627016
29.877602 -1.827392 -0.627016
29.903389 -1.828970 -0.209159
29.905104 -1.960084 0.209228
29.869345 -1.957740 0.627016
29.900412 -2.090840 -0.627854
29.886292 -2.089853 -0.209159
29.836998 -2.217272 0.208879
29.851122 -2.218322 0.627016
29.841160 -2.348550 -0.627016
29.856947 -2.349793 -0.209089
29.866341 -2.481702 0.209228
29.870481 -2.482046 0.627854
29.859367 -2.612356 -0.627854
29.885113 -2.614609 -0.209438
29.883377 -2.745897 0.209508
29.887508 -2.746276 0.628691
29.835434 -2.872825 -0.627854
29.900972 -2.879136 -0.209717
29.888126 -3.009576 0.209717
29.892246 -3.009991 0.629320
29.809227 -3.133076 -0.627854
29.874710 -3.139959 -0.209717
29.900486 -3.274636 0.209996
29.864841 -3.270732 0.629320
29.780752 -3.393088 -0.627854
29.806429 -3.396014 -0.209438
29.831049 -3.530737 0.209717
29.835163 -3.531224 0.629320
29.829393 -3.662589 -0.629529
29.845135 -3.664522 -0.209927
29.848701 -3.797235 0.210066
29.842882 -3.796494 0.630157
29.826033 -3.926672 -0.630157
29.851677 -3.930048 -0.210206
29.844154 -4.061611 0.210276
29.808617 -4.056775 0.630157
29.790630 -4.186800 -0.630157
29.855854 -4.195967 -0.210485
29.807573 -4.321892 0.210276
29.861128 -4.329658 0.632042
29.792513 -4.452521 -0.630995
29.867552 -4.463736 -0.210834
29.808256 -4.587930 0.210555
29.822208 -4.590077 0.632042
29.841396 -4.726413 -0.632880
29.866968 -4.730463 -0.211113
29.816433 -4.855915 0.210904
29.820488 -4.856575 0.632880
29.838457 -4.993245 -0.633718
29.864000 -4.997519 -0.211393
29.851765 -5.129471 0.211462
29.845945 -5.128471 0.634346
29.833130 -5.260386 -0.634555
29.819252 -5.257939 -0.211393
29.796026 -5.387999 0.211393
29.800056 -5.388728 0.634346
29.786089 -5.520525 -0.634555
29.811562 -5.525247 -0.211672
29.787170 -5.655271 0.211672
29.791185 -5.656034 0.635184
29.726967 -5.778337 -0.634346
29.752396 -5.783280 -0.211602
29.775915 -5.922798 0.211951
29.779917 -5.923594 0.636021
29.763584 -6.055470 -0.636231
29.779186 -6.058644 -0.212160
29.762257 -6.190558 0.212230
29.766243 -6.191388 0.636859
29.787842 -6.331601 -0.637906
29.774088 -6.328678 -0.212510
29.755962 -6.460653 0.212579
29.759932 -6.461514 0.637906
29.760736 -6.597796 -0.638534
29.795828 -6.605576 -0.213068
29.766722 -6.735522 0.213068
29.770670 -6.736415 0.639372
29.672804 -6.850506 -0.637906
29.688332 -6.854092 -0.212719
29.794413 -7.015653 0.213696
29.798336 -7.016577 0.641257
29.718830 -7.134860 -0.640210
29.792688 -7.152592 -0.213906
29.722343 -7.273011 0.213627
29.774817 -7.285851 0.642095
29.742743 -7.415699 -0.642095
29.729137 -7.412306 -0.213906
29.744972 -7.554260 0.214255
29.748863 -7.555249 0.642932
29.754332 -7.694993 -0.643770
29.779495 -7.701501 -0.214744
29.745607 -7.831365 0.214744
29.749477 -7.832384 0.644398
29.724676 -7.964703 -0.644608
29.740131 -7.968844 -0.214953
29.714725 -8.101164 0.215023
29.679995 -8.091696 0.644398
29.682943 -8.231809 -0.645236
29.708002 -8.238758 -0.215232
29.691021 -8.373734 0.215372
29.685232 -8.372102 0.646074
29.734915 -8.526349 -0.647958
29.721487 -8.522499 -0.215861
29.693619 -8.654901 0.215930
29.687830 -8.653214 0.647749
29.649790 -8.782668 -0.647749
29.674747 -8.790061 -0.216070
29.683989 -8.933867 0.216419
29.735643 -8.949413 0.650472
29.610262 -9.052766 -0.648587
29.682976 -9.074997 -0.216698
29.690847 -9.219253 0.217047
29.732800 -9.232280 0.652147
29.730373 -9.373951 -0.652985
29.717096 -9.369764 -0.217536
29.685453 -9.502389 0.217606
29.689188 -9.503584 0.652985
29.685472 -9.645394 -0.653822
29.710281 -9.653456 -0.218095
29.667877 -9.782999 0.218095
29.671589 -9.784223 0.654451
29.638096 -9.916768 -0.654660
29.700773 -9.937739 -0.218653
29.666597 -10.070453 0.218723
29.660814 -10.068490 0.656126
29.616600 -10.197813 -0.656126
29.641285 -10.206313 -0.218863
29.605909 -10.338846 0.218932
29.656771 -10.356608 0.658011
29.611300 -10.485911 -0.658011
29.673632 -10.507984 -0.219770
29.627499 -10.637359 0.219770
29.668772 -10.652178 0.660315
29.593826 -10.771272 -0.659686
29.655977 -10.793893 -0.220329
29.608597 -10.923188 0.220329
29.659103 -10.941821 0.662199
29.601715 -11.067628 -0.661990
29.635586 -11.080292 -0.220887
29.596308 -11.213038 0.220957
29.674683 -11.242731 0.664712
29.578674 -11.354190 -0.663665
29.612450 -11.367154 -0.221446
29.599848 -11.510752 0.221725
29.603395 -11.512131 0.665341
29.599394 -11.659512 -0.666388
29.586557 -11.654455 -0.222004
29.619015 -11.816789 0.222632
29.650385 -11.829304 0.668691
29.533600 -11.932348 -0.667225
29.557901 -11.942167 -0.222563
29.625830 -12.120247 0.223470
29.666321 -12.136812 0.671414
29.539188 -12.235532 -0.669739
29.563425 -12.245571 -0.223400
29.583487 -12.405385 0.223959
29.633039 -12.426165 0.673089
29.578537 -12.555345 -0.673089
29.602715 -12.565607 -0.224517
29.584356 -12.710443 0.224797
29.587774 -12.711911 0.674555
29.522858 -12.836905 -0.674346
29.592808 -12.867319 -0.225285
29.582146 -13.016456 0.225634
29.594681 -13.021972 0.677278
29.528446 -13.146912 -0.677068
29.552475 -13.157610 -0.225844
29.540371 -13.306967 0.226193
29.616652 -13.341329 0.680419
29.458084 -13.424822 -0.678116
29.509325 -13.448174 -0.226402
29.568420 -13.631228 0.227310
29.644371 -13.666243 0.683770
29.502909 -13.757433 -0.681885
29.581165 -13.793924 -0.227868
29.556873 -13.939927 0.228148
29.560154 -13.941474 0.684608
29.508066 -14.074625 -0.684817
29.558949 -14.098895 -0.228636
29.542183 -14.249457 0.228985
29.590452 -14.272740 0.688168
29.473980 -14.375421 -0.686911
29.542641 -14.408909 -0.229474
29.560205 -14.577480 0.230102
29.599276 -14.596747 0.691309
29.499516 -14.707915 -0.690472
29.558962 -14.737555 -0.230591
29.539024 -14.888893 0.230940
29.613615 -14.926491 0.694660
29.441307 -15.001096 -0.692147
29.464869 -15.013100 -0.230870
29.514650 -15.201043 0.231778
29.553337 -15.220969 0.696335
29.522114 -15.368240 -0.697173
29.510132 -15.362002 -0.232267
29.451672 -15.495274 0.232336
29.525560 -15.534149 0.698849
29.457499 -15.662830 -0.698849
29.480902 -15.675274 -0.233104
29.526737 -15.865289 0.234012
29.565016 -15.885857 0.703037
29.460276 -15.995625 -0.702199
29.483595 -16.008286 -0.234221
29.492369 -16.180067 0.234850
29.495384 -16.181723 0.704712
29.389521 -16.290878 -0.703875
29.491457 -16.347382 -0.235408
29.454748 -16.495451 0.235687
29.527512 -16.536201 0.708901
29.428974 -16.650112 -0.708273
29.443417 -16.658283 -0.236176
29.448586 -16.831253 0.236804
29.486246 -16.852777 0.711414
29.412432 -16.981276 -0.711414
29.435486 -16.994585 -0.237293
29.473349 -17.188349 0.238201
29.476240 -17.190035 0.714765
29.392340 -17.313412 -0.714555
29.415302 -17.326937 -0.238340
29.390984 -17.485798 0.238759
29.462584 -17.528395 0.718116
29.342972 -17.631037 -0.717068
29.365835 -17.644775 -0.239178
29.408251 -17.845366 0.240155
29.411066 -17.847073 0.720629
29.358486 -17.990904 -0.721257
29.389790 -18.010086 -0.240644
29.421471 -18.206558 0.241552
29.424236 -18.208269 0.724817
29.369944 -18.352377 -0.725445
29.392632 -18.366554 -0.241970
29.362955 -18.526644 0.242389
29.433329 -18.571047 0.729006
29.352018 -18.699297 -0.729006
29.383041 -18.719063 -0.243227
29.402008 -18.912006 0.244065
29.438318 -18.935362 0.733194
29.388956 -19.085411 -0.734032
29.377914 -19.078241 -0.244554
29.403105 -19.277519 0.245461
29.472622 -19.323097 0.738220
29.354681 -19.429440 -0.737383
29.335388 -19.416670 -0.245601
29.358477 -19.616707 0.246508
29.402630 -19.646210 0.740733
29.308340 -19.768724 -0.740524
29.372086 -19.811722 -0.247346
29.392815 -20.012856 0.248254
29.395350 -20.014582 0.744922
29.299500 -20.136988 -0.744712
29.321695 -20.152243 -0.248393
29.340298 -20.354088 0.249301
29.383865 -20.384312 0.749110
29.294641 -20.512329 -0.749110
29.283972 -20.504858 -0.249580
29.333050 -20.730551 0.250767
29.400812 -20.778440 0.754137
29.309870 -20.906527 -0.754137
29.323727 -20.916410 -0.251465
29.313337 -21.102583 0.252163
29.340078 -21.121834 0.757278
29.247639 -21.249653 -0.757278
29.269522 -21.265553 -0.252582
29.321611 -21.499495 0.253839
29.348146 -21.518951 0.762304
29.221825 -21.623013 -0.761466
29.275753 -21.662918 -0.254258
29.285112 -21.868231 0.255165
29.295425 -21.875933 0.765864
29.255587 -22.045666 -0.767330
29.245319 -22.037930 -0.255654
29.252361 -22.244013 0.256561
29.326241 -22.300192 0.771728
29.188999 -22.397507 -0.770681
29.250225 -22.444487 -0.257399
29.286428 -22.675976 0.258586
29.288624 -22.677675 0.775917
29.213030 -22.823721 -0.776545
29.234486 -22.840485 -0.259005
29.236637 -23.048306 0.259912
29.270195 -23.074760 0.780733
29.231829 -23.252047 -0.782409
29.253180 -23.269030 -0.260960
29.252754 -23.477818 0.261867
29.262646 -23.485756 0.785969
29.183201 -23.632090 -0.786597
29.204433 -23.649284 -0.262356
29.232611 -23.884045 0.263543
29.265621 -23.911016 0.791623
29.161013 -24.038483 -0.791623
29.212996 -24.081335 -0.264311
29.207590 -24.291697 0.265218
29.271076 -24.344498 0.797487
29.164576 -24.471983 -0.797487
29.185581 -24.489611 -0.265986
29.177666 -24.700718 0.266894
29.240654 -24.754042 0.802514
29.132366 -24.881392 -0.802514
29.153254 -24.899231 -0.267662
29.203419 -25.163275 0.269128
29.205299 -25.164896 0.807540
29.095219 -25.292088 -0.807540
29.115986 -25.310141 -0.269337
29.193228 -25.601774 0.271082
29.195053 -25.603374 0.813404
29.142963 -25.783516 -0.815079
29.133667 -25.775291 -0.271571
29.177593 -26.041998 0.273037
29.209200 -26.070208 0.820105
29.117458 -26.217478 -0.820733
29.145430 -26.242662 -0.273805
29.126873 -26.456989 0.274713
29.150797 -26.478720 0.824922
29.101326 -26.666452 -0.826807
29.092255 -26.658140 -0.275481
29.129864 -26.927370 0.276947
29.182919 -26.976412 0.832461
29.013750 -27.055759 -0.830995
29.063288 -27.101954 -0.277435
29.126844 -27.399799 0.279181
29.179424 -27.449261 0.839163
29.066629 -27.583200 -0.839372
29.050535 -27.567928 -0.279599
29.088888 -27.846552 0.281135
29.083218 -27.841124 0.843351
29.018995 -28.023317 -0.845027
29.075006 -28.077408 -0.282183
29.073988 -28.322624 0.283369
29.125610 -28.372913 0.851728
29.001534 -28.499727 -0.851728
29.057116 -28.554348 -0.284417
29.081383 -28.828701 0.285883
29.104115 -28.851234 0.858430
28.977951 -28.977951 -0.858430
28.969460 -28.969460 -0.286022
29.025820 -29.280230 0.287837
29.083509 -29.338425 0.865341
28.948212 -29.457914 -0.865131
28.974882 -29.485056 -0.288605
28.992487 -29.761620 0.290071
29.042646 -29.813110 0.871833
28.940065 -29.968315 -0.872671
28.987387 -30.017319 -0.291328
28.980606 -30.273537 0.292585
29.002611 -30.296522 0.878534
28.925198 -30.480799 -0.880210
28.944605 -30.501249 -0.293562
28.961979 -30.787491 0.295098
29.011135 -30.839745 0.886912
28.821749 -30.907541 -0.885236
28.895567 -30.986702 -0.295796
28.936571 -31.303406 0.297611
28.992008 -31.363379 0.894660
28.875147 -31.511694 -0.895288
28.867266 -31.503094 -0.298309
28.931238 -31.850809 0.300404
28.925598 -31.844601 0.901152
28.866653 -32.059666 -0.903665
28.885664 -32.080780 -0.301381
28.911877 -32.393021 0.303126
28.932871 -32.416542 0.910158
28.824276 -32.579918 -0.911205
28.869652 -32.631207 -0.304173
28.891830 -32.944817 0.305919
28.919157 -32.975979 0.918744
28.847149 -33.184849 -0.921048
28.846212 -33.183773 -0.306966
28.870861 -33.506283 0.308781
28.891336 -33.530048 0.927121
28.841286 -33.768806 -0.310038
28.855194 -34.085133 0.311783
28.907707 -34.147163 0.937173
28.837996 -34.673923 0.314855
28.857946 -34.697910 0.945341
28.838007 -35.295956 0.318206
24.568886 -30.070814 0.813404
24.155348 -30.096939 0.808377
23.444517 -29.739227 0.264380
22.820988 -28.948284 0.772147
23.288177 -30.077099 0.265567
22.647072 -29.249098 0.774870
22.424660 -30.030262 0.261658
22.539927 -30.184622 0.789110
22.327309 -30.450605 0.263612
0.163586 -0.227235 0.001955
22.323635 -31.009485 0.266754
0.157713 -0.219077 0.005654
0.176695 -0.254704 0.002164
0.153865 -0.221796 0.005654
0.151924 -0.223130 0.005654
0.155556 -0.232806 0.001955
0.166635 -0.249386 0.006283
0.148036 -0.225792 0.001885
0.126080 -0.192304 0.004817
0.151469 -0.235485 0.001955
0.140623 -0.218622 0.005445
0.128064 -0.202970 0.001676
0.117369 -0.186019 0.004607
0.147336 -0.238093 0.001955
0.136786 -0.221043 0.005445
0.140065 -0.230821 0.001885
0.140038 -0.230776 0.005654
0.117595 -0.197659 0.001606
0.102236 -0.171844 0.004188
0.115843 -0.198639 0.004817