# This PCD file was generated using the MATLAB® pcwrite function
# from Computer Vision System Toolbox®.
# .PCD v.7 - Point Cloud Data file format
VERSION .7
FIELDS x y z
SIZE 4 4 4
TYPE F F F
COUNT 1 1 1
WIDTH 1108
HEIGHT 1
VIEWPOINT 0 0 0 1 0 0 0
POINTS 1108
DATA ascii
30.164053 32.346985 -0.308781
30.122671 31.742674 -0.916650
30.149197 31.770622 -0.305779
30.134617 31.205309 -0.908692
30.098814 31.168234 -0.302498
30.321692 30.855577 -0.906179
30.285551 30.818800 -0.301660
30.420132 30.420132 -0.901152
30.383638 30.383638 -0.299985
30.577471 30.048397 -0.898011
30.476448 29.949123 -0.298309
30.572428 29.523451 -0.890262
30.427332 29.383333 -0.295307
30.538816 28.980253 -0.881885
30.443220 28.889538 -0.293003
30.593128 28.528553 -0.876231
30.555214 28.493196 -0.291677
30.634525 28.071371 -0.870367
30.448812 27.901196 -0.288326
30.603422 27.555445 -0.862618
30.453333 27.420303 -0.286092
30.281126 26.790478 -0.846911
30.451797 26.941475 -0.283858
30.634489 26.630156 -0.850262
30.504618 26.517260 -0.282183
30.713663 26.231947 -0.846074
30.643614 26.172119 -0.281345
30.726963 25.782984 -0.840210
30.625711 25.698023 -0.279111
30.611349 25.234049 -0.830995
30.663614 25.277132 -0.277435
30.612835 24.789785 -0.825131
30.579948 24.763153 -0.274713
30.734106 24.447012 -0.822618
30.544453 24.296154 -0.272479
30.631138 23.931669 -0.814241
30.566193 23.880926 -0.270803
30.711905 23.566072 -0.810890
30.646492 23.515881 -0.269686
30.796616 23.206915 -0.807749
30.722759 23.151260 -0.268569
30.764893 22.764822 -0.801676
30.722660 22.733572 -0.266824
30.735903 22.330940 -0.795812
30.798527 22.376440 -0.265777
30.766817 21.945757 -0.791623
30.797239 21.967457 -0.264101
30.867069 21.613354 -0.789320
30.791176 21.560213 -0.262426
30.823799 21.184610 -0.783456
30.846291 21.200069 -0.261309
30.773186 20.952717 0.259912
30.808569 20.780642 -0.778430
30.764835 20.751143 -0.259075
30.755312 20.550041 0.258237
30.749315 20.546036 0.774660
30.821997 20.400635 -0.774241
30.744621 20.349421 -0.257399
30.766218 20.171217 0.256841
30.701693 20.128912 0.769006
30.797613 20.000204 -0.769215
30.753300 19.971426 -0.256003
30.713997 19.755907 0.254956
30.506203 19.622250 0.759791
30.836061 19.644737 -0.765864
30.825207 19.637821 -0.255165
30.749914 19.401751 0.253839
30.650909 19.339283 0.759163
30.904573 19.311321 -0.763351
30.859718 19.283293 -0.254048
30.816013 19.069529 0.253001
30.750494 19.028984 0.757487
30.901428 18.936419 -0.759163
30.856295 18.908762 -0.252652
30.835920 18.711695 0.251814
30.812813 18.697674 0.754974
30.996943 18.624842 -0.757487
30.951557 18.597572 -0.252093
30.860533 18.360086 0.250697
29.574282 17.594849 0.720838
30.785778 18.315613 0.750367
31.020462 18.272448 -0.754137
30.983429 18.250635 -0.251046
30.820900 17.974218 0.249091
29.882153 17.426756 0.724608
30.780346 17.950567 0.746388
31.014227 17.906073 -0.750157
30.933674 17.859564 -0.249371
30.907125 17.664877 0.248533
30.710136 17.552290 0.740943
30.986568 17.531357 -0.745760
30.949095 17.510155 -0.248254
30.920506 17.316315 0.247416
30.583002 17.127304 0.734241
31.068422 17.221508 -0.744084
30.987020 17.176386 -0.247346
30.623320 16.800528 0.243855
30.591053 16.782827 0.730890
31.006655 16.835239 -0.739058
30.793001 16.719236 -0.244623
30.627825 16.456924 0.242738
30.560205 16.420589 0.726702
30.878733 16.418514 -0.732566
30.690510 16.318434 -0.242669
30.593277 16.095901 0.241342
30.525377 16.060179 0.722513
30.577425 15.917601 -0.722095
30.796267 16.031521 -0.242389
30.563665 15.741322 0.240016
30.628811 15.774875 0.721676
30.768616 15.677393 -0.723351
30.783525 15.684990 -0.241203
30.726656 15.487510 0.240225
30.586748 15.416990 0.717487
30.689516 15.301229 -0.718325
30.713398 15.313136 -0.239597
30.753017 15.165709 0.239387
30.755989 15.167175 0.718325
30.848833 15.045980 -0.718953
30.809910 15.026997 -0.239318
30.776110 14.844633 0.238550
30.779114 14.846082 0.715812
30.834576 14.707338 -0.715603
30.831562 14.705901 -0.238480
30.723593 14.490187 0.237153
30.726646 14.491627 0.711623
30.898317 14.408122 -0.714137
30.922468 14.419384 -0.238201
30.812548 14.204779 0.236874
30.815619 14.206195 0.710786
30.986483 14.121354 -0.713299
30.974327 14.115814 -0.237642
30.752985 13.853209 0.235478
30.719643 13.838190 0.705760
30.889332 13.752816 -0.708273
30.867949 13.743297 -0.235897
30.836092 13.568205 0.235199
30.729418 13.521268 0.703246
30.971495 13.466789 -0.707435
30.959194 13.461440 -0.235687
30.879820 13.267017 0.234640
30.846243 13.252591 0.703246
30.977398 13.149125 -0.704922
30.044546 12.753153 -0.227868
30.920645 12.966103 0.234082
30.813198 12.921046 0.699896
29.871712 12.373268 -0.677278
29.628094 12.272359 -0.223889
30.606878 12.521605 0.230870
30.822992 12.610020 0.697592
30.136137 12.175790 -0.680838
29.798964 12.039562 -0.224378
30.649969 12.228098 0.230382
30.773998 12.277580 0.694032
30.222637 11.905013 -0.680419
29.847069 11.757072 -0.223959
30.876669 12.007279 0.231289
30.842695 11.994068 0.693194
30.689392 11.780554 -0.688587
30.676704 11.775683 -0.229404
30.868061 11.694862 0.230451
30.908791 11.710293 0.692356
30.959591 11.575316 -0.692356
30.787664 11.511036 -0.229474
30.903269 11.400818 0.229963
30.869104 11.388214 0.689215
31.021845 11.291028 -0.691519
25.605999 9.319821 -0.190239
30.858753 11.231668 -0.229265
30.879232 11.086778 0.229055
30.844984 11.074481 0.686493
23.023682 8.153113 -0.511623
30.968407 10.966488 -0.688168
25.526110 9.039269 -0.189053
30.955593 10.961950 -0.229265
30.823755 10.764137 0.227938
30.789431 10.752151 0.683142
24.738794 8.518250 -0.548063
26.005512 8.954415 -0.576126
30.968395 10.663274 -0.686074
30.860973 10.626286 -0.227868
30.840763 10.469028 0.227380
30.844217 10.470201 0.682304
22.612558 7.566056 -0.499477
30.927534 10.348207 -0.683142
23.072153 7.719834 -0.169854
30.876665 10.331188 -0.227310
30.892960 10.186971 0.227100
22.398489 7.385914 0.494032
30.402697 10.025306 0.670576
22.810843 7.411692 -0.502409
30.978626 10.065566 -0.682304
22.453897 7.295713 -0.164828
30.803970 10.008817 -0.226123
30.752111 9.843828 0.225425
29.660624 9.494440 0.652356
21.053452 6.638128 -0.462409
30.989002 9.770795 -0.680629
22.469025 7.084456 -0.164478
24.300116 7.661797 -0.177883
30.861528 9.730602 -0.225914
24.094566 7.481562 0.176137
30.607643 9.503926 0.223749
22.609913 7.020565 0.495917
29.159912 9.054394 0.639582
20.881115 6.383997 -0.457382
30.920113 9.453227 -0.677278
21.516333 6.578203 -0.157078
30.763575 9.405369 -0.224587
22.674738 6.824321 0.165316
24.484503 7.368999 0.178511
29.454178 8.864701 0.214744
22.708611 6.834516 0.496754
29.084639 8.753483 0.636231
21.424921 6.346351 -0.468063
30.886396 9.148968 -0.674765
21.333220 6.319188 -0.155333
30.202085 8.946265 -0.219910
22.407017 6.531050 0.162943
29.156004 8.498200 0.212021
22.681004 6.610909 0.494869
24.600681 7.170444 0.536754
29.284697 8.535710 0.638953
21.018183 6.026867 -0.458011
23.218988 6.657938 -0.505969
30.503756 8.746811 -0.664712
21.435614 6.146563 -0.155682
24.780722 7.105758 -0.179977
29.471565 8.450835 -0.214045
24.243656 6.837418 0.175858
29.315672 8.267875 0.212649
22.131615 6.241761 0.481676
24.797031 6.993486 0.539686
29.454294 8.306970 0.641047
22.996815 6.377581 -0.499896
29.384283 8.148983 -0.638744
21.314985 5.911169 -0.154425
29.139475 8.081092 -0.211113
21.832605 5.952251 0.157986
29.647192 8.082752 0.214534
29.747515 8.110104 0.645864
21.168451 5.672069 -0.459058
24.026964 6.438005 -0.521047
29.241819 7.835322 -0.634136
21.336782 5.717174 -0.154216
24.466305 6.555727 -0.176835
29.585587 7.927434 -0.213836
24.165890 6.362348 0.174462
29.175064 7.681154 0.210625
25.398726 6.686926 0.550157
29.807487 7.847657 0.645655
21.459126 5.549707 -0.464293
29.280043 7.572334 -0.633508
21.337454 5.518241 -0.153867
29.663321 7.671456 -0.213906
21.962236 5.577698 0.158195
24.782631 6.293986 0.178511
29.279753 7.436110 0.210904
29.555059 7.506029 0.638744
21.341824 5.321115 -0.460733
29.849451 7.442304 -0.644398
21.239256 5.295541 -0.152820
29.767948 7.421983 -0.214185
22.029501 5.390584 0.158335
29.732056 7.275388 0.213696
21.918383 5.363394 0.472670
29.813662 7.295357 0.642932
22.563757 5.417078 -0.486074
29.670221 7.123190 -0.639163
22.383410 5.373781 -0.160709
29.909370 7.180604 -0.214744
22.027037 5.186678 0.157986
24.431225 5.752789 0.175230
29.911215 7.043156 0.214534
21.974083 5.174210 0.472880
30.031897 7.071573 0.646283
21.256092 4.907355 -0.456964
22.376371 5.165992 -0.481047
24.188303 5.584310 -0.520000
21.328442 4.924058 -0.152820
24.397633 5.632637 -0.174811
30.000124 6.926074 -0.214953
30.049564 6.799522 0.215093
22.242680 5.033004 0.477697
30.170473 6.826881 0.647958
21.669018 4.803905 -0.464922
24.275156 5.381673 -0.520838
30.121887 6.677862 -0.646283
21.507277 4.768048 -0.153797
30.059422 6.664013 -0.214953
22.378046 4.858750 0.159871
24.254286 5.266121 0.173275
30.185934 6.554008 0.215651
22.197821 4.819620 0.475812
24.630592 5.347826 0.527958
30.140968 6.544246 0.646074
22.228418 4.724796 -0.476021
30.139898 6.406433 -0.645445
24.110750 5.124898 -0.172088
30.116430 6.401445 -0.214953
22.380434 4.655137 0.159592
30.320299 6.306632 0.216210
30.079470 6.256538 0.643561
21.788746 4.432971 -0.465759
30.273033 6.159118 -0.647121
21.548019 4.383994 -0.153518
24.252546 4.934236 -0.172786
30.327930 6.170287 -0.216070
30.178028 6.002783 0.214813
30.221172 6.011365 0.645445
21.463478 4.172078 -0.458011
24.201618 4.704318 -0.516440
30.306000 5.890890 -0.646702
24.225969 4.709051 -0.172298
30.302094 5.890130 -0.215512
21.809868 4.140733 0.154984
30.229261 5.739205 0.214813
30.223370 5.738086 0.644398
21.951267 4.068427 -0.467644
30.415236 5.637131 -0.647958
21.808062 4.041885 -0.154844
30.195023 5.596317 -0.214395
30.307714 5.480528 0.215023
21.467058 3.881877 0.456964
23.916782 4.324859 0.509110
30.232939 5.467006 0.643561
24.378492 4.298586 -0.518534
30.305735 5.343719 -0.644608
22.128092 3.901779 -0.156869
30.360884 5.353443 -0.215232
21.760548 3.739146 0.154146
23.958284 4.116786 0.169714
30.265690 5.200596 0.214395
22.544577 3.873867 0.479163
24.397017 4.192174 0.518534
30.230228 5.194503 0.642513
24.208002 4.051030 -0.514136
30.351213 5.079051 -0.644608
22.319099 3.734936 -0.157986
30.396582 5.086643 -0.215162
21.861437 3.560361 0.154635
24.407825 3.975067 0.172647
30.270441 4.929854 0.214115
22.607128 3.681804 0.479791
30.205334 4.919251 0.641047
22.484732 3.561232 -0.476859
30.453629 4.823381 -0.645864
22.518745 3.566619 -0.159173
24.553333 3.888866 -0.173554
30.390430 4.813371 -0.214813
21.990507 3.384663 0.155333
30.282660 4.660947 0.213906
24.189783 3.723164 0.512670
30.247110 4.655476 0.641047
23.582855 3.524481 -0.499477
30.385792 4.541187 -0.643561
22.311655 3.334499 -0.157497
25.051161 3.743921 -0.176835
30.322487 4.531726 -0.214045
23.760950 3.445174 0.167620
30.312283 4.395072 0.213836
23.024137 3.338341 0.487330
24.894169 3.609483 0.526911
30.247007 4.385607 0.640210
23.701818 3.331073 -0.501362
30.424263 4.275851 -0.643561
23.676733 3.327548 -0.166922
30.331171 4.262768 -0.213836
23.423498 3.187798 0.165037
30.230581 4.114202 0.212998
22.923609 3.119766 0.484608
24.508646 3.335480 0.518115
30.204876 4.110703 0.638534
22.044897 2.902266 -0.465759
24.215687 3.188056 -0.511623
30.410858 4.003665 -0.642513
23.833754 3.137773 -0.167829
30.367216 3.997920 -0.213836
23.420666 2.979485 0.164828
30.225655 3.845189 0.212719
23.455772 2.983951 0.495288
30.190008 3.840654 0.637487
24.252508 2.977834 -0.511833
30.424791 3.735695 -0.642095
23.909855 2.935761 -0.168179
25.537590 3.135622 -0.179628
30.361246 3.727892 -0.213557
30.267988 3.582453 0.212789
23.609989 2.794426 0.498011
25.446762 3.011823 0.536754
30.232302 3.578229 0.637697
30.297295 3.451941 -0.638744
24.242563 2.762091 -0.170343
30.263462 3.448086 -0.212649
30.268278 3.314916 0.212579
25.501892 2.792911 0.537382
30.182871 3.305562 0.636021
24.340557 2.558295 -0.512670
30.366037 3.191599 -0.639582
24.404972 2.565066 -0.171320
30.302343 3.184905 -0.212719
30.246305 3.045643 0.212230
30.210567 3.042044 0.636021
24.630653 2.371662 -0.518325
30.392733 2.926487 -0.639582
24.456289 2.354873 -0.171530
30.358845 2.923224 -0.212928
24.565908 2.257290 0.172228
30.271732 2.781581 0.212230
30.206095 2.775550 0.635393
30.377275 2.657667 -0.638744
24.834528 2.172740 -0.174043
30.313465 2.652085 -0.212440
30.264957 2.514824 0.212021
30.229166 2.511850 0.635393
30.399311 2.392478 -0.638744
30.345425 2.388237 -0.212510
30.285749 2.250620 0.212021
30.249935 2.247958 0.635393
30.369164 2.123619 -0.637697
30.365110 2.123335 -0.212510
30.304237 1.986245 0.212021
30.268400 1.983896 0.635393
30.306705 1.853638 -0.636021
30.302633 1.853389 -0.211951
30.320415 1.721718 0.212021
30.284559 1.719682 0.635393
30.321728 1.589094 -0.636021
30.267723 1.586264 -0.211602
30.284346 1.454661 0.211672
30.248482 1.452939 0.634346
30.334440 1.324430 -0.636021
30.330364 1.324252 -0.211951
30.255919 1.188758 0.211393
30.270000 1.189312 0.634555
30.434769 1.062806 -0.637906
30.370747 1.060570 -0.212160
30.305120 0.925905 0.211672
30.269232 0.924809 0.634346
30.362928 0.795081 -0.636231
30.298876 0.793404 -0.211602
30.312046 0.661411 0.211672
30.236168 0.659756 0.633508
30.448681 0.531484 -0.637906
30.384630 0.530366 -0.212160
30.316664 0.396867 0.211672
30.240774 0.395873 0.633508
30.402172 0.265316 -0.636859
30.388102 0.265193 -0.212160
30.368971 0.132510 0.212021
30.333057 0.132354 0.635393
30.403330 0.000000 -0.636859
30.389259 0.000000 -0.212160
30.368971 -0.132510 0.212021
30.283068 -0.132136 0.634346
30.402172 -0.265316 -0.636859
30.388102 -0.265193 -0.212160
30.366657 -0.397521 0.212021
30.330748 -0.397051 0.635393
30.448681 -0.531484 -0.637906
30.434622 -0.531238 -0.212510
30.362032 -0.662502 0.212021
30.326128 -0.661718 0.635393
30.432890 -0.796913 -0.637697
30.428827 -0.796807 -0.212510
30.345100 -0.927127 0.211951
30.319199 -0.926335 0.635393
30.424776 -1.062457 -0.637697
30.420715 -1.062315 -0.212510
30.345846 -1.192291 0.212021
30.309959 -1.190882 0.635393
30.454300 -1.329663 -0.638534
30.440258 -1.329050 -0.212719
30.324299 -1.456581 0.211951
30.338358 -1.457256 0.636231
30.491457 -1.597990 -0.639582
30.477430 -1.597255 -0.213068
30.400286 -1.726253 0.212579
30.364414 -1.724216 0.637068
30.496309 -1.865234 -0.640000
30.462332 -1.863156 -0.213068
30.384064 -1.991477 0.212579
30.348211 -1.989127 0.637068
30.528738 -2.134777 -0.641047
30.474838 -2.131008 -0.213278
30.405416 -2.259513 0.212859
30.369579 -2.256850 0.637906
30.479046 -2.398753 -0.640419
30.455082 -2.396867 -0.213278
30.464266 -2.531385 0.213417
30.468290 -2.531720 0.640419
30.526670 -2.670738 -0.641885
30.522661 -2.670387 -0.213906
30.480846 -2.800796 0.213696
30.484859 -2.801165 0.641257
30.542009 -2.940861 -0.642723
30.538012 -2.940476 -0.214185
30.495043 -3.070689 0.213976
30.459255 -3.067086 0.641257
30.525126 -3.208320 -0.642932
30.471409 -3.202674 -0.213906
30.506845 -3.341043 0.214255
30.471083 -3.337126 0.642095
30.495966 -3.474576 -0.642932
30.521784 -3.477518 -0.214464
30.555971 -3.616538 0.214813
30.520229 -3.612307 0.643770
30.623257 -3.760063 -0.646283
30.609377 -3.758359 -0.215302
30.562927 -3.888095 0.215093
30.378448 -3.864627 0.641466
30.579367 -4.025850 -0.646074
30.575415 -4.025330 -0.215302
30.567469 -4.160050 0.215372
30.412912 -4.139016 0.642932
30.592573 -4.299506 -0.647121
30.618343 -4.303127 -0.215861
30.460728 -4.416595 0.214883
30.415211 -4.409996 0.643770
30.652767 -4.581087 -0.649215
30.599405 -4.573112 -0.216000
30.450676 -4.686807 0.215093
30.415094 -4.681331 0.644608
30.611624 -4.848405 -0.649215
30.499073 -4.830578 -0.215581
30.448095 -4.958787 0.215372
30.373085 -4.946571 0.644608
30.538567 -5.110404 -0.648587
30.495207 -5.103148 -0.215861
30.393808 -5.222611 0.215302
30.368176 -5.218207 0.645445
30.571575 -5.390594 -0.650262
30.488905 -5.376017 -0.216140
30.435637 -5.503660 0.215930
30.360836 -5.490133 0.646283
30.523369 -5.657172 -0.650262
30.440830 -5.641874 -0.216140
30.425747 -5.776509 0.216210
30.390348 -5.769788 0.647958
30.561167 -5.940489 -0.652147
30.459148 -5.920659 -0.216629
30.423218 -6.051554 0.216559
30.338840 -6.034771 0.647958
30.537554 -6.212935 -0.652775
30.494514 -6.204179 -0.217257
30.437782 -6.331068 0.217047
30.402483 -6.323726 0.650472
30.531071 -6.489579 -0.653822
30.507681 -6.484608 -0.217746
30.420464 -6.604930 0.217327
30.600166 -6.643947 0.655917
30.541603 -6.770910 -0.655288
30.537794 -6.770066 -0.218374
30.712782 -6.949593 0.219840
31.223612 -7.065182 0.670576
30.520319 -7.046171 -0.656126
30.467810 -7.034048 -0.218304
31.312847 -7.373197 0.224587
31.043989 -7.309889 0.668063
30.545162 -7.333245 -0.658011
30.765034 -7.386031 -0.220887
31.179321 -7.629531 0.224098
30.862480 -7.552001 0.665550
30.732227 -7.662405 -0.663456
31.087517 -7.750988 -0.223680
30.946789 -7.859483 0.222912
30.882614 -7.843185 0.667435
31.080402 -8.037939 -0.672461
31.318813 -8.099596 -0.225844
30.925375 -8.141972 0.223261
30.890341 -8.132749 0.669110
31.231190 -8.368372 -0.677278
31.015123 -8.310477 -0.224168
30.959270 -8.440466 0.224029
30.885715 -8.420412 0.670576
31.070267 -8.616548 -0.675393
31.008873 -8.599522 -0.224657
30.961430 -8.732026 0.224587
30.888037 -8.711328 0.672252
31.041943 -8.901134 -0.676440
30.798075 -8.831205 -0.223680
30.960854 -9.024266 0.225146
30.887629 -9.002923 0.673927
31.039774 -9.194400 -0.678116
30.988298 -9.179152 -0.225634
31.043707 -9.343096 0.226332
30.970640 -9.321105 0.677487
30.996601 -9.476612 -0.678953
30.983519 -9.472612 -0.226193
31.075592 -9.649228 0.227170
30.964504 -9.614734 0.679163
31.065283 -9.794847 -0.682304
31.004583 -9.775707 -0.226961
31.142584 -9.968820 0.228287
30.907988 -9.893724 0.679791
31.045185 -10.087193 -0.683770
31.032217 -10.082979 -0.227799
31.168365 -10.277785 0.229125
25.474840 -8.400342 0.561885
30.972391 -10.213163 0.683142
31.107676 -10.408483 -0.687121
31.094774 -10.404166 -0.228916
31.219526 -10.597601 0.230172
25.372162 -8.612688 0.561257
30.957825 -10.508765 0.684817
31.091286 -10.705588 -0.688796
31.078438 -10.701164 -0.229474
31.163620 -10.882823 0.230451
25.060066 -8.751367 0.556021
31.015961 -10.831259 0.688168
31.147469 -11.029897 -0.692147
31.087559 -11.008682 -0.230242
31.114521 -11.171254 0.230800
24.992153 -8.973100 0.556231
30.986130 -11.125157 0.689634
31.097004 -11.318384 -0.693194
31.065481 -11.306911 -0.230800
31.128429 -11.483884 0.231638
24.265686 -8.952085 0.541780
31.047323 -11.453962 0.693194
31.100061 -11.627836 -0.695498
31.087393 -11.623099 -0.231708
31.092487 -11.779890 0.232127
24.261436 -9.191836 0.543456
31.011633 -11.749256 0.694660
31.118746 -11.945367 -0.698220
31.068800 -11.926195 -0.232336
31.072386 -12.083389 0.232755
24.841881 -9.660479 0.558325
31.094282 -12.091905 0.698849
31.087736 -12.245785 -0.699896
31.075190 -12.240843 -0.233174
31.067923 -12.394844 0.233523
31.145441 -12.425771 0.702409
31.118736 -12.572785 -0.703037
31.115532 -12.571491 -0.234291
25.942268 -10.613262 0.195685
31.069637 -12.710924 0.234361
23.522079 -9.623137 0.532356
31.211634 -12.769017 0.706388
31.090965 -12.878300 -0.704922
26.062006 -10.795237 -0.196941
31.078550 -12.873157 -0.234850
26.033098 -10.916584 0.197081
31.105082 -13.043443 0.235478
23.732246 -9.951757 0.539058
31.145117 -13.060231 0.707435
25.943340 -11.012295 -0.590367
31.124647 -13.211629 -0.708273
25.985218 -11.030071 -0.197081
31.093897 -13.198576 -0.235827
23.695047 -10.180196 0.180047
25.550961 -10.977559 0.194149
31.118700 -13.369649 0.236455
23.901705 -10.268983 0.544922
31.094261 -13.359149 0.708901
31.145699 -13.542535 -0.711414
25.961338 -11.288311 -0.197639
31.170113 -13.553150 -0.237293
25.600637 -11.264550 0.195266
31.119831 -13.693054 0.237363
24.177225 -10.638234 0.553299
31.058859 -13.666224 0.710786
25.610197 -11.402394 -0.587225
31.163336 -13.874810 -0.714555
25.880112 -11.522569 -0.197779
31.169411 -13.877516 -0.238201
25.720181 -11.586097 0.196941
31.108562 -14.013386 0.238201
31.047804 -13.986016 0.713299
25.400547 -11.575696 -0.584712
31.159338 -14.200129 -0.717278
25.541990 -11.640156 -0.195964
31.174513 -14.207045 -0.239178
25.409227 -11.713814 0.195336
31.094065 -14.334560 0.239038
31.106161 -14.340137 0.717487
25.452602 -11.868743 -0.588273
31.170151 -14.534880 -0.720419
25.403189 -11.845701 -0.195685
31.121851 -14.512358 -0.239736
25.713034 -12.127054 0.198477
31.112499 -14.673607 0.240155
25.536211 -12.043659 0.591414
31.079306 -14.657952 0.719791
23.615477 -11.264005 -0.548063
31.213577 -14.888113 -0.724398
25.325926 -12.079847 -0.195894
31.183561 -14.873796 -0.241203
25.299997 -12.203270 0.196104
31.154392 -15.027095 0.241482
25.394119 -12.248670 0.590576
31.094290 -14.998105 0.723142
23.372505 -11.399533 -0.544712
25.295504 -12.337441 -0.589529
31.181313 -15.208142 -0.726702
25.246510 -12.313545 -0.196104
31.124479 -15.180423 -0.241761
24.600620 -12.131683 0.191496
31.102789 -15.338198 0.242110
24.909660 -12.284085 0.581780
31.105692 -15.339630 0.726493
23.621086 -11.777039 -0.552880
25.088455 -12.508643 -0.587225
31.172674 -15.542123 -0.729634
25.639244 -12.783256 -0.200013
31.134008 -15.522843 -0.242878
23.109732 -11.648264 0.180675
24.315224 -12.255882 0.190100
31.190994 -15.721556 0.243855
24.203350 -12.199492 0.567749
25.122917 -12.662992 0.589320
31.149202 -15.700491 0.730681
23.205629 -11.823859 -0.545550
25.085241 -12.781569 -0.589739
22.951769 -11.694510 -0.179837
24.420706 -12.577490 0.191775
24.353727 -12.542994 0.573822
31.250988 -16.095316 0.736335
23.092697 -12.021297 -0.545341
31.269142 -16.277685 -0.738430
23.230247 -12.092901 -0.182839
23.973730 -12.613190 0.189122
31.203903 -16.417168 0.246159
24.526478 -12.904004 0.580524
31.153582 -16.390692 0.737383
22.960430 -12.208278 -0.544712
23.547638 -12.520501 -0.186190
31.193779 -16.586025 -0.246648
23.959644 -12.873981 0.189890
31.182772 -16.755108 0.247137
22.175964 -11.915575 0.527330
23.893324 -12.838346 0.568168
31.185499 -16.756573 0.741571
24.636627 -13.376597 -0.587225
31.243883 -16.964045 -0.744712
23.604452 -12.816172 -0.187517
31.197247 -16.938723 -0.247835
31.175644 -17.103544 0.248254
23.885565 -13.104070 0.570681
31.178331 -17.105019 0.744922
24.011789 -13.309953 -0.575079
31.208332 -17.299061 -0.747435
23.220587 -12.871382 -0.185352
31.153194 -17.268497 -0.248672
31.129898 -17.433580 0.249091
23.779024 -13.316894 0.570890
31.158722 -17.449722 0.748063
24.347212 -13.774989 -0.585969
31.308531 -17.713514 -0.753508
31.262415 -17.687424 -0.250767
23.544977 -13.457064 0.189332
31.184942 -17.823662 0.250767
23.713989 -13.553661 0.572147
31.187542 -17.825150 0.752461
24.113518 -13.921946 -0.583246
31.273977 -18.056040 -0.756440
23.563976 -13.604669 -0.189960
31.271416 -18.054560 -0.252093
23.763536 -13.858484 0.192054
31.235531 -18.216022 0.252442
23.551628 -13.734903 0.571100
31.203531 -18.197361 0.756650
23.948038 -14.106472 -0.582199
31.278893 -18.424677 -0.760419
31.250528 -18.407969 -0.253210
23.650288 -14.070443 0.192124
31.247255 -18.590164 0.253839
22.236561 -13.229363 0.541990
31.215387 -18.571203 0.760838
20.918865 -12.569323 -0.511204
23.781176 -14.289172 -0.581152
31.271175 -18.789618 -0.764189
20.914373 -12.566623 -0.170343
23.485811 -14.111699 -0.191287
31.251558 -18.777830 -0.254537
23.629189 -14.338544 0.192962
31.254816 -18.965889 0.255235
31.188892 -18.925884 0.764189
21.004446 -12.871541 -0.516021
22.266077 -13.644670 -0.547016
31.353228 -19.213282 -0.770262
23.771029 -14.566905 -0.194638
31.282606 -19.170006 -0.256142
24.549070 -15.191425 0.201549
31.258186 -19.343153 0.256631
21.772745 -13.473383 0.536335
23.651611 -14.636061 0.582618
31.235088 -19.328859 0.769424
20.704792 -12.937790 -0.511414
22.307253 -13.939118 -0.550995
31.328505 -19.576223 -0.773822
23.914373 -14.943359 -0.196872
31.292212 -19.553545 -0.257609
21.142681 -13.340037 0.174532
23.662888 -14.930170 0.195336
31.282709 -19.737921 0.258237
22.398417 -14.132348 0.554765
23.624453 -14.905920 0.585131
31.217422 -19.696728 0.773194
20.970545 -13.359711 -0.520838
24.646925 -15.701823 -0.612147
31.358849 -19.977791 -0.778849
20.814394 -13.260231 -0.172298
24.567394 -15.651156 -0.203364
31.297493 -19.938702 -0.259075
21.025463 -13.524033 0.174532
23.573750 -15.163145 0.195685
31.269068 -20.112940 0.259563
20.987730 -13.499762 0.522723
23.628014 -15.198049 0.588482
31.246155 -20.098202 0.778220
21.163403 -13.743674 -0.528587
31.351015 -20.359587 -0.783037
20.723045 -13.457703 -0.172507
24.161510 -15.690668 -0.201130
31.281651 -20.314541 -0.260401
20.881556 -13.690548 0.174322
31.259615 -20.494701 0.260960
22.248693 -14.586883 0.557278
23.536293 -15.431069 0.589529
31.169910 -20.435888 0.780733
21.092684 -13.960943 -0.529843
31.397253 -20.781387 -0.788692
20.980057 -13.886396 -0.175649
31.345005 -20.746805 -0.262426
21.334990 -14.255585 0.179139
30.938231 -20.672264 0.259773
23.583620 -15.758071 0.594136
30.666187 -20.490492 0.772566
20.746260 -13.993528 -0.524189
23.572657 -15.899959 -0.595602
24.907116 -16.800062 -0.629320
21.330616 -14.387683 -0.179628
24.522333 -16.540524 -0.206506
31.311987 -21.120201 -0.263682
30.012743 -20.434950 0.253490
31.302191 -21.312902 0.264380
19.197468 -13.071091 0.486492
30.114325 -20.504114 0.763142
31.229977 -21.263733 0.791414
21.125961 -14.519471 -0.536964
31.408800 -21.586670 -0.798325
19.531315 -13.423501 -0.165456
25.126995 -17.269306 -0.212859
31.390202 -21.573887 -0.265916
19.579369 -13.582692 0.166363
21.091164 -14.631460 0.179209
25.495083 -17.686569 0.216629
19.197678 -13.317903 0.489424
26.385511 -18.304281 0.672671
20.957504 -14.674602 -0.535917
31.415781 -21.997566 -0.803351
31.380951 -21.973177 -0.267452
19.574421 -13.833833 0.167341
21.272995 -15.034266 0.181862
19.350161 -13.675341 0.496335
21.308870 -15.199470 -0.548273
31.442385 -22.427635 -0.809006
21.231615 -15.144364 -0.182071
31.399670 -22.397167 -0.269267
19.371799 -13.945700 0.166643
21.092295 -15.184278 0.181443
25.693806 -18.496893 0.221027
18.735134 -13.487366 0.483560
25.088364 -18.061037 0.647540
20.948944 -15.220299 -0.542409
19.488745 -14.159402 -0.168179
26.527021 -19.273008 -0.228916
18.733252 -13.735788 0.162175
20.999306 -15.397328 0.181792
18.802164 -13.786317 0.488377
20.702812 -15.319275 -0.539477
25.942808 -19.196669 -0.676021
20.650579 -15.280625 -0.179349
22.065332 -16.327488 -0.191636
23.576548 -17.445726 -0.204760
21.016375 -15.693672 0.183118
24.661991 -18.415983 0.214883
19.482220 -14.548063 0.509320
21.436850 -16.007654 0.560419
31.354197 -23.413288 0.819686
20.568338 -15.499355 -0.539477
31.515230 -23.748430 -0.826597
27.105028 -20.425104 -0.236944
18.657833 -14.187745 0.163641
31.409473 -23.884319 0.275481
19.450022 -14.790141 0.511833
21.208801 -16.127546 0.558115
20.583004 -15.793895 -0.543456
26.611168 -20.419466 -0.702618
31.520947 -24.186874 -0.832252
26.671890 -20.466061 -0.234710
31.479494 -24.155066 -0.277016
20.897417 -16.180508 0.184515
31.429144 -24.335043 0.277505
19.051439 -14.751201 0.504712
31.359776 -24.281334 0.830786
18.585096 -14.520269 -0.494032
20.594084 -16.089861 -0.547435
26.203489 -20.472410 -0.696545
18.659639 -14.578508 -0.165316
26.374077 -20.605688 -0.233663
18.800030 -14.820748 0.167131
22.946402 -18.089485 0.203992
18.694296 -14.737394 0.498639
31.397936 -24.752138 0.837487
18.348137 -14.594767 -0.491100
20.405945 -16.231621 -0.546178
22.565470 -17.949385 -0.603979
18.343887 -14.591388 -0.163641
20.589918 -16.377960 -0.183677
18.599792 -14.927911 0.166503
18.292078 -14.680944 0.491309
31.360075 -25.169121 0.842304
18.460938 -14.949373 -0.497592
20.620930 -16.698500 -0.555812
31.537436 -25.538513 -0.850053
18.588879 -15.052977 -0.166992
18.523020 -15.133943 0.166992
21.659235 -17.696337 0.195266
18.589090 -15.187923 0.502828
31.425703 -25.675877 0.850053
18.653790 -15.376998 -0.506388
31.560238 -26.016253 -0.856754
18.456810 -15.214621 -0.166992
21.720703 -17.905165 -0.196522
18.651648 -15.512412 0.169365
21.688499 -18.038136 0.196941
18.678759 -15.534960 0.508901
31.446421 -26.153713 0.856754
18.327423 -15.378534 -0.501152
31.546450 -26.470615 -0.862618
18.231413 -15.297973 -0.166154
21.514999 -18.213791 0.196802
31.467308 -26.639042 0.287837
18.084642 -15.309780 0.496335
31.400127 -26.582170 0.861781
18.177319 -15.524898 -0.500733
24.259233 -20.719341 -0.668273
31.587938 -26.978649 -0.870158
18.606680 -15.891606 -0.170831
31.518059 -26.918966 -0.289373
21.711283 -18.707638 0.200083
31.476059 -27.121508 0.290071
21.525274 -18.547363 0.595184
31.447199 -27.096642 0.869529
18.410875 -16.004330 -0.510995
19.904873 -17.303041 -0.552461
22.379776 -19.454443 -0.621152
18.444653 -16.033691 -0.170622
22.572813 -19.622248 -0.208809
31.546091 -27.422600 -0.291817
31.486284 -27.612730 0.292375
21.400185 -18.767458 0.596231
31.442562 -27.574387 0.876021
18.285488 -16.177633 -0.511414
18.296543 -16.187414 -0.170552
22.153570 -19.599823 -0.206506
31.475393 -28.092863 0.294539
18.759228 -16.743252 0.526702
20.206263 -18.034779 0.567330
18.106468 -16.303137 -0.510367
18.050549 -16.252787 -0.169575
18.171911 -16.506203 0.171390
20.747808 -18.845982 0.195685
18.945429 -17.208815 0.536126
19.892700 -18.069256 0.562932
18.147787 -16.629383 -0.515602
19.703100 -18.054565 -0.559791
20.599028 -18.875530 -0.195056
22.479038 -20.598244 -0.212859
18.262156 -16.881363 0.173624
31.589785 -29.201296 0.300334
18.647701 -17.237757 0.531937
21.408148 -19.789488 0.610681
18.045851 -16.828028 -0.516859
31.638735 -29.503597 -0.906179
31.586397 -29.454792 -0.301521
18.048594 -16.978420 0.172996
17.892149 -16.831253 0.514555
21.059868 -19.811146 0.605655
20.146481 -19.118296 -0.581780
22.220596 -21.086559 -0.641676
31.641144 -30.026323 -0.913718
17.575392 -16.678425 -0.169156
31.596539 -29.983995 -0.304104
17.834732 -17.073042 0.172367
17.997362 -17.228725 0.521885
31.502605 -30.157185 0.913508
18.001127 -17.383486 -0.524189
22.122040 -21.363005 -0.644189
31.608051 -30.523540 -0.920419
17.803226 -17.192375 -0.172786
22.032841 -21.276867 -0.213836
31.484735 -30.404455 -0.305570
17.749529 -17.290827 0.172996
17.452450 -17.001425 0.510367
18.148243 -17.834229 -0.532985
31.682768 -31.134569 -0.930472
17.673916 -17.368109 -0.172996
20.077511 -19.730116 -0.196522
31.646151 -31.098587 -0.309759
18.343641 -18.184258 0.180326
31.566971 -31.292692 0.310317
17.679737 -17.526121 0.521466
18.801584 -18.638222 0.554555
17.900017 -17.900017 -0.530262
31.692644 -31.692644 -0.938849
17.691381 -17.691381 -0.174671
17.684420 -17.839422 0.175369
17.512045 -17.665537 0.521047
17.588964 -17.898661 -0.525655
31.646120 -32.203327 -0.945760
17.445206 -17.752371 -0.173764
18.818954 -19.150309 -0.187447
31.603228 -32.159679 -0.314785
18.937572 -19.439960 0.189471
19.935389 -20.464249 0.199455
17.385124 -17.846329 0.521885
20.922146 -21.477184 0.628063
31.725035 -32.852234 -0.956650
18.977604 -19.651884 -0.190728
21.346331 -22.104773 -0.214534
31.627026 -32.750744 -0.317857
19.126785 -19.980101 0.193102
21.166698 -22.111023 0.213696
19.019352 -19.867874 0.576126
20.547260 -21.463949 0.622409
18.787958 -19.798378 -0.571728
31.678013 -33.381660 -0.963980
21.152620 -22.290211 -0.214534
31.642889 -33.344646 -0.320929
19.760197 -21.005707 0.201340
21.089418 -22.418713 0.214883
19.194616 -20.404478 0.586807
21.478237 -23.032589 -0.659686
31.740061 -34.037048 -0.974870
19.886587 -21.325754 -0.203574
31.698511 -33.992493 -0.324489
20.743645 -22.440350 0.213347
19.796276 -21.415489 0.610890
31.684986 -34.578094 -0.982409
19.848356 -21.660681 -0.205109
21.341375 -23.290024 -0.220538
31.664141 -34.555347 -0.327212
19.854507 -21.858109 0.206157
19.749804 -21.742840 0.615288
20.109655 -22.334034 -0.629529
31.703144 -35.209911 -0.992461
21.244379 -23.594273 -0.221655
31.635725 -35.135033 -0.330074
20.022573 -22.433399 0.209927
31.575338 -35.377178 0.331051
19.818949 -22.205257 0.623456
19.827869 -22.411329 -0.626807
31.686167 -35.814697 -1.001676
19.818483 -22.400721 -0.208809
21.143690 -23.898594 -0.222772
31.562115 -35.989693 0.334193
19.677156 -22.437496 0.625131
31.529594 -35.952610 1.001676
31.641346 -36.399204 -1.010262
31.581911 -36.330833 -0.336078
31.481836 -36.536469 0.336706
20.126696 -23.358181 0.645864
31.430016 -36.476330 1.008587
31.627676 -37.031250 -1.020105
31.549417 -36.939621 -0.339150
31.471931 -37.176147 0.340057
31.349520 -37.031548 1.016336
31.534670 -37.581558 -1.027645
31.527964 -37.573563 -0.342431
31.382902 -37.733837 0.342640
31.057135 -37.342144 1.017383
31.356112 -38.377964 0.345991
31.248789 -38.246605 1.034556
31.088861 -38.735920 0.346759
31.020222 -38.650394 1.038116
30.774410 -39.037155 0.347038
30.817928 -39.092354 1.042723
30.750925 -39.715370 0.350669
30.671480 -39.612766 1.049425
30.500021 -40.109562 0.351786
30.306475 -39.855038 1.048796
29.957382 -40.117802 0.349552
29.766102 -39.861645 1.042095
29.440590 -40.151897 0.347597
29.227938 -39.861877 1.035393
28.948866 -40.212509 0.345921
0.134348 -0.186621 0.004817
28.692049 -39.855770 1.028692
0.176660 -0.254655 0.006492
0.177778 -0.266064 0.002234
0.161080 -0.241073 0.006073
0.120622 -0.183978 0.001536
0.126080 -0.192304 0.004817
0.124421 -0.193434 0.001606
0.091945 -0.142945 0.003560
0.128064 -0.202970 0.001676
0.117369 -0.186019 0.004607
0.147336 -0.238093 0.001955
0.157830 -0.255050 0.006283
0.145253 -0.239369 0.001955
0.119292 -0.196587 0.004817
0.117595 -0.197659 0.001606
0.102236 -0.171844 0.004188
0.135989 -0.233184 0.005654