# This PCD file was generated using the MATLAB® pcwrite function
# from Computer Vision System Toolbox®.
# .PCD v.7 - Point Cloud Data file format
VERSION .7
FIELDS x y z
SIZE 4 4 4
TYPE F F F
COUNT 1 1 1
WIDTH 856
HEIGHT 1
VIEWPOINT 0 0 0 1 0 0 0
POINTS 856
DATA ascii
27.044699 29.514111 -0.838534
27.137796 29.615709 -0.280437
27.546692 29.540209 -0.846074
27.667999 29.670296 -0.283230
28.078707 29.588783 -0.854451
28.208082 29.725117 -0.286092
29.340635 29.857246 -0.876859
29.395418 29.912994 -0.292794
29.748528 29.748528 -0.881257
29.909887 29.909887 -0.295307
30.406328 29.880217 -0.892985
30.569170 30.040239 -0.299217
27.947414 26.988504 -0.813822
27.880932 26.924303 -0.270594
28.036823 26.605951 -0.809634
27.940741 26.514772 -0.268918
28.099758 26.203449 -0.804817
28.032104 26.140360 -0.267592
28.172560 25.815395 -0.800419
28.111700 25.759626 -0.266195
28.196161 25.387938 -0.794765
28.127346 25.325975 -0.264241
28.289341 25.028296 -0.791205
28.257410 25.000046 -0.263403
28.363312 24.655849 -0.787226
28.263186 24.568811 -0.261448
28.425344 24.277536 -0.783037
28.324432 24.191351 -0.260052
28.482944 23.900028 -0.778849
28.442537 23.866123 -0.259214
28.474417 23.472498 -0.772985
28.433674 23.438911 -0.257259
28.616009 23.172787 -0.771309
28.543875 23.114374 -0.256422
28.629353 22.772816 -0.766283
28.587978 22.739906 -0.255025
28.606396 22.349766 -0.760419
28.564693 22.317184 -0.253071
28.705160 22.026245 -0.757906
28.639359 21.975752 -0.252023
28.768526 21.678640 -0.754555
28.694275 21.622686 -0.250837
28.828022 21.331614 -0.751205
28.753260 21.276293 -0.249720
29.037340 21.096863 -0.751833
28.962103 21.042200 -0.249929
28.762001 20.515736 -0.246648
28.500238 19.956081 -0.728796
28.406937 19.523548 -0.240644
28.587234 19.282333 -0.722304
28.708872 19.364378 -0.241761
28.992640 19.372261 0.243437
28.887232 19.301832 0.727749
29.071222 19.241821 -0.730262
29.035196 19.217978 -0.243087
28.984972 19.003380 0.241970
28.912434 18.955822 0.724189
29.112255 18.905720 -0.727121
28.824406 18.718788 -0.239946
29.023548 18.668573 0.240923
28.984257 18.643301 0.721885
28.694317 18.280296 -0.712671
28.581841 18.208639 -0.236595
29.016214 18.307867 0.239527
28.951370 18.266954 0.717068
28.810354 18.002707 -0.711623
28.637886 17.894938 -0.235757
29.041662 17.971525 0.715393
28.838491 17.672249 -0.708482
28.690641 17.581648 -0.234919
28.570459 17.336979 0.233314
29.094818 17.655169 0.712880
28.837355 17.327230 -0.704712
28.714405 17.253355 -0.233872
29.210512 17.378429 0.237293
29.110304 17.318811 0.709529
29.357882 17.293114 -0.713718
29.311911 17.266035 -0.237502
29.222843 17.042259 0.236176
29.122145 16.983534 0.706178
29.403772 16.976276 -0.711205
29.322906 16.929588 -0.236385
29.274950 16.732012 0.235408
29.208483 16.694023 0.704712
29.481184 16.679651 -0.709529
29.365086 16.613966 -0.235548
29.271528 16.392843 0.234221
29.204760 16.355452 0.701152
29.450731 16.324806 -0.705341
29.438982 16.318295 -0.234989
29.378397 16.117540 0.233942
29.320078 16.085546 0.700524
29.521778 16.029018 -0.703665
29.474808 16.003515 -0.234151
29.341755 15.765894 0.232546
29.283194 15.734427 0.696335
29.519293 15.695686 -0.700315
29.436756 15.651800 -0.232755
29.416273 15.476649 0.232057
29.348602 15.441047 0.694660
29.584192 15.400556 -0.698639
29.536741 15.375854 -0.232476
29.443531 15.164414 0.231219
29.375572 15.129414 0.692147
29.610561 15.087335 -0.696126
29.562876 15.063038 -0.231638
29.503305 14.870890 0.230661
29.970728 15.106491 0.703037
29.669516 14.792674 -0.694451
29.585810 14.750940 -0.230800
29.909977 14.749969 0.232825
32.833710 16.191793 0.255584
30.460085 15.021252 0.711414
32.744873 15.970741 -0.763142
33.056839 16.122898 -0.256771
33.793373 16.299990 0.261937
30.653044 14.785274 0.712880
33.732758 16.270750 0.784503
33.713192 16.080368 -0.782409
33.927353 16.182518 -0.262426
33.907196 15.991673 0.261727
30.871326 14.559863 0.714974
33.828247 15.954436 0.783456
34.115005 15.908088 -0.788482
34.031029 15.868929 -0.262146
33.927402 15.640747 0.260820
33.820915 15.591655 0.780105
34.216137 15.593192 -0.787644
34.086319 15.534030 -0.261518
33.989662 15.311226 0.260261
33.882763 15.263072 0.778430
34.268707 15.257412 -0.785760
34.156631 15.207513 -0.261029
34.048756 14.981812 0.259703
33.941456 14.934599 0.776754
34.336369 14.929877 -0.784294
34.251358 14.892915 -0.260750
34.104698 14.652534 0.259144
33.997005 14.606266 0.775079
34.391724 14.598420 -0.782618
34.269562 14.546565 -0.259912
34.203602 14.342760 0.258935
34.086292 14.293569 0.774241
34.443913 14.267136 -0.780943
34.367481 14.235476 -0.259703
34.281185 14.024803 0.258586
34.218983 13.999355 0.774451
34.492943 13.936054 -0.779267
34.406956 13.901312 -0.259075
34.337254 13.699175 0.258097
34.367702 13.711323 0.775079
34.501617 13.590549 -0.776754
34.415306 13.556550 -0.258237
34.530048 13.428002 0.258656
34.486046 13.410890 0.775079
34.665573 13.306867 -0.777801
34.569641 13.270041 -0.258516
34.599159 13.108449 0.258307
34.498920 13.070472 0.772775
34.761646 12.996847 -0.777383
34.721592 12.981872 -0.258795
34.646561 12.781792 0.257818
34.536629 12.741235 0.771100
34.836159 12.679325 -0.776545
34.767780 12.654437 -0.258307
34.681492 12.451927 0.257259
34.608860 12.425851 0.770262
34.888935 12.354819 -0.775288
34.801476 12.323849 -0.257748
34.864357 12.175179 0.257818
34.706539 12.120067 0.770053
35.108860 12.088949 -0.777801
35.058975 12.071773 -0.258865
34.921932 11.854399 0.257469
34.810986 11.816737 0.770053
35.165611 11.766249 -0.776754
35.039703 11.724121 -0.257958
34.995560 11.539805 0.257259
34.770355 11.465544 0.766911
35.200390 11.437300 -0.775288
35.112152 11.408629 -0.257748
35.009216 11.206538 0.256631
34.907173 11.173874 0.767749
35.298859 11.129687 -0.775288
35.172222 11.089760 -0.257469
35.115227 10.903568 0.256701
27.212099 8.449581 0.596859
35.012901 10.871795 0.767959
35.356396 10.809534 -0.774451
35.258099 10.779482 -0.257399
35.132439 10.573664 0.256142
35.049000 10.548552 0.766702
35.334343 10.466510 -0.771938
35.235767 10.437309 -0.256561
35.175369 10.252686 0.255793
35.062931 10.219912 0.765027
35.414726 10.155009 -0.771728
35.287056 10.118401 -0.256282
35.225002 9.934479 0.255514
35.150780 9.913545 0.765027
35.463459 9.834888 -0.770890
35.374012 9.810081 -0.256282
35.271767 9.616187 0.255235
35.197369 9.595904 0.764189
35.518959 9.517277 -0.770262
35.419636 9.490664 -0.256003
35.315659 9.297836 0.254956
35.241093 9.278206 0.763351
35.552265 9.194441 -0.769215
35.462383 9.171196 -0.255724
35.434219 8.999146 0.255235
35.281960 8.960476 0.762514
35.592342 8.874167 -0.768377
35.541065 8.861383 -0.255724
35.433697 8.670570 0.254676
35.319962 8.642740 0.761676
35.590656 8.544560 -0.766702
35.539253 8.532220 -0.255165
35.508011 8.361027 0.254676
35.355114 8.325024 0.760838
35.702831 8.242648 -0.767540
35.651333 8.230759 -0.255444
35.579620 8.050846 0.254676
35.426414 8.016179 0.760838
35.734360 7.922116 -0.766702
35.682751 7.910675 -0.255165
35.648521 7.740053 0.254676
35.495018 7.706724 0.760838
35.763012 7.601663 -0.765864
35.721081 7.592750 -0.254956
35.636387 7.412379 0.254118
35.521767 7.388538 0.760000
35.788799 7.281313 -0.765027
35.746780 7.272765 -0.254676
35.699715 7.101115 0.254118
35.584892 7.078275 0.760000
35.939304 6.985893 -0.766911
35.848152 6.968175 -0.254956
35.760323 6.789310 0.254118
35.645306 6.767473 0.760000
35.989067 6.670179 -0.766702
35.907593 6.655079 -0.254956
35.818207 6.476987 0.254118
35.703007 6.456155 0.760000
36.006519 6.348921 -0.765864
35.924911 6.334531 -0.254676
35.873367 6.164172 0.254118
35.797398 6.151118 0.760838
36.060555 6.034467 -0.765864
35.978821 6.020790 -0.254676
35.925793 5.850887 0.254118
35.810242 5.832068 0.760000
36.111839 5.719554 -0.765864
36.069500 5.712847 -0.254956
35.975483 5.537156 0.254118
35.859772 5.519347 0.760000
36.199928 5.410116 -0.766702
36.117981 5.397868 -0.254956
36.022434 5.223004 0.254118
35.946148 5.211944 0.760838
36.245762 5.094010 -0.766702
36.124100 5.076911 -0.254676
36.066639 4.908454 0.254118
35.950638 4.892667 0.760000
36.249187 4.772296 -0.765864
36.157112 4.760174 -0.254607
36.108101 4.593531 0.254118
35.991962 4.578756 0.760000
36.289452 4.455784 -0.765864
36.207203 4.445685 -0.254676
36.146812 4.278257 0.254118
36.080193 4.270372 0.761048
36.366688 4.143461 -0.766702
36.274426 4.132948 -0.254886
36.232471 3.968101 0.254467
36.155838 3.959708 0.761885
36.401463 3.825948 -0.766702
36.319054 3.817286 -0.254956
36.265720 3.651766 0.254467
36.179070 3.643041 0.761676
36.473270 3.511976 -0.767540
36.390797 3.504035 -0.255235
36.296204 3.335153 0.254467
36.209480 3.327184 0.761676
36.502529 3.193558 -0.767540
36.459839 3.189822 -0.255514
36.323929 3.018286 0.254467
36.286957 3.015213 0.762723
36.529007 2.874895 -0.767540
36.486286 2.871533 -0.255514
36.428661 2.707117 0.255025
36.311886 2.698439 0.762723
36.602570 2.559501 -0.768587
36.499981 2.552327 -0.255444
36.450897 2.389118 0.255025
36.373959 2.384075 0.763561
36.533699 2.234497 -0.766702
36.490917 2.231880 -0.255235
36.460377 2.070370 0.254956
36.393375 2.066566 0.763561
36.671619 1.921878 -0.769215
36.628838 1.919636 -0.256073
36.526997 1.754517 0.255305
36.449970 1.750818 0.764398
36.657028 1.600480 -0.768587
36.594246 1.597739 -0.255724
36.540916 1.435696 0.255305
33.696602 1.323943 0.706388
36.779507 1.284369 -0.770890
31.779854 1.109777 -0.222004
36.636776 1.279384 -0.255933
31.654457 0.967131 0.221097
33.743431 1.030955 0.235687
33.596951 1.026480 0.704084
34.020874 0.890868 -0.712880
31.688364 0.829789 -0.221306
33.877560 0.887115 -0.236595
31.601707 0.689552 0.220678
33.651169 0.734271 0.234989
31.545570 0.688327 0.660943
33.424709 0.729330 0.700315
33.837421 0.590634 -0.708901
31.624413 0.552006 -0.220817
31.616520 0.413883 0.220747
33.496315 0.438491 0.233872
31.340439 0.410269 0.656545
33.319836 0.436181 0.698011
32.921524 0.287302 -0.689634
31.878010 0.278195 -0.222563
33.517906 0.292506 -0.234012
31.678926 0.138226 0.221166
33.388870 0.145687 0.233104
31.462799 0.137283 0.659058
33.332371 0.145441 0.698220
32.882786 0.000000 -0.688796
32.559208 0.000000 -0.227310
31.638927 -0.138052 0.220887
33.318871 -0.145382 0.232616
31.522785 -0.137545 0.660315
33.422352 -0.145833 0.700105
32.881535 -0.286953 -0.688796
32.717957 -0.285525 -0.228427
31.646517 -0.414276 0.220957
33.406322 -0.437313 0.233244
31.880274 -0.417336 0.667854
33.439800 -0.437751 0.700524
32.877777 -0.573884 -0.688796
32.674225 -0.570331 -0.228148
31.621702 -0.689988 0.220817
31.455610 -0.686364 0.659058
33.454697 -0.729984 0.700943
32.631653 -0.854490 -0.683770
32.827946 -0.859630 -0.229265
31.404579 -0.959497 0.219351
33.483559 -1.023015 0.233872
31.118650 -0.950761 0.652147
33.536991 -1.024648 0.702828
32.622955 -1.139219 -0.683770
32.969101 -1.151306 -0.230312
31.225147 -1.226839 0.218164
33.453373 -1.314387 0.233733
31.229050 -1.226993 0.654660
33.516781 -1.316878 0.702618
32.691677 -1.427349 -0.685445
30.839867 -1.346498 -0.215512
32.708042 -1.428064 -0.228566
30.454145 -1.462817 0.212859
31.137262 -1.495630 0.652985
33.523987 -1.610273 0.703037
30.900806 -1.619443 -0.648168
33.666401 -1.764381 -0.706178
30.816956 -1.615048 -0.215442
33.613052 -1.761585 -0.234989
30.270498 -1.718883 0.211672
32.127460 -1.824329 0.224657
30.104889 -1.709479 0.631623
33.538605 -1.904460 0.703665
30.306705 -1.853638 -0.636021
33.869267 -2.071533 -0.710786
30.522219 -1.866819 -0.213487
33.835945 -2.069495 -0.236665
30.144583 -1.975780 0.210904
30.128731 -1.974741 0.632461
33.919762 -2.223219 0.712042
30.648420 -2.143146 -0.643561
32.663059 -2.284024 -0.685864
30.125700 -2.106594 -0.210834
34.195663 -2.391194 -0.239318
29.408192 -2.185406 0.205877
28.624773 -2.127188 0.601257
29.970766 -2.227213 0.629529
29.861094 -2.350119 -0.627435
29.856947 -2.349793 -0.209089
29.706894 -2.468452 0.208111
28.435741 -2.362828 0.597697
30.259056 -2.514334 0.636021
30.018723 -2.626298 -0.631205
28.729555 -2.513510 -0.201340
30.323427 -2.652956 -0.212510
37.346428 -3.267389 -0.261727
28.598820 -2.627862 0.200502
28.175098 -2.588928 0.592671
29.755819 -2.865160 -0.626178
37.548061 -3.615467 -0.790157
28.905602 -2.783293 -0.202736
37.475754 -3.608505 -0.262844
28.017632 -2.821227 0.196592
28.439911 -2.863749 0.598744
27.800734 -2.921975 -0.585550
29.998144 -3.152932 -0.631833
37.525024 -3.944039 -0.790367
27.776320 -2.919409 -0.194987
27.882601 -3.053641 0.195824
27.847349 -3.049781 0.586807
37.298752 -4.084878 0.785969
28.171518 -3.209739 -0.593927
30.495966 -3.474576 -0.642932
37.648113 -4.289461 -0.793718
27.739851 -3.160557 -0.194917
28.073360 -3.322701 0.197360
27.948746 -3.307952 0.589529
30.371302 -3.594681 0.640629
28.350824 -3.481044 -0.598325
30.533947 -3.749097 -0.644398
27.830317 -3.417133 -0.195755
28.063137 -3.570082 0.197500
28.325447 -3.603452 0.598116
30.626394 -3.896169 0.646702
28.081472 -3.696996 -0.593299
37.775677 -4.973262 -0.798116
27.730038 -3.650729 -0.195266
27.832745 -3.787870 0.196104
31.013348 -4.220731 0.218513
28.382082 -3.862632 0.600000
30.739826 -4.183506 0.649843
37.515862 -5.105685 0.793089
27.800629 -3.907124 -0.588063
28.786390 -4.045663 -0.202945
32.232441 -4.529974 -0.227240
27.679874 -4.013391 0.195266
27.595324 -4.001132 0.584084
30.781301 -4.463077 0.651519
37.549034 -5.444351 0.794765
27.567715 -4.120023 -0.583875
27.602760 -4.125260 -0.194847
27.604265 -4.248703 0.194987
27.598883 -4.247874 0.584922
30.869642 -4.751292 0.654241
37.579144 -5.783984 0.796440
27.708456 -4.388588 -0.587644
30.967113 -4.904709 -0.656754
27.605217 -4.372237 -0.195126
30.904015 -4.894715 -0.218444
27.694443 -4.510326 0.195894
27.925871 -4.548017 0.592671
37.606182 -6.124556 0.798116
27.373283 -4.580717 -0.581362
27.506836 -4.603065 -0.194707
27.801859 -4.777233 0.196941
27.569811 -4.737360 0.585969
27.598106 -4.866291 -0.587016
27.613337 -4.868976 -0.195755
30.695709 -5.412482 -0.217606
37.855087 -6.674873 -0.268360
27.788631 -5.025003 0.197151
30.563559 -5.526792 0.216838
37.845284 -6.843542 0.268499
27.448713 -4.963536 0.584294
27.446457 -5.086900 -0.584712
27.697617 -5.133450 -0.196662
31.237247 -5.789482 -0.221795
27.645481 -5.248659 0.196453
37.862717 -7.188461 0.269058
27.384710 -5.199150 0.583875
27.518789 -5.349111 -0.587225
27.376915 -5.321533 -0.194707
27.706509 -5.511168 0.197221
37.945660 -7.547861 0.270105
27.269657 -5.424272 0.582409
27.520048 -5.599017 -0.588273
27.554811 -5.606090 -0.196313
27.667150 -5.754776 0.197290
27.974983 -5.818805 0.598534
31.430256 -6.537503 0.672461
27.626610 -5.872217 -0.591623
27.690683 -5.885837 -0.197639
38.156609 -8.110437 -0.272339
27.645195 -6.002360 0.197500
27.268538 -5.920580 0.584503
31.665113 -6.875170 0.678744
27.720726 -6.145537 -0.594765
27.491825 -6.094791 -0.196592
27.123610 -6.137446 0.194149
27.479118 -6.217890 0.590157
31.828192 -7.201984 0.683561
28.133636 -6.495162 -0.604817
38.372021 -8.858879 -0.824922
27.749384 -6.406450 -0.198826
27.867168 -6.561847 0.199873
31.196045 -7.345694 0.223749
27.530859 -6.482657 0.592461
28.338367 -6.803440 -0.610472
28.324446 -6.800098 -0.203364
30.094116 -7.224958 -0.216070
38.290993 -9.192854 -0.274922
27.556303 -6.742984 0.198058
27.279015 -6.675132 0.588273
28.724155 -7.161736 -0.620105
38.483189 -9.594936 -0.830786
28.555107 -7.119588 -0.205458
27.506104 -6.985660 0.198128
27.113132 -6.885859 0.585969
29.458158 -7.481419 0.636650
28.689602 -7.419636 -0.620733
27.610897 -7.140664 -0.199106
26.931574 -7.090491 0.194428
27.332394 -7.196019 0.592042
28.585135 -7.659364 -0.619896
27.025946 -7.241580 -0.195336
29.286158 -7.847202 -0.211672
31.884434 -8.543408 -0.230451
27.061625 -7.377846 0.195824
29.734020 -8.106424 0.215162
31.046099 -8.464138 0.224657
27.808718 -7.581527 0.603770
28.555742 -7.919208 -0.620733
30.315075 -8.407114 -0.219630
27.641041 -7.795580 0.200502
29.450413 -8.305876 0.213627
28.203377 -7.954175 0.613822
28.379833 -8.137786 -0.618430
29.500402 -8.459105 -0.214255
29.616816 -8.632515 0.215372
38.487461 -11.218072 0.279879
28.382448 -8.272729 0.619267
28.834972 -8.541307 -0.629948
38.804512 -11.494420 -0.847749
29.645985 -8.781541 -0.215861
29.885075 -8.994387 0.217885
38.589184 -11.614027 0.281345
28.883593 -8.692974 0.631833
30.824503 -9.423997 -0.675184
32.870548 -10.049535 -0.720000
38.807896 -11.864765 -0.850053
29.290901 -8.955127 -0.213836
32.982147 -10.083654 -0.240784
38.700710 -11.831995 -0.282532
29.881845 -9.278560 0.218444
29.054884 -9.021781 0.637278
38.536152 -11.965793 0.845236
29.272690 -9.229644 -0.642932
30.979467 -9.767789 -0.680419
29.450062 -9.285569 -0.215581
32.940582 -10.386126 -0.241133
29.152124 -9.331669 0.213696
29.394011 -9.409097 0.646492
31.168795 -10.127356 -0.686493
33.156067 -10.773059 -0.730262
29.710281 -9.653456 -0.218095
38.802158 -12.607586 -0.284835
29.506433 -9.729762 0.216908
30.883463 -10.183839 0.227031
38.775269 -12.786166 0.285045
29.177853 -9.621413 0.643561
30.791988 -10.153675 0.679163
29.751869 -9.954837 -0.657173
29.729221 -9.947259 -0.218863
31.512028 -10.543777 -0.231987
29.941200 -10.163669 0.220747
31.995989 -10.861175 0.235897
30.228848 -10.261312 0.668691
38.739883 -13.150418 0.856964
27.007542 -9.299442 -0.598325
39.050804 -13.446271 -0.865131
30.444956 -10.483039 -0.224797
38.916595 -13.400059 -0.287349
29.011148 -10.131146 0.214534
28.977177 -10.119283 0.642932
27.255213 -9.651577 -0.605655
28.763109 -10.185551 -0.639163
26.459301 -9.369730 -0.195964
27.939213 -9.893794 -0.206925
26.700512 -9.586464 0.198058
29.489986 -10.587987 0.656335
26.906895 -9.793308 -0.599791
26.789984 -9.750756 -0.199036
26.775328 -9.877940 0.199245
26.648170 -9.831029 0.594974
29.415228 -10.851851 0.656754
27.129442 -10.143283 -0.606702
26.479078 -9.900122 -0.197360
26.416925 -10.008478 0.197221
26.795097 -10.151754 0.600210
27.039894 -10.379642 -0.606702
26.587723 -10.206071 -0.198826
26.682735 -10.376348 0.199873
26.789351 -10.417809 0.602095
26.976192 -10.626204 -0.607330
26.869804 -10.584297 -0.201619
26.312534 -10.497637 0.197779
27.882183 -11.123863 0.209577
27.013144 -10.777152 0.609215
29.641098 -11.825600 0.668482
27.123449 -10.958585 -0.612775
27.360529 -11.054371 -0.206017
29.678432 -11.990865 -0.223470
28.061705 -11.480347 0.211672
29.740347 -12.167097 0.673089
27.220758 -11.275208 -0.617173
26.921194 -11.151123 -0.203434
29.611151 -12.416986 0.224168
31.547726 -13.229059 0.238829
29.651478 -12.433897 0.673508
27.332998 -11.602169 -0.621990
27.089798 -11.498937 -0.205458
39.433468 -16.738514 -0.299077
27.333372 -11.743343 0.207692
29.556793 -12.698601 0.224587
29.560217 -12.700071 0.673927
31.103447 -13.363095 0.709110
27.459925 -11.939916 -0.627225
27.428598 -11.926294 -0.208809
29.582146 -13.016456 0.225634
29.823460 -13.122636 0.682513
27.984894 -12.459678 -0.641676
27.679752 -12.323820 -0.211532
30.265024 -13.474856 -0.231289
39.519012 -17.594999 -0.302009
39.423630 -17.759050 0.301870
30.655832 -13.809445 0.704294
28.020660 -12.769751 -0.645027
30.795433 -14.034287 -0.708901
39.620121 -18.055929 -0.912042
27.571156 -12.564899 -0.211532
29.809605 -13.585019 -0.228706
39.536854 -18.017982 -0.303336
30.176863 -13.911724 0.231987
39.476021 -18.198696 0.303475
29.807802 -13.741585 0.687540
39.268578 -18.103062 0.905760
30.544935 -14.243337 -0.705969
39.687576 -18.506620 -0.917278
27.387955 -12.771213 -0.210974
30.133999 -14.051715 -0.232127
39.559372 -18.446838 -0.304732
27.413368 -12.928984 0.211602
30.497484 -14.383548 0.235408
39.532772 -18.644865 0.305151
39.398468 -18.581524 0.912461
27.513790 -13.123405 -0.638534
30.356310 -14.479218 -0.704503
39.732113 -18.951246 -0.922095
27.356693 -13.048473 -0.211602
39.613503 -18.894672 -0.306408
30.370804 -14.649137 0.235408
39.512669 -19.058649 0.306268
39.414917 -19.011499 0.916650
39.789871 -19.406816 -0.927330
30.072916 -14.667542 -0.233593
39.707752 -19.366766 -0.308432
39.604935 -19.530993 0.308292
39.498581 -19.478544 0.922514
30.090042 -15.002341 -0.704294
39.905319 -19.896057 -0.934032
39.796761 -19.841932 -0.310457
39.620510 -19.970381 0.309759
39.541363 -19.930489 0.927540
39.952877 -20.357008 -0.939268
39.871571 -20.315580 -0.312411
39.755878 -20.475622 0.312202
39.650356 -20.421276 0.934241
40.022018 -20.834145 -0.945131
39.941124 -20.792034 -0.314366
39.858871 -20.970766 0.314436
39.753773 -20.915472 0.940943
40.041718 -21.290560 -0.949948
39.899429 -21.214903 -0.315483
39.885761 -21.431393 0.316111
39.781109 -21.375160 0.945969
40.170708 -21.810913 -0.957487
40.064297 -21.753138 -0.318276
39.977764 -21.932554 0.318345
39.838493 -21.856146 0.951833
40.258659 -22.315741 -0.964189
40.082844 -22.218283 -0.319951
39.985519 -22.392965 0.319951
39.855598 -22.320208 0.956859
40.314735 -22.808981 -0.970262
40.157234 -22.719870 -0.322115
40.109806 -22.924644 0.322534
40.006508 -22.865602 0.965236
40.347935 -23.294889 -0.975917
40.208580 -23.214434 -0.324140
40.150097 -23.414845 0.324489
40.012722 -23.334730 0.970262
40.487690 -23.849072 -0.984294
40.314648 -23.747141 -0.326653
40.210648 -23.922821 0.326653
40.082516 -23.846592 0.976964
40.457993 -24.309614 -0.988692
40.337311 -24.237101 -0.328538
40.282467 -24.444000 0.328957
40.180592 -24.382183 0.984503
40.576771 -24.865477 -0.996859
40.473843 -24.802402 -0.331400
40.373741 -24.984028 0.331470
40.238342 -24.900242 0.991205
40.663467 -25.409353 -1.004398
40.484829 -25.297729 -0.333285
40.382519 -25.479473 0.333355
40.256271 -25.399815 0.997069
40.743736 -25.956623 -1.011938
40.599876 -25.864973 -0.336078
40.503452 -26.052696 0.336217
40.369427 -25.966488 1.005446
40.817528 -26.507214 -1.019477
40.674530 -26.414349 -0.338591
40.609066 -26.624470 0.339010
40.500816 -26.553499 1.014451
40.884792 -27.061054 -1.027016
40.742668 -26.966984 -0.341104
40.699444 -27.194500 0.341733
40.508629 -27.066999 1.020524
40.978630 -27.640434 -1.035393
40.804234 -27.522804 -0.343618
40.758148 -27.751234 0.344246
40.626240 -27.661423 1.029529
41.098400 -28.246147 -1.044608
40.892143 -28.104393 -0.346410
40.810207 -28.311049 0.346759
40.687248 -28.225748 1.037278
41.145172 -28.810160 -1.052147
41.038517 -28.735479 -0.349761
40.920910 -28.920040 0.349831
40.757805 -28.804770 1.045446
41.250324 -29.423571 -1.061362
41.111832 -29.324785 -0.352554
40.959141 -29.486362 0.352344
40.861900 -29.416361 1.054660
41.307438 -30.011610 -1.069529
41.177963 -29.917540 -0.355346
41.055096 -30.102840 0.355416
40.926151 -30.008295 1.063037
41.373474 -30.614761 -1.078116
41.269005 -30.537458 -0.358418
41.143379 -30.723219 0.358488
41.023209 -30.633482 1.072461
32.880596 -24.777308 -0.862409
41.448078 -31.233366 -1.087121
41.280464 -31.107061 -0.360861
41.223938 -31.347412 0.361559
41.064693 -31.226320 1.080629
41.522938 -31.861671 -1.096336
41.364433 -31.740047 -0.364003
41.296711 -31.975328 0.364631
41.170082 -31.877283 1.090681
41.558453 -32.469021 -1.104713
41.432594 -32.370693 -0.367075
41.369488 -32.613075 0.367773
41.235798 -32.507683 1.099896
32.040775 -25.486383 -0.857592
41.273525 -32.830444 -1.104713
41.438091 -32.961346 -0.369658
41.449852 -33.267021 0.371054
41.293625 -33.141636 1.109111
40.806755 -33.044659 -1.099896
41.490810 -33.598598 -0.372729
41.498692 -33.905853 0.374126
41.405437 -33.829659 1.120001
40.300827 -33.221439 -1.094032
41.713009 -34.385551 -0.377407
41.631771 -34.624779 0.378035
41.508354 -34.522133 1.130891
39.603470 -33.231258 -1.082933
41.771385 -35.050354 -0.380688
41.724903 -35.322739 0.381665
41.564156 -35.186653 1.140734
38.688572 -33.043163 -1.065760
41.897346 -35.783714 -0.384667
41.808994 -36.024933 0.385296
29.962698 -25.817513 0.828482
38.036568 -33.064682 -1.055707
39.055267 -33.950226 -0.361280
41.908001 -36.430069 -0.387669
41.883976 -36.731258 0.388926
41.732990 -36.598850 1.162723
42.314205 -37.436447 -1.183456
38.592747 -34.143978 -0.359744
41.949783 -37.441612 0.392556
41.762592 -37.274536 1.172566
42.201370 -37.998283 -1.189529
38.174419 -34.372402 -0.358627
41.947140 -38.102097 0.395628
41.761349 -37.933338 1.181781
34.629692 -31.732267 -0.983875
37.843525 -34.677200 -0.358348
42.082764 -38.561749 -0.398490
27.531055 -25.449446 0.785341
34.066296 -31.767336 -0.975707
37.590664 -35.053860 -0.358837
42.307781 -39.452644 -0.403866
37.466488 -35.244953 0.359116
29.070192 -27.346506 0.836021
41.813889 -39.334579 1.202514
33.526703 -31.815653 -0.968168
29.601807 -28.091066 -0.284905
37.515450 -35.600830 -0.361071
28.584894 -27.364084 0.828901
42.848866 -41.378670 -1.247749
29.823101 -28.799833 -0.289443
33.232689 -32.092434 -0.322534
36.065056 -35.133022 1.054660
42.842690 -42.101395 -1.258221
32.815853 -32.248051 -0.321208
32.589756 -32.589756 -0.321766
31.413286 -31.688622 0.934660
29.164124 -29.677628 -0.290490
32.248051 -32.815853 -0.321208
31.978958 -32.827316 0.319951
31.897936 -33.031281 -0.320579
31.203152 -32.881260 -0.949529
33.976353 -35.803608 -0.344595
31.956156 -33.970394 0.325606
30.485458 -32.691654 -0.936336
35.074322 -37.612606 -0.359046
31.699223 -34.292027 0.326025
29.543835 -32.241440 -0.916021
35.217571 -38.771523 1.097173
28.920172 -32.119106 -0.905341
31.314548 -34.778332 -0.326723
43.351917 -48.147179 -0.452316
28.294296 -31.980883 -0.894451
43.334293 -48.980511 -0.456574
26.724016 -30.472900 0.849006
27.501324 -31.636654 -0.292654
27.212891 -31.582115 0.291049
0.122689 -0.170426 0.001466
0.157713 -0.219077 0.005654
0.148196 -0.213623 0.001815
0.136769 -0.197152 0.005026
0.168804 -0.247923 0.006283
0.155556 -0.232806 0.001955
0.161080 -0.241073 0.006073
0.169967 -0.259242 0.002164
0.148007 -0.225748 0.005654
0.151469 -0.235485 0.001955
0.140623 -0.218622 0.005445
0.128064 -0.202970 0.001676
0.096030 -0.152198 0.003770
0.126288 -0.204080 0.001676
0.136786 -0.221043 0.005445
0.145253 -0.239369 0.001955
0.134851 -0.222228 0.005445
0.138046 -0.232034 0.001885
0.127795 -0.214804 0.005236
0.115843 -0.198639 0.004817