# This PCD file was generated using the MATLAB® pcwrite function
# from Computer Vision System Toolbox®.
# .PCD v.7 - Point Cloud Data file format
VERSION .7
FIELDS x y z
SIZE 4 4 4
TYPE F F F
COUNT 1 1 1
WIDTH 934
HEIGHT 1
VIEWPOINT 0 0 0 1 0 0 0
POINTS 934
DATA ascii
27.280769 29.255045 -0.837906
27.266626 28.733030 -0.829739
27.273251 28.242279 -0.822409
27.378519 27.860584 -0.818220
27.366100 27.366100 -0.810681
27.406792 27.406792 -0.270594
27.468382 26.993103 -0.806702
27.423811 26.949305 -0.268429
27.523096 26.578745 -0.801466
27.485304 26.542250 -0.266754
27.558180 26.151737 -0.795812
27.512779 26.108652 -0.264799
27.602547 25.739792 -0.790576
27.564049 25.703892 -0.263124
27.656578 25.342585 -0.785760
27.588245 25.279970 -0.261239
27.690933 24.933029 -0.780524
27.599726 24.850904 -0.259284
27.735235 24.538063 -0.775707
27.605835 24.423580 -0.257329
27.797403 24.163914 -0.771519
27.666979 24.050537 -0.255933
27.885574 23.816530 -0.768168
27.754141 23.704277 -0.254816
27.908537 23.418043 -0.763142
27.806736 23.332623 -0.253420
27.988400 23.071857 -0.759791
27.885834 22.987307 -0.252303
28.002197 22.675734 -0.754765
27.961031 22.642395 -0.251186
28.073822 22.330927 -0.751414
28.032341 22.297932 -0.250069
28.141571 21.986605 -0.748063
28.036739 21.904701 -0.248393
28.205458 21.642809 -0.744712
28.044357 21.519192 -0.246788
28.177666 21.233395 -0.739058
28.127256 21.195408 -0.245880
28.136856 20.820179 -0.733194
28.246841 20.901564 -0.245321
28.018202 20.356415 -0.725445
28.306814 20.566105 -0.244274
28.064547 20.018246 -0.722095
28.322390 20.202164 -0.242878
28.107132 19.680826 -0.718744
28.276440 19.799376 -0.240993
28.170694 19.361181 -0.716021
28.209152 19.387613 -0.238969
28.425728 19.354389 0.240086
28.263170 19.243708 0.716231
28.247404 19.053114 -0.713718
28.136850 18.978544 -0.236944
28.493769 19.038927 0.239248
28.255453 18.879690 0.711833
28.245855 18.695524 -0.709529
28.167976 18.643976 -0.235827
28.458124 18.657965 0.237572
28.352243 18.588545 0.710157
28.307308 18.382980 -0.707016
28.262510 18.353888 -0.235268
28.291862 18.197937 0.234850
28.454517 18.302561 0.708691
28.365465 18.070795 -0.704503
28.286659 18.020590 -0.234151
28.246620 17.822290 0.233174
28.486320 17.973530 0.705550
28.420338 17.758999 -0.701990
28.341076 17.709471 -0.233314
28.265018 17.490925 0.232057
28.514559 17.645344 0.702409
28.471935 17.447624 -0.699477
28.392225 17.398779 -0.232476
28.348186 17.202103 0.231499
28.428133 17.250614 0.696545
28.520271 17.136707 -0.696964
28.474403 17.109148 -0.231917
28.394096 16.892712 0.230661
28.337008 16.858747 0.690681
28.565357 16.826281 -0.694451
28.484766 16.778809 -0.230800
28.436771 16.583836 0.229823
28.344864 16.530235 0.687330
28.641838 16.536373 -0.692775
28.526182 16.469599 -0.229963
28.476227 16.275505 0.228985
28.375195 16.217760 0.684608
28.645826 16.207027 -0.689424
28.538267 16.146175 -0.228916
28.547373 15.987297 0.228427
28.445854 15.930444 0.682932
28.716211 15.917656 -0.687749
28.678082 15.896520 -0.228916
28.545528 15.660613 0.227310
28.478605 15.623898 0.680419
28.792521 15.633063 -0.686283
28.666315 15.564540 -0.227729
28.610634 15.373048 0.226751
28.508179 15.317997 0.677906
28.821917 15.324884 -0.683770
28.730415 15.276233 -0.227170
28.637503 15.066918 0.225914
28.569984 15.031396 0.676231
28.954552 15.072785 -0.683770
28.791670 14.987995 -0.226612
28.732334 14.798124 0.225634
28.628962 14.744884 0.674555
29.004810 14.778688 -0.681885
28.787720 14.668076 -0.225565
28.788940 14.510820 0.225076
28.685122 14.458491 0.672880
29.061092 14.489326 -0.680210
28.878828 14.398453 -0.225285
28.770977 14.188275 0.223959
28.702600 14.154556 0.670367
29.078596 14.182579 -0.677697
28.940462 14.115207 -0.224797
28.857668 13.919287 0.223680
28.752987 13.868794 0.668691
29.092968 13.876634 -0.675184
28.990334 13.827680 -0.224238
28.905682 13.632805 0.223121
28.764408 13.566175 0.666178
29.176710 13.605324 -0.674346
29.137085 13.586846 -0.224448
28.959980 13.350734 0.222632
28.845381 13.297903 0.665341
29.194254 13.304587 -0.672042
29.145350 13.282301 -0.223610
29.002443 13.064649 0.222074
28.887402 13.012826 0.663665
29.227043 13.012718 -0.670157
29.196201 12.998986 -0.223121
29.078737 12.794950 0.221795
28.935801 12.732058 0.662199
29.275307 12.729265 -0.668691
29.225992 12.707823 -0.222493
29.180098 12.536759 0.221725
29.009064 12.463277 0.661362
29.311649 12.442057 -0.667016
29.298956 12.436668 -0.222214
29.251501 12.266172 0.221446
29.015299 12.167125 0.659058
29.372925 12.166664 -0.665969
29.332460 12.149903 -0.221655
29.246367 11.965005 0.220608
29.074104 11.894530 0.658011
29.376013 11.868679 -0.663665
29.363197 11.863502 -0.221097
29.275364 11.679686 0.220049
29.102507 11.610723 0.656335
29.441257 11.597219 -0.662828
29.391174 11.577492 -0.220538
29.301613 11.394774 0.219491
29.239992 11.370811 0.657173
29.457336 11.307612 -0.660943
29.407066 11.288316 -0.219910
29.325125 11.110296 0.218932
29.291361 11.097504 0.656126
29.517433 11.036116 -0.660105
29.438889 11.006750 -0.219421
29.345909 10.826278 0.218374
29.312050 10.813786 0.654451
29.499878 10.737077 -0.657592
29.458645 10.722070 -0.218863
29.439268 10.569777 0.218374
29.405300 10.557582 0.654451
29.564178 10.469225 -0.656964
29.513386 10.451238 -0.218583
29.502064 10.302582 0.218164
29.430241 10.277500 0.652985
29.616600 10.197813 -0.656126
29.537281 10.170502 -0.218095
29.515093 10.019024 0.217606
29.433601 9.991362 0.651100
29.638096 9.916768 -0.654660
29.577494 9.896491 -0.217746
29.553917 9.745420 0.217257
29.529165 9.737258 0.651309
29.647438 9.633037 -0.652985
29.596157 9.616375 -0.217257
29.561646 9.462757 0.216698
29.527317 9.451769 0.649424
29.720839 9.370944 -0.652775
29.669411 9.354730 -0.217187
29.566696 9.180703 0.216140
29.541836 9.172984 0.647958
29.724995 9.087843 -0.651100
29.644726 9.063302 -0.216419
29.569082 8.899283 0.215581
29.534597 8.888905 0.646074
29.764824 8.816742 -0.650262
29.674747 8.790061 -0.216070
29.645617 8.640909 0.215581
29.572649 8.619641 0.645236
29.725304 8.523594 -0.647749
29.683039 8.511474 -0.215581
29.691021 8.373734 0.215372
29.608253 8.350390 0.644398
29.837090 8.274557 -0.648587
29.794727 8.262809 -0.215861
29.714725 8.101164 0.215023
29.679995 8.091696 0.644398
29.908161 8.013868 -0.648587
29.865698 8.002490 -0.215861
29.745607 7.831365 0.214744
29.749477 7.832384 0.644398
29.947918 7.745059 -0.647958
29.885990 7.729043 -0.215512
29.812817 7.571491 0.214744
29.777933 7.562632 0.643561
29.927057 7.461654 -0.646074
29.923191 7.460690 -0.215302
29.809761 7.294402 0.214255
29.774817 7.285851 0.642095
29.952147 7.190874 -0.645236
29.909370 7.180604 -0.214744
29.901482 7.040864 0.214464
29.837263 7.025743 0.642095
30.052725 6.938218 -0.646074
29.970892 6.919326 -0.214744
29.932526 6.773039 0.214255
29.897438 6.765100 0.642095
30.121887 6.677862 -0.646283
30.030134 6.657520 -0.214744
29.990492 6.511574 0.214255
29.906485 6.493334 0.641047
30.130117 6.404354 -0.645236
30.087088 6.395208 -0.214744
29.997223 6.239431 0.213906
29.932644 6.225999 0.640419
30.184858 6.141179 -0.645236
30.141748 6.132408 -0.214744
30.050529 5.977422 0.213906
29.976030 5.962603 0.640210
30.207859 5.871813 -0.644608
30.154852 5.861509 -0.214464
30.062250 5.707497 0.213627
30.036745 5.702654 0.640419
30.208797 5.598869 -0.643561
30.165525 5.590850 -0.214185
30.120752 5.446719 0.213696
30.036173 5.431425 0.639372
30.226967 5.329830 -0.642932
30.134382 5.313505 -0.213627
30.167135 5.183662 0.213696
30.043015 5.162334 0.638534
30.351213 5.079051 -0.644608
30.258505 5.063537 -0.214185
30.211222 4.920210 0.213696
30.136259 4.908001 0.639582
30.266008 4.793665 -0.641885
30.222527 4.786778 -0.213627
30.253008 4.656384 0.213696
30.168058 4.643309 0.639372
30.346239 4.535276 -0.642723
30.342268 4.534682 -0.214185
30.252905 4.386463 0.213417
30.167852 4.374131 0.638534
30.424263 4.275851 -0.643561
30.370781 4.268335 -0.214115
30.329666 4.127687 0.213696
30.254408 4.117444 0.639582
30.420769 4.004970 -0.642723
30.367216 3.997920 -0.213836
30.324852 3.857809 0.213417
30.289186 3.853271 0.639582
30.454561 3.739350 -0.642723
30.400948 3.732767 -0.213836
30.357363 3.593031 0.213417
30.272017 3.582929 0.638534
30.525766 3.477972 -0.643561
30.432364 3.467330 -0.213836
30.427322 3.332334 0.213696
30.351822 3.324065 0.639582
30.554955 3.211455 -0.643561
30.511189 3.206855 -0.214185
30.455244 3.066682 0.213696
30.379675 3.059072 0.639582
30.581816 2.944694 -0.643561
30.567873 2.943351 -0.214395
30.510719 2.803541 0.213906
30.445036 2.797506 0.640419
30.656147 2.682065 -0.644608
30.602356 2.677359 -0.214464
30.494162 2.533870 0.213627
30.468290 2.531720 0.640419
30.678387 2.414441 -0.644608
30.574709 2.406282 -0.214115
30.515112 2.267664 0.213627
30.489222 2.265741 0.640419
30.648420 2.143146 -0.643561
30.604519 2.140076 -0.214185
30.533739 2.001287 0.213627
30.497858 1.998935 0.640210
30.745789 1.880493 -0.645236
30.701878 1.877807 -0.214744
30.639894 1.739859 0.214255
30.564049 1.735552 0.641257
30.810949 1.614733 -0.646283
30.717096 1.609815 -0.214744
30.653910 1.472413 0.214255
30.568043 1.468288 0.641047
30.813879 1.345363 -0.646074
30.719984 1.341264 -0.214674
30.665592 1.204854 0.214255
30.579693 1.201479 0.641047
30.864412 1.077809 -0.646911
30.820461 1.076274 -0.215302
30.704924 0.938120 0.214464
30.628986 0.935800 0.641885
30.922615 0.809737 -0.647958
30.818684 0.807016 -0.215232
30.751930 0.671010 0.214744
30.715950 0.670224 0.643561
30.928503 0.539859 -0.647958
30.824553 0.538045 -0.215232
30.796610 0.403150 0.215023
30.720629 0.402155 0.643561
30.972027 0.270289 -0.648796
30.918070 0.269818 -0.215861
30.848955 0.134605 0.215372
30.762959 0.134230 0.644398
31.043190 0.000000 -0.650262
30.959246 0.000000 -0.216140
30.848955 -0.134605 0.215372
30.762959 -0.134230 0.644398
31.091995 -0.271336 -0.651309
31.028063 -0.270778 -0.216629
30.926596 -0.404851 0.215930
30.810600 -0.403333 0.645445
31.088444 -0.542651 -0.651309
30.994524 -0.541011 -0.216419
30.961876 -0.675591 0.216210
30.885872 -0.673932 0.647121
31.202457 -0.817065 -0.653822
31.108578 -0.814607 -0.217257
30.984787 -0.946671 0.216419
30.918787 -0.944654 0.647958
31.234106 -1.090719 -0.654660
31.140259 -1.087442 -0.217536
31.025305 -1.218988 0.216768
30.989286 -1.217572 0.649634
31.223398 -1.363243 -0.654660
31.169544 -1.360892 -0.217815
31.053440 -1.491604 0.217047
30.977482 -1.487955 0.649634
31.290186 -1.639849 -0.656335
31.196426 -1.634935 -0.218095
31.119110 -1.767071 0.217606
31.003244 -1.760492 0.650472
31.304621 -1.914673 -0.656964
31.220896 -1.909552 -0.218374
31.182331 -2.043798 0.218164
31.066511 -2.036207 0.652147
31.366508 -2.193360 -0.658639
31.272871 -2.186812 -0.218863
31.193226 -2.318057 0.218374
31.087440 -2.310196 0.652985
31.396009 -2.470919 -0.659686
31.302441 -2.463556 -0.219212
31.221636 -2.594318 0.218723
31.185659 -2.591328 0.655498
31.442968 -2.750903 -0.661152
31.319597 -2.740110 -0.219491
31.237638 -2.870336 0.219002
31.161858 -2.863373 0.655498
31.507332 -3.033811 -0.663037
31.364170 -3.020026 -0.219980
31.290997 -3.150838 0.219561
31.215265 -3.143212 0.657173
31.559202 -3.317006 -0.664712
31.465906 -3.307200 -0.220887
31.341833 -3.432489 0.220119
31.226400 -3.419847 0.658011
31.608522 -3.601336 -0.666388
31.475590 -3.586190 -0.221166
31.429852 -3.719968 0.220957
31.314510 -3.706316 0.660524
25.939466 -3.184966 -0.547435
31.605661 -3.880687 -0.667016
26.559887 -3.261144 -0.186819
31.522497 -3.870476 -0.221725
31.435871 -3.999148 0.221236
31.360317 -3.989536 0.662199
31.580505 -4.157652 -0.667225
26.421362 -3.478438 -0.186051
31.477608 -4.144105 -0.221655
31.479042 -4.284110 0.221795
31.363934 -4.268444 0.663037
26.167046 -3.677538 -0.553508
31.731131 -4.459520 -0.671205
26.548439 -3.731140 -0.187168
31.608587 -4.442297 -0.222842
31.470148 -4.562954 0.222004
31.444223 -4.559196 0.665550
23.978374 -3.583592 -0.507854
26.480036 -3.957468 -0.560838
31.809662 -4.753986 -0.673718
25.881914 -3.868078 -0.182700
31.637846 -4.728308 -0.223331
31.557613 -4.857182 0.222912
31.482292 -4.845588 0.667225
31.816339 -5.039213 -0.674765
24.671854 -3.907638 -0.174392
31.713900 -5.022988 -0.224168
31.592983 -5.145244 0.223470
31.478279 -5.126563 0.668063
24.553125 -4.108784 -0.521466
31.840178 -5.328218 -0.676231
31.708309 -5.306151 -0.224448
25.377451 -4.360643 0.179767
31.645433 -5.437680 0.224168
25.707518 -4.417359 0.546388
31.540731 -5.419689 0.670367
23.955118 -4.223934 -0.509529
25.195704 -4.442682 -0.535917
31.822006 -5.611078 -0.676859
24.038572 -4.238649 -0.170413
25.328638 -4.466122 -0.179558
31.739580 -5.596544 -0.225006
25.486032 -4.608625 0.180815
31.685339 -5.729642 0.224797
25.845079 -4.673552 0.550157
31.570940 -5.708956 0.672042
24.939707 -4.622301 -0.531309
31.929115 -5.917712 -0.680210
25.367359 -4.701562 -0.180117
31.846849 -5.902465 -0.226123
25.336779 -4.810338 0.180047
31.752024 -6.028310 0.225634
31.647610 -6.008486 0.674765
24.839535 -4.828317 -0.530053
31.846815 -6.190394 -0.679582
31.833393 -6.187785 -0.226402
25.529219 -5.078077 0.181722
31.776669 -6.320772 0.226193
31.672417 -6.300035 0.676440
24.335991 -4.951213 -0.520210
31.958134 -6.501956 -0.683142
25.340235 -5.155529 -0.180535
31.974163 -6.505217 -0.227799
31.847572 -6.624305 0.227100
31.723906 -6.598582 0.678744
32.007751 -6.803457 -0.685445
32.004211 -6.802705 -0.228427
31.944906 -6.935919 0.228217
31.782356 -6.900626 0.681257
32.025246 -7.099826 -0.687121
32.021729 -7.099046 -0.228985
31.951435 -7.229872 0.228706
31.847694 -7.206398 0.683979
32.069229 -7.403765 -0.689424
32.026764 -7.393961 -0.229474
32.013664 -7.538217 0.229614
31.861448 -7.502375 0.685655
23.983105 -5.757834 -0.516649
32.081169 -7.702007 -0.691100
32.038807 -7.691837 -0.230033
32.102074 -7.855327 0.230731
31.940434 -7.815774 0.688796
31.973932 -7.971997 -0.690262
32.057789 -7.992905 -0.230661
32.148605 -8.164706 0.231568
31.987295 -8.123738 0.691309
23.520828 -6.082900 -0.508901
31.893469 -8.248212 -0.690053
23.631908 -6.111627 -0.170413
32.064270 -8.292383 -0.231219
24.252922 -6.385261 0.175090
32.105145 -8.452579 0.231778
24.315872 -6.401834 0.526702
32.031204 -8.433112 0.693822
23.717936 -6.355202 -0.514346
31.868561 -8.539155 -0.691100
23.703241 -6.351264 -0.171320
31.913412 -8.551173 -0.230661
24.148039 -6.583511 0.174741
32.068748 -8.742945 0.232057
23.950415 -6.529633 0.520000
32.072144 -8.743870 0.696335
22.534372 -6.249335 -0.489843
31.773561 -8.811588 -0.690681
23.743277 -6.584593 -0.172018
32.213383 -8.933561 -0.233384
32.116348 -9.057747 0.232965
32.158199 -9.069551 0.699896
32.022217 -9.182222 -0.697801
24.203979 -6.940380 -0.175788
32.287994 -9.258433 -0.234501
23.491848 -6.847249 0.170831
32.228088 -9.393631 0.234361
32.231403 -9.394597 0.703246
24.310335 -7.201049 -0.531100
32.525620 -9.634527 -0.710576
24.209608 -7.171213 -0.176277
32.330612 -9.576764 -0.235408
32.259792 -9.709096 0.235199
24.221243 -7.289766 0.529843
32.176914 -9.684153 0.703875
23.892815 -7.304767 -0.523351
32.545475 -9.950150 -0.712880
23.926163 -7.314962 -0.174671
32.092804 -9.811755 -0.234291
23.550219 -7.312537 0.172158
32.374386 -10.052514 0.236665
24.681850 -7.663918 0.541362
32.167564 -9.988295 0.705550
31.742273 -10.008301 -0.697173
23.937712 -7.547532 -0.175230
31.300228 -9.868924 -0.229125
23.961695 -7.670199 0.175649
32.352097 -10.355988 0.237153
24.147461 -7.729663 0.531100
32.202961 -10.308249 0.708273
23.989893 -7.794789 -0.528377
31.967508 -10.386873 -0.704084
23.442972 -7.617083 -0.172088
31.231936 -10.147871 -0.229265
23.770390 -7.838299 0.174741
32.336468 -10.662968 0.237712
23.993633 -7.911914 0.529215
32.263699 -10.638972 0.711623
23.901997 -7.997496 -0.527958
33.013390 -11.046125 -0.729215
23.840275 -7.976845 -0.175509
32.412914 -10.845209 -0.238619
32.355816 -10.983319 0.238550
23.649126 -8.027797 0.523142
32.321106 -10.971537 0.714974
23.746218 -8.176478 -0.526074
33.246593 -11.447721 -0.736545
32.600685 -11.225316 -0.240714
24.828936 -8.670652 0.183607
32.409786 -11.318004 0.239667
23.578171 -8.233866 0.523142
24.871290 -8.685443 0.551833
32.403469 -11.315798 0.718953
23.560869 -8.343341 -0.523561
33.192551 -11.754099 -0.737592
23.537184 -8.334954 -0.174322
25.045374 -8.869032 -0.185492
33.236729 -11.769743 -0.246159
24.884087 -8.934300 0.184585
32.761539 -11.762594 0.243018
24.992153 -8.973100 0.556231
32.416401 -11.638678 0.721466
24.764866 -9.013674 -0.552042
32.299545 -11.756074 -0.720000
23.463552 -8.540035 -0.174322
25.117373 -9.141975 -0.186609
33.367672 -12.144839 -0.247905
25.030334 -9.234178 0.186260
33.183018 -12.241862 0.246927
24.950417 -9.204695 0.557068
32.426163 -11.962643 0.723979
24.685265 -9.229442 -0.552042
31.980339 -11.956959 -0.715184
24.877407 -9.301281 -0.185422
33.335350 -12.463577 -0.248463
25.163876 -9.533739 0.187866
33.121681 -12.548683 0.247276
24.962635 -9.457496 0.559163
32.666458 -12.376214 0.731728
31.921448 -12.253496 -0.716231
24.804628 -9.521605 -0.185492
33.029270 -12.678749 -0.246997
25.117001 -9.767467 0.188145
26.971651 -10.488701 0.202038
32.889755 -12.790127 0.246369
24.990969 -9.718456 0.561676
32.566532 -12.664432 0.731938
31.934231 -12.579227 -0.718953
24.925280 -9.818329 -0.187028
32.973194 -12.988487 -0.247416
32.293922 -12.883968 0.242738
26.892426 -10.728990 0.606492
32.259766 -12.870342 0.727540
32.342350 -13.067158 -0.730681
32.487732 -13.125896 -0.244623
32.050686 -13.112282 0.241761
33.651833 -13.767328 0.253839
32.035187 -13.105940 0.725027
25.650507 -10.624788 -0.581571
32.458008 -13.444547 -0.735917
25.544647 -10.580939 -0.193032
32.371948 -13.408900 -0.244623
32.064148 -13.445613 0.242738
33.650295 -14.110739 0.254746
32.113216 -13.466188 0.729424
25.722467 -10.918540 -0.585341
33.425404 -14.188242 -0.760629
32.180065 -13.659627 -0.244065
33.746380 -14.498589 0.256422
33.004929 -14.180037 0.752461
25.525352 -11.098740 -0.583037
33.795422 -14.694667 -0.771938
32.032127 -13.927965 -0.243855
33.307373 -14.655595 0.254048
33.255123 -14.632605 0.761048
33.839436 -15.066288 -0.775917
32.073799 -14.280175 -0.245112
33.772953 -15.036687 -0.258097
32.622051 -14.695163 0.249789
33.545483 -15.111139 0.770681
25.791744 -11.753975 -0.593718
33.852234 -15.427351 -0.779267
32.084454 -14.621727 -0.246159
33.767841 -15.388891 -0.259075
32.265541 -14.874618 0.248044
33.863834 -15.611442 0.260331
33.430500 -15.411671 0.771100
34.006271 -15.857385 -0.785969
33.886021 -15.801311 -0.261029
25.387438 -11.973493 0.195964
32.134510 -15.155618 0.248044
33.403244 -15.753993 0.773613
24.165934 -11.526559 -0.560838
25.077345 -11.961280 -0.581990
33.902691 -16.170755 -0.786807
25.371054 -12.101372 -0.196243
33.855148 -16.148077 -0.261867
32.028049 -15.448497 0.248254
33.892448 -16.347776 0.262705
32.832256 -15.836400 0.763561
34.011894 -16.588709 -0.792671
34.009537 -16.587561 -0.264171
32.116230 -15.837972 0.249999
33.999619 -16.766756 0.264660
32.262405 -15.910057 0.753508
24.363718 -12.147302 -0.570262
34.116364 -17.009790 -0.798534
25.164942 -12.546777 -0.196313
34.033524 -16.968489 -0.265497
32.137527 -16.198648 0.251256
34.003811 -17.139332 0.265846
31.952707 -16.105490 0.749529
34.287319 -17.470263 -0.806074
24.074409 -12.266524 -0.188634
34.169266 -17.410110 -0.267731
34.066307 -17.545301 0.267522
32.264244 -16.617178 0.760210
24.183481 -12.589123 -0.571100
34.302055 -17.856520 -0.810053
23.993059 -12.489996 -0.188843
34.193436 -17.799974 -0.269128
34.124290 -17.953659 0.269197
32.321507 -17.005169 0.765027
34.206120 -17.996710 0.809634
28.486469 -15.146524 -0.675812
34.392094 -18.286600 -0.815917
28.483194 -15.144784 -0.225215
30.328510 -16.125956 -0.239806
34.239872 -18.205664 -0.270733
34.353901 -18.459017 0.272269
32.383247 -17.400146 0.770053
34.206291 -18.379704 0.813404
24.346682 -13.219170 -0.580314
28.537720 -15.494718 -0.680210
34.503578 -18.733915 -0.822409
24.202034 -13.140632 -0.192264
28.367525 -15.402309 -0.225355
34.501518 -18.732796 -0.274084
23.977892 -13.154722 0.190937
34.191509 -18.758104 0.272269
34.062130 -18.687124 0.813822
24.300350 -13.469905 -0.581990
28.759933 -15.941892 -0.688796
34.592369 -19.174862 -0.828482
28.957952 -16.051655 -0.231150
34.485416 -19.115578 -0.275271
24.001780 -13.441643 0.192054
34.270809 -19.192575 0.274224
34.107113 -19.100901 0.818849
24.416824 -13.814375 -0.587644
28.741543 -16.261183 -0.691728
34.658665 -19.608929 -0.834137
24.169189 -13.674269 -0.193870
26.884632 -15.210593 -0.215651
28.999544 -16.407154 -0.232616
34.284336 -19.595112 0.275690
34.147449 -19.516876 0.823875
27.628809 -15.951501 -0.668273
34.668053 -20.015610 -0.838534
27.027994 -15.604620 -0.217885
29.452806 -17.004585 -0.237433
34.510273 -19.924515 -0.278203
27.253345 -15.893682 0.220259
34.405731 -20.064829 0.278064
34.183109 -19.935001 0.828901
27.411026 -16.146328 -0.666388
29.444025 -17.343857 -0.715812
34.664352 -20.418865 -0.842723
25.856861 -15.230855 -0.209508
34.481560 -20.311190 -0.279390
27.216738 -16.192257 0.221097
34.435577 -20.487015 0.279739
34.274204 -20.391008 0.835393
27.594734 -16.580589 -0.674346
29.082977 -17.474815 -0.236874
34.654430 -20.822481 -0.282252
34.503403 -20.937178 0.281764
34.334278 -20.834551 0.841257
27.738827 -16.998375 -0.681466
34.839760 -21.349833 -0.855917
27.701603 -16.975565 -0.226821
29.134005 -17.853340 -0.238550
34.667503 -21.244274 -0.283858
34.523460 -21.363764 0.283439
26.321131 -16.288010 0.648377
34.287186 -21.217554 0.844608
25.368034 -15.851707 -0.626597
27.394424 -17.117937 -0.676650
34.821697 -21.759010 -0.860105
25.245777 -15.775312 -0.207832
27.399767 -17.121275 -0.225565
34.675842 -21.667871 -0.285464
25.608015 -16.157454 0.211393
34.369541 -21.685566 0.283718
33.956982 -21.425259 0.841048
25.726229 -16.389416 -0.638953
27.589716 -17.576588 -0.685236
25.731245 -16.392612 -0.212998
25.053942 -16.115236 0.207972
34.372425 -22.109087 0.285324
34.256416 -22.034466 0.853194
25.615767 -16.635073 -0.639791
34.688190 -22.526775 -0.866388
24.756952 -16.077353 -0.206087
34.429062 -22.572681 0.287418
34.071186 -22.338049 0.853404
24.394148 -16.146133 -0.612775
27.170380 -17.983681 -0.682513
34.757076 -23.005207 -0.873089
25.232771 -16.701206 -0.211253
34.522030 -22.849634 -0.289024
26.897387 -17.972260 0.225844
34.455261 -23.022270 0.289303
34.265659 -22.895582 0.863247
26.597980 -17.940565 -0.672042
34.646172 -23.369137 -0.875393
24.422852 -16.473421 -0.205668
34.313030 -23.144430 -0.288954
25.251701 -17.193272 0.213278
34.509281 -23.496532 0.291468
25.387268 -17.285576 0.643351
34.312481 -23.362535 0.869529
26.003717 -17.871861 -0.660943
34.605709 -23.783844 -0.879582
26.841135 -18.447401 -0.227380
34.464119 -23.686531 -0.291956
25.265028 -17.526974 0.214674
34.500114 -23.933580 0.293143
34.312664 -23.803543 0.874765
24.593740 -17.220722 -0.628901
25.863148 -18.109571 -0.661362
34.757187 -24.337246 -0.888796
26.548071 -18.589159 -0.226263
34.452694 -24.124037 -0.293632
24.996788 -17.665983 0.213696
34.518597 -24.395332 0.295098
25.677744 -18.147236 0.658639
34.258766 -24.211700 0.878744
24.377413 -17.388239 -0.627225
25.354137 -18.084930 -0.652356
34.681854 -24.738327 -0.892357
24.569408 -17.525188 -0.210694
34.639771 -24.708309 -0.297053
25.945389 -18.678007 0.223191
34.401783 -24.765739 0.295936
25.088364 -18.061037 0.647540
34.346394 -24.725864 0.886493
24.920347 -18.105692 -0.645236
34.949959 -25.392630 -0.904922
26.138702 -18.990879 -0.225565
34.916321 -25.368193 -0.301311
25.313679 -18.560757 0.219142
34.740788 -25.473000 0.300753
24.962049 -18.302931 0.648377
26.405268 -19.361143 0.685864
34.476009 -25.278854 0.895498
24.930172 -18.447355 -0.649634
35.241394 -26.077259 -0.918325
25.754946 -19.057657 -0.223680
34.757923 -25.719511 -0.301870
34.717484 -25.924772 0.302498
25.153852 -18.783272 0.657592
34.734745 -25.937664 0.908063
24.257225 -18.279131 -0.636231
35.036442 -26.401852 -0.918953
24.477581 -18.445181 -0.213976
34.811672 -26.232477 -0.304313
26.267426 -19.974215 0.230382
34.673004 -26.365963 0.304104
34.578701 -26.294256 0.909948
24.612354 -18.885725 -0.649843
35.034733 -26.883095 -0.925027
24.133221 -18.518072 -0.212370
34.890831 -26.772675 -0.307036
23.680576 -18.335461 0.209089
34.749958 -26.906294 0.306826
23.612719 -18.282919 0.625550
34.917099 -27.035707 0.925027
34.964249 -27.317064 -0.929425
26.137680 -20.420994 -0.231568
35.105022 -27.427050 -0.311015
26.409565 -20.819622 0.234780
34.647339 -27.313759 0.308013
25.964735 -20.468946 0.692566
34.797611 -27.432226 0.928168
35.225292 -28.019463 -0.942828
34.950428 -27.800827 -0.311783
34.976967 -28.071983 0.313110
34.845394 -27.966385 0.935917
35.228069 -28.527128 -0.949529
34.962944 -28.312435 -0.314087
35.148827 -28.717794 0.316879
35.428436 -28.946245 0.958325
35.286369 -29.087837 -0.957906
35.208370 -29.023542 -0.318555
35.550381 -29.566938 0.322813
35.458897 -29.490852 0.966074
35.850677 -30.082289 -0.980315
35.750423 -29.998167 -0.325815
35.657352 -30.186176 0.326164
35.566463 -30.109234 0.976126
35.982121 -30.731634 -0.991205
35.821854 -30.594751 -0.328887
35.756195 -30.809509 0.329515
35.665913 -30.731716 0.986179
27.910585 -24.262300 -0.774660
36.120026 -31.398659 -1.002514
35.945942 -31.247330 -0.332517
35.846848 -31.436842 0.332866
35.757175 -31.358202 0.996231
36.204067 -32.030651 -1.012566
36.061340 -31.904377 -0.336148
35.988930 -32.121349 0.336776
35.840195 -31.988596 1.006283
36.383820 -32.760139 -1.025550
36.234859 -32.626015 -0.340406
36.055145 -32.750191 0.340057
35.914906 -32.622807 1.016336
36.450367 -33.400608 -1.035603
36.302650 -33.265251 -0.343757
36.179188 -33.443699 0.343967
36.010620 -33.287876 1.027226
36.508480 -34.044708 -1.045655
36.376648 -33.921772 -0.347248
36.271992 -34.121281 0.347667
36.148407 -34.005024 1.039582
36.579861 -34.712990 -1.056336
36.463680 -34.602741 -0.350948
36.377361 -34.823750 0.351576
36.196941 -34.651031 1.049634
36.678284 -35.419807 -1.068063
36.591923 -35.336411 -0.355137
36.501858 -35.558537 0.355765
36.301384 -35.363239 1.061571
36.745735 -36.109932 -1.079163
36.617386 -35.983807 -0.358418
36.609165 -36.291073 0.359884
36.467121 -36.150265 1.075603
36.874599 -36.874599 -1.092357
36.726231 -36.726231 -0.362607
36.685314 -37.006859 0.363793
36.544430 -36.864738 1.087330
36.971863 -37.622841 -1.104922
36.768803 -37.416206 -0.366237
36.751728 -37.726704 0.367703
36.639919 -37.611927 1.099896
37.058842 -38.375553 -1.117488
36.934086 -38.246365 -0.371194
36.808342 -38.450497 0.371612
36.669807 -38.305782 1.110786
37.190521 -39.190636 -1.131728
37.046341 -39.038696 -0.375731
36.882500 -39.207253 0.375801
36.772556 -39.090378 1.124189
37.256218 -39.952400 -1.144294
37.086166 -39.770046 -0.379641
37.000526 -40.026943 0.380549
36.891518 -39.909016 1.138430
37.311417 -40.718269 -1.156859
37.088997 -40.475540 -0.383271
37.053230 -40.792427 0.384737
36.891399 -40.614262 1.149320
37.382816 -41.517826 -1.170262
37.269665 -41.392159 -0.388856
37.121998 -41.591686 0.389205
37.014900 -41.471691 1.164399
37.515945 -42.404060 -1.185969
37.410618 -42.285011 -0.394162
37.311470 -42.545578 0.395070
37.152580 -42.364399 1.180315
37.642971 -43.303284 -1.201885
37.512543 -43.153244 -0.399188
37.487080 -43.505898 0.400934
37.244827 -43.224751 1.195184
37.828545 -44.291534 -1.220105
37.641090 -44.072056 -0.404634
37.545349 -44.350357 0.405681
37.305477 -44.067009 1.209425
37.743568 -44.981033 -0.409940
37.591702 -45.199108 0.410428
37.405369 -44.975071 1.225341
37.777916 -46.237858 0.416851
37.542824 -45.950123 1.242933
37.892483 -47.213055 0.422646
37.641041 -46.899765 1.259687
37.949535 -48.138756 0.427951
37.744068 -47.878124 1.277069
38.054501 -49.148067 0.433955
37.802246 -48.822277 1.293404
37.895195 -49.834713 1.311414
0.181113 -0.251582 0.002164
0.134348 -0.186621 0.004817
0.148196 -0.213623 0.001815
0.136769 -0.197152 0.005026
0.123814 -0.181845 0.001536
0.151924 -0.223130 0.005654
0.155556 -0.232806 0.001955
0.166635 -0.249386 0.006283
0.137070 -0.209066 0.001745
0.148007 -0.225748 0.005654
0.151469 -0.235485 0.001955
0.162257 -0.252256 0.006283
0.128064 -0.202970 0.001676
0.117369 -0.186019 0.004607
0.147336 -0.238093 0.001955
0.136786 -0.221043 0.005445
0.140038 -0.230776 0.005654
0.138046 -0.232034 0.001885
0.127795 -0.214804 0.005236
0.115843 -0.198639 0.004817