# This PCD file was generated using the MATLAB® pcwrite function
# from Computer Vision System Toolbox®.
# .PCD v.7 - Point Cloud Data file format
VERSION .7
FIELDS x y z
SIZE 4 4 4
TYPE F F F
COUNT 1 1 1
WIDTH 768
HEIGHT 1
VIEWPOINT 0 0 0 1 0 0 0
POINTS 768
DATA ascii
0.334517 0.384817 -0.010681
0.360824 0.415080 -0.003840
0.298114 0.336956 -0.009424
0.337928 0.381958 -0.003560
0.327802 0.364061 -0.010262
0.354631 0.393857 -0.003700
0.276931 0.302217 -0.008586
0.371566 0.405493 -0.003840
0.334106 0.358285 -0.010262
0.334171 0.358355 -0.003421
0.344102 0.362608 -0.010471
0.378586 0.398946 -0.003840
0.319473 0.330824 -0.009634
0.361214 0.374048 -0.003630
0.350378 0.356547 -0.010471
0.385491 0.392278 -0.003840
0.318128 0.318128 -0.009424
0.360616 0.360616 -0.003560
0.356547 0.350378 -0.010471
0.392278 0.385491 -0.003840
0.294865 0.284747 -0.008586
0.316502 0.305642 -0.003072
0.326347 0.309692 -0.009424
0.398946 0.378586 -0.003840
0.307101 0.286376 -0.008796
0.321788 0.300072 -0.003072
0.331702 0.303949 -0.009424
0.383375 0.351298 -0.003630
0.274903 0.247524 -0.007749
0.297251 0.267646 -0.002793
0.307005 0.271615 -0.008586
0.389447 0.344554 -0.003630
0.316909 0.275484 -0.008796
0.332064 0.288659 -0.003072
0.342108 0.292188 -0.009424
0.395401 0.337705 -0.003630
0.321668 0.269912 -0.008796
0.367692 0.308531 -0.003351
0.316297 0.260735 -0.008586
0.401235 0.330753 -0.003630
0.326330 0.264257 -0.008796
0.341936 0.276894 -0.003072
0.328623 0.261399 -0.008796
0.375643 0.298800 -0.003351
0.259987 0.203124 -0.006911
0.346716 0.270884 -0.003072
0.261749 0.200847 -0.006911
0.349067 0.267848 -0.003072
0.287446 0.216606 -0.007539
0.351391 0.264792 -0.003072
0.337546 0.249771 -0.008796
0.377804 0.279560 -0.003281
0.291182 0.211556 -0.007539
0.355959 0.258619 -0.003072
0.341854 0.243842 -0.008796
0.382625 0.272924 -0.003281
0.311209 0.217911 -0.007958
0.393183 0.275310 -0.003351
0.443679 0.307791 0.003770
0.402519 0.279237 0.010262
0.271902 0.186873 -0.006911
0.362607 0.249213 -0.003072
0.363620 0.247580 0.009215
0.273522 0.184493 -0.006911
0.364768 0.246039 -0.003072
0.424039 0.283334 0.003560
0.407331 0.272170 0.010262
0.316807 0.209690 -0.007958
0.333546 0.220769 -0.002793
0.401408 0.263174 0.003351
0.384607 0.252160 0.009634
0.276701 0.179691 -0.006911
0.335460 0.217850 -0.002793
0.395279 0.254252 0.003281
0.344750 0.221751 0.008586
0.311986 0.198757 -0.007749
0.371083 0.236406 -0.003072
0.380568 0.240121 0.003142
0.355128 0.224069 0.008796
0.237401 0.148345 -0.005864
0.279849 0.174869 -0.002304
0.374146 0.231528 0.003072
0.391076 0.242005 0.009634
0.289834 0.177611 -0.007120
0.400731 0.245568 -0.003281
0.359054 0.217879 0.002932
0.358984 0.217837 0.008796
0.282803 0.169925 -0.006911
0.308573 0.185409 -0.002513
0.403911 0.240302 0.003281
0.386648 0.230031 0.009424
0.284275 0.167451 -0.006911
0.370492 0.218236 -0.003002
0.328185 0.191392 0.007958
0.285726 0.164964 -0.006911
0.311762 0.179996 -0.002513
0.408044 0.233216 0.003281
0.390604 0.223248 0.009424
0.330663 0.187080 -0.007958
0.382947 0.216661 -0.003072
0.331476 0.185635 0.007958
0.279817 0.155105 -0.006702
0.288617 0.159983 -0.002304
0.412052 0.226059 0.003281
0.394441 0.216397 0.009424
0.289946 0.157428 -0.006911
0.395458 0.214716 -0.003142
0.413928 0.222411 0.009843
0.291309 0.154892 -0.006911
0.291366 0.154922 -0.002304
0.415934 0.218833 0.003281
0.398157 0.209481 0.009424
0.301518 0.156960 -0.007120
0.390275 0.203164 -0.003072
0.337752 0.173954 0.007958
0.293968 0.149784 -0.006911
0.320755 0.163433 -0.002513
0.419690 0.211541 0.003281
0.401752 0.202500 0.009424
0.304211 0.151674 -0.007120
0.393762 0.196322 -0.003072
0.358740 0.176911 0.002793
0.376604 0.185721 0.008796
0.269579 0.131482 -0.006283
0.359509 0.175344 -0.002793
0.423318 0.204184 0.003281
0.378210 0.182427 0.008796
0.270716 0.129125 -0.006283
0.352000 0.167895 -0.002723
0.370818 0.174889 0.002862
0.379788 0.179120 0.008796
0.299016 0.139433 -0.006911
0.362514 0.169043 -0.002793
0.390492 0.180019 0.003002
0.381336 0.175799 0.008796
0.309319 0.140965 -0.007120
0.354876 0.161726 -0.002723
0.373813 0.168391 0.002862
0.382856 0.172464 0.008796
0.255737 0.113861 -0.005864
0.274057 0.122018 -0.002094
0.366116 0.161095 0.002793
0.384347 0.169117 0.008796
0.311732 0.135545 -0.007120
0.366815 0.159496 -0.002793
0.367508 0.157894 0.002793
0.385808 0.165756 0.008796
0.230076 0.097661 -0.005236
0.239325 0.101588 -0.001815
0.396537 0.166282 0.003002
0.387239 0.162383 0.008796
0.314050 0.130084 -0.007120
0.332589 0.137763 -0.002513
0.379462 0.155242 0.002862
0.388642 0.158998 0.008796
0.278094 0.112357 -0.006283
0.333778 0.134855 -0.002513
0.399378 0.159336 0.003002
0.390014 0.155600 0.008796
0.279064 0.109926 -0.006283
0.372158 0.146597 -0.002793
0.382114 0.148596 0.002862
0.391357 0.152191 0.008796
0.308014 0.118235 -0.006911
0.336081 0.129009 -0.002513
0.336640 0.127542 0.002513
0.308527 0.116890 0.006911
0.280940 0.105039 -0.006283
0.365293 0.136578 -0.002723
0.384649 0.141905 0.002862
0.393954 0.145337 0.008796
0.310031 0.112842 -0.006911
0.375868 0.136805 -0.002793
0.414107 0.148680 0.003072
0.348159 0.125002 0.007749
0.311003 0.110132 -0.006911
0.367621 0.130182 -0.002723
0.377626 0.131873 0.002793
0.386992 0.135144 0.008586
0.311953 0.107414 -0.006911
0.378198 0.130224 -0.002793
0.426108 0.144644 0.003142
0.397623 0.134975 0.008796
0.312878 0.104688 -0.006911
0.407769 0.136438 -0.003002
0.379870 0.125262 0.002793
0.379796 0.125238 0.008377
0.313780 0.101953 -0.006911
0.380413 0.123604 -0.002793
0.428568 0.137186 0.003142
0.409440 0.131063 0.009005
0.286052 0.090192 -0.006283
0.371941 0.117272 -0.002723
0.381999 0.118614 0.002793
0.391472 0.121555 0.008586
0.286829 0.087692 -0.006283
0.382513 0.116946 -0.002793
0.430897 0.129685 0.003142
0.449960 0.135423 0.009843
0.287583 0.085186 -0.006283
0.373931 0.110763 -0.002723
0.384011 0.111929 0.002793
0.383936 0.111907 0.008377
0.288315 0.082673 -0.006283
0.384495 0.110252 -0.002793
0.433094 0.122145 0.003142
0.413765 0.116694 0.009005
0.289026 0.080154 -0.006283
0.375807 0.104220 -0.002723
0.385906 0.105210 0.002793
0.385830 0.105189 0.008377
0.318686 0.085392 -0.006911
0.386361 0.103525 -0.002793
0.396479 0.104384 0.002862
0.415739 0.109455 0.009005
0.280701 0.072594 -0.006073
0.377568 0.097646 -0.002723
0.387683 0.098459 0.002793
0.348847 0.088596 0.007539
0.291025 0.072561 -0.006283
0.388109 0.096766 -0.002793
0.398241 0.097449 0.002862
0.417585 0.102183 0.009005
0.291647 0.070018 -0.006283
0.379215 0.091041 -0.002723
0.389342 0.091678 0.002793
0.437925 0.103118 0.009424
0.292247 0.067471 -0.006283
0.350765 0.080980 -0.002513
0.399881 0.090484 0.002862
0.419305 0.094879 0.009005
0.292825 0.064918 -0.006283
0.380746 0.084409 -0.002723
0.390883 0.084869 0.002793
0.400577 0.086974 0.008586
0.215145 0.045731 -0.004607
0.313000 0.066530 -0.002234
0.401399 0.083491 0.002862
0.420897 0.087547 0.009005
0.293913 0.059797 -0.006283
0.382161 0.077752 -0.002723
0.392305 0.078034 0.002793
0.402034 0.079969 0.008586
0.294424 0.057230 -0.006283
0.353377 0.068690 -0.002513
0.402795 0.076473 0.002862
0.422361 0.080188 0.009005
0.294912 0.054659 -0.006283
0.383460 0.071070 -0.002723
0.432967 0.078293 0.003072
0.403368 0.072941 0.008586
0.324915 0.057291 -0.006911
0.393914 0.069458 -0.002793
0.404068 0.069432 0.002862
0.423696 0.072804 0.009005
0.285960 0.047853 -0.006073
0.384642 0.064367 -0.002723
0.394789 0.064295 0.002793
0.355241 0.057855 0.007539
0.296242 0.046920 -0.006283
0.395066 0.062572 -0.002793
0.405218 0.062369 0.002862
0.424902 0.065399 0.009005
0.296640 0.044333 -0.006283
0.385707 0.057644 -0.002723
0.395851 0.057396 0.002793
0.316619 0.045908 0.006702
0.297015 0.041743 -0.006283
0.356488 0.050101 -0.002513
0.406245 0.055288 0.002862
0.425979 0.057973 0.009005
0.287456 0.037844 -0.006073
0.386654 0.050904 -0.002723
0.436472 0.055526 0.003072
0.357043 0.045422 0.007539
0.327468 0.040208 -0.006911
0.357308 0.043872 -0.002513
0.367426 0.043488 0.002583
0.426926 0.050530 0.009005
0.298006 0.033954 -0.006283
0.387484 0.044148 -0.002723
0.397613 0.043546 0.002793
0.357782 0.039183 0.007539
0.328120 0.034487 -0.006911
0.397799 0.041810 -0.002793
0.407927 0.041076 0.002862
0.427743 0.043071 0.009005
0.298553 0.028747 -0.006283
0.388195 0.037379 -0.002723
0.398312 0.036600 0.002793
0.448014 0.041167 0.009424
0.328672 0.028755 -0.006911
0.398468 0.034861 -0.002793
0.408582 0.033951 0.002862
0.418466 0.034772 0.008796
0.289043 0.022748 -0.006073
0.388788 0.030598 -0.002723
0.438779 0.032607 0.003072
0.408783 0.030378 0.008586
0.329124 0.023015 -0.006911
0.399016 0.027902 -0.002793
0.409112 0.026815 0.002862
0.428985 0.028117 0.009005
0.339291 0.020752 -0.007120
0.389263 0.023808 -0.002723
0.359412 0.020409 0.002513
0.369324 0.020972 0.007749
0.329475 0.017267 -0.006911
0.399442 0.020934 -0.002793
0.409518 0.019671 0.002862
0.429411 0.020626 0.009005
0.259696 0.011339 -0.005445
0.389619 0.017011 -0.002723
0.399682 0.015704 0.002793
0.409594 0.016093 0.008586
0.329727 0.011514 -0.006911
0.399747 0.013959 -0.002793
0.409799 0.012520 0.002862
0.429705 0.013129 0.009005
0.299831 0.007851 -0.006283
0.309886 0.008115 -0.002164
0.399895 0.008726 0.002793
0.409813 0.008942 0.008586
0.329877 0.005758 -0.006911
0.399929 0.006981 -0.002793
0.409955 0.005367 0.002862
0.429869 0.005627 0.009005
0.259933 0.002268 -0.005445
0.329979 0.002880 -0.002304
0.399986 0.001745 0.002793
0.319927 0.001396 0.006702
0.299934 0.000000 -0.006283
0.299993 0.000000 -0.002094
0.399986 -0.001745 0.002793
0.379913 -0.001658 0.007958
0.299923 -0.002617 -0.006283
0.359978 -0.003141 -0.002513
0.399956 -0.005236 0.002793
0.319902 -0.004188 0.006702
0.329877 -0.005758 -0.006911
0.359936 -0.006283 -0.002513
0.359906 -0.007853 0.002513
0.379826 -0.008288 0.007958
0.299831 -0.007851 -0.006283
0.389857 -0.010209 -0.002723
0.359823 -0.010994 0.002513
0.369746 -0.011297 0.007749
0.329727 -0.011514 -0.006911
0.359772 -0.012564 -0.002513
0.399682 -0.015704 0.002793
0.379624 -0.014915 0.007958
0.339602 -0.014827 -0.007120
0.389619 -0.017011 -0.002723
0.399530 -0.019191 0.002793
0.399452 -0.019187 0.008377
0.329475 -0.017267 -0.006911
0.359498 -0.018840 -0.002513
0.409331 -0.023243 0.002862
0.429214 -0.024373 0.009005
0.299375 -0.018311 -0.006283
0.359320 -0.021977 -0.002513
0.399134 -0.026161 0.002793
0.409032 -0.026809 0.008586
0.299204 -0.020922 -0.006283
0.319213 -0.022322 -0.002234
0.368974 -0.027419 0.002583
0.428724 -0.031860 0.009005
0.259142 -0.020395 -0.005445
0.328975 -0.025891 -0.002304
0.398616 -0.033122 0.002793
0.408502 -0.033944 0.008586
0.298793 -0.026141 -0.006283
0.358621 -0.031375 -0.002513
0.448101 -0.041175 0.003142
0.418146 -0.038422 0.008796
0.248794 -0.023956 -0.005236
0.318519 -0.030670 -0.002234
0.397978 -0.040074 0.002793
0.407848 -0.041068 0.008586
0.328120 -0.034487 -0.006911
0.397799 -0.041810 -0.002793
0.397613 -0.043546 0.002793
0.417412 -0.045714 0.008796
0.337740 -0.038481 -0.007120
0.387484 -0.044148 -0.002723
0.397218 -0.047014 0.002793
0.407069 -0.048180 0.008586
0.287775 -0.035334 -0.006073
0.357308 -0.043872 -0.002513
0.396792 -0.050478 0.002793
0.376879 -0.047945 0.007958
0.327105 -0.043064 -0.006911
0.386654 -0.050904 -0.002723
0.396337 -0.053939 0.002793
0.406166 -0.055277 0.008586
0.326717 -0.045917 -0.006911
0.396098 -0.055668 -0.002793
0.395851 -0.057396 0.002793
0.415562 -0.060254 0.008796
0.326304 -0.048766 -0.006911
0.385707 -0.057644 -0.002723
0.395335 -0.060848 0.002793
0.405139 -0.062357 0.008586
0.325866 -0.051612 -0.006911
0.355559 -0.056315 -0.002513
0.394789 -0.064295 0.002793
0.374976 -0.061069 0.007958
0.285960 -0.047853 -0.006073
0.384642 -0.064367 -0.002723
0.394213 -0.067738 0.002793
0.364576 -0.062646 0.007749
0.324915 -0.057291 -0.006911
0.354522 -0.062512 -0.002513
0.393607 -0.071176 0.002793
0.373853 -0.067604 0.007958
0.373555 -0.069234 -0.007958
0.383460 -0.071070 -0.002723
0.392971 -0.074608 0.002793
0.363427 -0.068999 0.007749
0.323866 -0.062953 -0.006911
0.392641 -0.076322 -0.002793
0.441343 -0.087789 0.003142
0.460868 -0.091672 0.009843
0.244927 -0.049831 -0.005236
0.313568 -0.063796 -0.002234
0.430770 -0.089600 0.003072
0.401321 -0.083475 0.008586
0.244483 -0.051967 -0.005236
0.313000 -0.066530 -0.002234
0.400655 -0.086991 0.002862
0.420117 -0.091216 0.009005
0.292825 -0.064918 -0.006283
0.390509 -0.086574 -0.002793
0.390127 -0.088277 0.002793
0.399803 -0.090466 0.008586
0.243539 -0.056225 -0.005236
0.311791 -0.071983 -0.002234
0.399076 -0.093970 0.002862
0.418461 -0.098535 0.009005
0.291647 -0.070018 -0.006283
0.340321 -0.081704 -0.002443
0.388527 -0.095072 0.002793
0.359318 -0.087924 0.007749
0.320127 -0.079817 -0.006911
0.388109 -0.096766 -0.002793
0.436143 -0.110766 0.003142
0.445748 -0.113206 0.009634
0.329098 -0.085111 -0.007120
0.377568 -0.097646 -0.002723
0.425490 -0.112022 0.003072
0.386734 -0.101818 0.008377
0.318686 -0.085392 -0.006911
0.386361 -0.103525 -0.002793
0.395553 -0.107840 0.002862
0.414768 -0.113079 0.009005
0.366099 -0.101528 -0.007958
0.375807 -0.104220 -0.002723
0.423470 -0.119431 0.003072
0.433010 -0.122121 0.009424
0.317147 -0.090940 -0.006911
0.384495 -0.110252 -0.002793
0.432012 -0.125920 0.003142
0.412731 -0.120300 0.009005
0.316341 -0.093705 -0.006911
0.373931 -0.110763 -0.002723
0.383019 -0.115276 0.002793
0.392518 -0.118135 0.008586
0.286829 -0.087692 -0.006283
0.306010 -0.093557 -0.002234
0.391549 -0.121579 0.002862
0.410569 -0.127485 0.009005
0.314658 -0.099211 -0.006911
0.381477 -0.120279 -0.002793
0.380949 -0.121943 0.002793
0.428484 -0.137159 0.009424
0.313780 -0.101953 -0.006911
0.342372 -0.111243 -0.002513
0.389367 -0.128394 0.002862
0.408281 -0.134631 0.009005
0.350803 -0.117377 -0.007749
0.417252 -0.139611 -0.003072
0.416639 -0.141430 0.003072
0.388156 -0.131761 0.008586
0.311953 -0.107414 -0.006911
0.340378 -0.117202 -0.002513
0.424830 -0.148357 0.003142
0.405869 -0.141736 0.009005
0.348701 -0.123481 -0.007749
0.424178 -0.150209 -0.003142
0.414107 -0.148680 0.003072
0.423436 -0.152029 0.009424
0.310031 -0.112842 -0.006911
0.319488 -0.116284 -0.002374
0.422176 -0.155749 0.003142
0.440853 -0.162639 0.009843
0.318399 -0.119044 -0.007120
0.384026 -0.143582 -0.002862
0.411449 -0.155884 0.003072
0.383321 -0.145227 0.008586
0.261345 -0.100321 -0.005864
0.336081 -0.129009 -0.002513
0.382114 -0.148596 0.002862
0.400675 -0.155814 0.009005
0.353481 -0.139240 -0.007958
0.400070 -0.157592 -0.003002
0.408666 -0.163041 0.003072
0.380728 -0.151895 0.008586
0.259555 -0.104867 -0.005864
0.333778 -0.134855 -0.002513
0.416483 -0.170388 0.003142
0.425655 -0.174140 0.009634
0.341760 -0.141562 -0.007749
0.397259 -0.164550 -0.003002
0.442646 -0.185617 0.003351
0.451779 -0.189447 0.010262
0.303700 -0.128913 -0.006911
0.368193 -0.156289 -0.002793
0.413446 -0.177630 0.003142
0.394994 -0.169703 0.009005
0.302563 -0.131558 -0.006911
0.366815 -0.159496 -0.002793
0.402727 -0.177204 0.003072
0.411800 -0.181196 0.009424
0.328804 -0.146393 -0.007539
0.365409 -0.162691 -0.002793
0.410283 -0.184819 0.003142
0.391972 -0.176570 0.009005
0.382100 -0.174133 -0.008796
0.427671 -0.194901 -0.003281
0.399573 -0.184206 0.003072
0.408575 -0.188356 0.009424
0.326199 -0.152109 -0.007539
0.398766 -0.185948 -0.003072
0.406995 -0.191951 0.003142
0.388830 -0.183384 0.009005
0.379003 -0.180775 -0.008796
0.433230 -0.206640 -0.003351
0.396298 -0.191151 0.003072
0.405225 -0.195457 0.009424
0.332481 -0.162162 -0.007749
0.395460 -0.192879 -0.003072
0.367709 -0.181334 0.002862
0.385571 -0.190142 0.009005
0.331053 -0.165057 -0.007749
0.402711 -0.200784 -0.003142
0.428619 -0.216042 0.003351
0.437464 -0.220500 0.010262
0.293968 -0.149784 -0.006911
0.356394 -0.181592 -0.002793
0.400048 -0.206038 0.003142
0.417746 -0.215154 0.009843
0.363595 -0.189275 -0.008586
0.425755 -0.221634 -0.003351
0.424784 -0.223490 0.003351
0.433549 -0.228101 0.010262
0.326619 -0.173666 -0.007749
0.353170 -0.187784 -0.002793
0.396391 -0.212989 0.003142
0.413928 -0.222411 0.009843
0.289946 -0.157428 -0.006911
0.395458 -0.214716 -0.003142
0.420819 -0.230869 0.003351
0.429502 -0.235633 0.010262
0.367260 -0.203575 -0.008796
0.349839 -0.193919 -0.002793
0.392614 -0.219874 0.003142
0.375091 -0.210061 0.009005
0.321961 -0.182157 -0.007749
0.382947 -0.216661 -0.003072
0.416725 -0.238178 0.003351
0.425324 -0.243093 0.010262
0.363651 -0.209954 -0.008796
0.346402 -0.199995 -0.002793
0.423269 -0.246843 0.003421
0.440459 -0.256868 0.010681
0.353190 -0.208045 -0.008586
0.422188 -0.248688 -0.003421
0.412505 -0.245415 0.003351
0.412425 -0.245367 0.010052
0.291373 -0.175075 -0.007120
0.342859 -0.206010 -0.002793
0.384701 -0.233442 0.003142
0.401720 -0.243770 0.009843
0.358030 -0.219401 -0.008796
0.409257 -0.250793 -0.003351
0.374146 -0.231528 0.003072
0.374073 -0.231483 0.009215
0.347623 -0.217219 -0.008586
0.373132 -0.233159 -0.003072
0.380568 -0.240121 0.003142
0.388949 -0.245409 0.009634
0.379443 -0.241732 -0.009424
0.438553 -0.279389 -0.003630
0.403689 -0.259661 0.003351
0.403610 -0.259611 0.010052
0.310240 -0.201472 -0.007749
0.369006 -0.239635 -0.003072
0.409770 -0.268657 0.003421
0.384607 -0.252160 0.009634
0.375166 -0.248317 -0.009424
0.433610 -0.287000 -0.003630
0.399096 -0.266667 0.003351
0.399018 -0.266615 0.010052
0.348119 -0.234810 -0.008796
0.331607 -0.223672 -0.002793
0.405019 -0.275768 0.003421
0.421468 -0.286968 0.010681
0.337818 -0.232176 -0.008586
0.403812 -0.277532 -0.003421
0.394381 -0.273592 0.003351
0.427163 -0.296333 0.010890
0.303020 -0.212177 -0.007749
0.352227 -0.246632 -0.003002
0.367480 -0.259709 0.003142
0.383737 -0.271199 0.009843
0.366272 -0.261259 -0.009424
0.398907 -0.284538 -0.003421
0.389546 -0.280433 0.003351
0.421926 -0.303743 0.010890
0.339713 -0.246816 -0.008796
0.355959 -0.258619 -0.003072
0.427405 -0.313386 0.003700
0.411197 -0.301502 0.010681
0.273251 -0.202195 -0.007120
0.321535 -0.237923 -0.002793
0.416642 -0.311121 0.003630
0.416561 -0.311061 0.010890
0.359307 -0.270757 -0.009424
0.383336 -0.288864 -0.003351
0.413911 -0.314745 0.003630
0.366081 -0.278374 0.009634
0.364863 -0.279969 -0.009634
0.436334 -0.334811 -0.003840
0.379522 -0.293857 0.003351
0.411068 -0.318283 0.010890
0.354527 -0.276987 -0.009424
0.401876 -0.313980 -0.003560
0.408355 -0.321921 0.003630
0.400424 -0.315669 0.010681
0.391218 -0.311189 -0.010471
0.430424 -0.342375 -0.003840
0.405530 -0.325472 0.003630
0.405451 -0.325409 0.010890
0.349639 -0.283132 -0.009424
0.396335 -0.320946 -0.003560
0.379443 -0.310018 0.003421
0.394854 -0.322609 0.010681
0.385728 -0.317969 -0.010471
0.424383 -0.349835 -0.003840
0.399788 -0.332500 0.003630
0.399710 -0.332435 0.010890
0.344644 -0.289191 -0.009424
0.390673 -0.327814 -0.003560
0.373975 -0.316593 0.003421
0.412055 -0.348830 0.011309
0.319300 -0.272708 -0.008796
0.364986 -0.311727 -0.003351
0.393924 -0.339427 0.003630
0.393847 -0.339361 0.010890
0.339545 -0.295162 -0.009424
0.384892 -0.334582 -0.003560
0.428538 -0.375818 0.003979
0.405904 -0.355969 0.011309
0.374396 -0.331237 -0.010471
0.419405 -0.371058 -0.003910
0.417782 -0.372885 0.003910
0.425159 -0.379469 0.011937
0.341772 -0.307733 -0.009634
0.386426 -0.347939 -0.003630
0.362698 -0.329452 0.003421
0.399630 -0.362998 0.011309
0.368558 -0.337721 -0.010471
0.405493 -0.371566 -0.003840
0.381838 -0.352968 0.003630
0.418472 -0.386832 0.011937
0.358285 -0.334106 -0.010262
0.336415 -0.313712 -0.003211
0.415161 -0.390545 0.003979
0.415080 -0.390469 0.011937
0.362608 -0.344102 -0.010471
0.398946 -0.378586 -0.003840
0.375620 -0.359578 0.003630
0.375547 -0.359508 0.010890
0.352399 -0.340308 -0.010262
0.381241 -0.368160 -0.003700
0.401119 -0.390753 0.003910
0.386718 -0.376724 0.011309
0.349416 -0.343370 -0.010262
0.392278 -0.385491 -0.003840
0.397694 -0.394239 0.003910
0.369215 -0.366007 0.010890
0.353476 -0.353476 -0.010471
0.367687 -0.367687 -0.003630
0.394239 -0.397694 0.003910
0.408239 -0.411817 0.012147
0.287310 -0.292369 -0.008586
0.336428 -0.342352 -0.003351
0.397731 -0.408282 0.003979
0.390677 -0.401041 0.011728
0.340308 -0.352399 -0.010262
0.368160 -0.381241 -0.003700
0.414898 -0.433408 0.004189
0.400990 -0.418879 0.012147
0.364748 -0.384364 -0.011099
0.406119 -0.427960 -0.004119
0.424803 -0.451579 0.004328
0.383618 -0.407798 0.011728
0.388654 -0.416780 -0.011937
0.409189 -0.438802 -0.004189
0.407271 -0.440583 0.004189
0.393618 -0.425814 0.012147
0.357984 -0.390671 -0.011099
0.425611 -0.464473 -0.004398
0.410134 -0.451522 0.004259
0.376443 -0.414431 0.011728
0.327802 -0.364061 -0.010262
0.374704 -0.416151 -0.003910
0.399519 -0.447624 0.004189
0.386127 -0.432618 0.012147
0.351112 -0.396859 -0.011099
0.397562 -0.449362 -0.004189
0.421971 -0.481166 0.004468
0.369153 -0.420938 0.011728
0.373872 -0.430090 -0.011937
0.393626 -0.452815 -0.004189
0.391646 -0.454528 0.004189
0.437253 -0.507457 0.014031
0.376597 -0.440939 -0.012147
0.409142 -0.479044 -0.004398
0.413509 -0.488457 0.004468
0.387589 -0.457839 0.012565
0.308470 -0.367621 -0.010052
0.340669 -0.405994 -0.003700
0.409231 -0.492047 0.004468
0.428330 -0.515011 0.014031
0.404922 -0.495599 0.004468
0.379540 -0.464534 0.012565
0.400581 -0.499114 0.004468
0.419277 -0.522408 0.014031
0.396210 -0.502591 0.004468
0.371375 -0.471087 0.012565
0.391810 -0.506029 0.004468
0.410096 -0.529646 0.014031
0.393432 -0.517389 0.004538
0.387303 -0.509330 0.013403
0.358986 -0.480741 0.004189
0.400790 -0.536722 0.014031
0.390179 -0.532137 0.013822
0.321329 -0.446355 0.003840
0.338790 -0.470610 0.012147
0.311590 -0.440890 0.011309
0.193794 -0.279353 0.002374
0.233647 -0.336801 0.008586
0.140670 -0.206602 0.005236
0.155556 -0.232806 0.001955
0.166635 -0.249386 0.006283
0.148007 -0.225748 0.005654
0.151469 -0.235485 0.001955
0.162257 -0.252256 0.006283
0.128064 -0.202970 0.001676
0.117369 -0.186019 0.004607
0.147336 -0.238093 0.001955
0.157830 -0.255050 0.006283
0.129690 -0.213723 0.001745
0.140038 -0.230776 0.005654
0.138046 -0.232034 0.001885
0.102236 -0.171844 0.004188
0.110806 -0.190002 0.004607