# This PCD file was generated using the MATLAB® pcwrite function
# from Computer Vision System Toolbox®.
# .PCD v.7 - Point Cloud Data file format
VERSION .7
FIELDS x y z
SIZE 4 4 4
TYPE F F F
COUNT 1 1 1
WIDTH 761
HEIGHT 1
VIEWPOINT 0 0 0 1 0 0 0
POINTS 761
DATA ascii
35.176617 37.722305 -0.360093
37.348469 37.348469 -0.368750
37.572926 36.922810 -1.103456
37.459000 36.810856 -0.366656
37.620411 36.329609 -1.095498
37.548622 36.260284 -0.364422
37.653179 35.731533 -1.087330
37.573475 35.655899 -0.361629
37.714951 35.169762 -1.080210
37.671112 35.128880 -0.359605
37.777176 34.616405 -1.073299
37.747681 34.589375 -0.357441
37.877213 34.104797 -1.067645
37.787994 34.024464 -0.354997
37.926289 33.554344 -1.060734
37.873768 33.507877 -0.353042
37.953568 32.992531 -1.053404
37.877953 32.926800 -0.350389
37.943539 32.406841 -1.045236
37.905315 32.374195 -0.348016
38.033424 31.913832 -1.040001
34.019203 28.545502 -0.310038
34.144615 28.146648 -0.926912
34.050964 28.069448 -0.308083
34.272388 27.753235 -0.923770
34.201359 27.695715 -0.307245
34.325489 27.303728 -0.918744
34.191319 27.197002 -0.305011
34.333977 26.824642 -0.912671
34.269753 26.774466 -0.303615
34.384323 26.384020 -0.907854
34.311695 26.328291 -0.301940
34.485504 25.986691 -0.904503
34.412365 25.931578 -0.300822
34.518082 25.542036 -0.899477
34.444427 25.487535 -0.299147
34.610245 25.145815 -0.896126
34.536095 25.091942 -0.298030
34.633018 24.703491 -0.891100
34.590927 24.673468 -0.296634
34.650723 24.262697 -0.886074
34.608330 24.233013 -0.294958
34.762257 23.891438 -0.883561
34.653660 23.816801 -0.293562
34.803654 23.475361 -0.879372
34.760696 23.446386 -0.292724
34.840446 23.060389 -0.875184
34.830563 23.053846 -0.291607
34.780293 22.802959 0.290351
34.906200 22.668350 -0.871833
34.829140 22.618307 -0.289932
35.127983 22.378992 -0.872461
35.058929 22.335001 -0.290211
34.834679 21.979046 0.287558
34.760246 21.932081 0.860943
35.025185 21.886164 -0.865131
34.947212 21.837440 -0.287698
34.889103 21.590031 0.286441
34.814285 21.543734 0.857592
35.078449 21.496101 -0.861781
34.965919 21.427143 -0.286301
34.905201 21.180996 0.285045
34.872753 21.161306 0.854451
35.059025 21.065586 -0.856754
35.023003 21.043943 -0.285254
35.019958 20.834686 0.284486
34.952984 20.794842 0.851938
35.172604 20.718246 -0.855079
35.067451 20.656307 -0.284137
34.993122 20.407387 0.282811
34.925846 20.368151 0.846911
35.144260 20.290548 -0.850053
35.099155 20.264505 -0.282950
35.065697 20.041697 0.281973
34.998100 20.003061 0.844398
35.180763 19.904318 -0.846702
35.178921 19.903275 -0.282183
35.099659 19.656754 0.280856
35.031754 19.618725 0.841048
35.283165 19.557777 -0.845027
35.202587 19.513111 -0.280996
35.164654 19.291990 0.280018
35.061378 19.235331 0.837697
35.276768 19.153723 -0.840838
35.230919 19.128828 -0.279879
35.155491 18.889727 0.278622
35.086990 18.852921 0.834346
35.371952 18.807600 -0.839163
35.299385 18.769016 -0.279111
35.248199 18.544975 0.278064
35.179390 18.508774 0.832671
35.392838 18.424345 -0.835812
35.355389 18.404852 -0.278273
35.266449 18.163416 0.276947
35.197357 18.127831 0.829320
35.418652 18.046703 -0.832671
35.372097 18.022984 -0.277156
35.316456 17.800959 0.276109
35.220295 17.752489 0.826178
35.467419 17.683403 -0.830158
35.384842 17.642231 -0.276039
35.326958 17.421328 0.274992
35.257301 17.386978 0.823456
35.512550 17.320629 -0.827644
35.465549 17.297705 -0.275481
35.414593 17.081972 0.274503
35.308632 17.030863 0.821152
35.554062 16.958418 -0.825131
35.470737 16.918674 -0.274364
35.408558 16.699759 0.273316
35.383568 16.687975 0.819477
35.591961 16.596804 -0.822618
35.508274 16.557779 -0.273526
35.416721 16.327332 0.272269
35.382576 16.311592 0.816126
35.589878 16.219242 -0.819267
35.542221 16.197523 -0.272688
39.277752 17.693336 0.300753
39.352135 17.726845 0.904084
35.720928 15.903981 -0.819058
39.328640 17.510239 -0.901781
35.965408 16.012831 -0.274852
39.482471 17.578730 -0.301730
39.467270 17.366014 0.301032
39.395515 17.334442 0.901571
39.571632 17.206236 -0.903875
39.487644 17.169716 -0.300613
39.507061 16.973572 0.300194
39.435055 16.942636 0.899058
29.781004 12.641286 -0.677697
39.635975 16.824472 -0.300613
39.543015 16.581762 0.299356
39.470764 16.551466 0.896545
29.788580 12.338834 -0.675393
39.633465 16.416719 -0.299496
39.612167 16.205767 0.298798
39.576687 16.191250 0.895707
29.820963 12.048451 -0.673718
29.891680 12.077023 -0.225076
39.728859 16.051502 -0.299147
39.714928 15.844650 0.298519
39.605038 15.800809 0.893194
29.850552 11.758445 -0.672042
29.930803 11.790057 -0.224587
39.739845 15.453981 0.297681
39.666874 15.425604 0.891519
30.138700 11.569163 -0.676231
30.004543 11.517665 -0.224378
34.430840 13.044678 0.257050
39.807735 15.081802 0.297192
39.725182 15.050525 0.889843
30.201054 11.291711 -0.675393
30.038345 11.230877 -0.223889
39.742451 14.661763 0.887330
30.223282 11.000375 -0.673718
30.031845 10.930697 -0.223121
34.587376 12.418137 0.256561
39.652458 14.236688 0.882514
30.271004 10.719524 -0.672671
30.088383 10.654856 -0.222842
34.618900 12.089461 0.256003
39.501461 13.794527 0.876440
30.297224 10.432171 -0.671205
30.095123 10.362582 -0.222214
39.535130 13.420368 0.874555
30.500881 10.205452 -0.673718
30.952530 10.356571 -0.227868
30.152212 9.942709 0.221655
39.650738 13.074852 0.874555
31.729795 10.309635 -0.698849
32.097374 10.429070 -0.235618
30.094975 9.633477 0.220608
38.144608 12.210185 0.838953
39.630020 12.685669 0.871624
32.428799 10.224761 -0.712252
32.311142 10.187664 -0.236525
30.177895 9.370485 0.220608
39.786953 12.354177 0.872671
32.516792 9.941381 -0.712252
32.312752 9.878999 -0.235897
30.220215 9.095253 0.220329
32.259792 9.709096 0.235199
34.713924 10.447705 0.759372
32.439342 9.608972 -0.708691
32.282673 9.562564 -0.235059
30.173632 8.794811 0.219421
32.285690 9.410420 0.234780
34.410240 10.029670 0.750786
32.531570 9.328279 -0.708901
32.441792 9.302534 -0.235618
30.210733 8.520308 0.219142
32.328083 9.117462 0.234501
34.871727 9.834845 0.758953
32.611736 9.044035 -0.708901
32.483192 9.008386 -0.235338
30.283936 8.256349 0.219142
32.367825 8.824482 0.234221
32.573532 8.728052 -0.706388
32.444656 8.693520 -0.234501
32.375908 8.523866 0.233733
30.348915 7.990202 0.657383
32.687176 8.453479 -0.707226
32.558010 8.420074 -0.234780
32.410294 8.231166 0.233453
30.320583 7.700448 0.655288
32.720898 8.158236 -0.706388
32.591438 8.125958 -0.234501
32.480888 7.948022 0.233453
30.347782 7.426055 0.654451
32.790844 7.872385 -0.706388
32.661110 7.841238 -0.234501
32.510075 7.655107 0.233174
30.372503 7.151775 0.653613
32.819328 7.576939 -0.705550
32.689320 7.546924 -0.234221
32.507366 7.355666 0.232685
30.433758 6.886456 0.653613
32.481529 7.349819 0.697592
32.884197 7.290251 -0.705550
32.714882 7.252715 -0.233942
32.570320 7.071710 0.232685
30.414532 6.603642 0.651938
32.476036 7.051239 0.696126
32.868332 6.986379 -0.703875
32.776928 6.966951 -0.233942
32.630791 6.787214 0.232685
30.461212 6.335941 0.651728
32.575489 6.775711 0.696964
32.898655 6.693307 -0.703246
32.758083 6.664708 -0.233384
32.688778 6.502202 0.232685
30.417288 6.050375 0.649634
32.603958 6.485331 0.696335
32.985252 6.411684 -0.703875
32.893524 6.393854 -0.233942
32.773746 6.222290 0.232895
32.580734 6.185646 0.694660
32.961308 6.109017 -0.702199
32.869411 6.091985 -0.233384
32.748077 5.921817 0.232336
32.633472 5.901093 0.694660
33.092129 5.835035 -0.703875
33.000103 5.818809 -0.233942
32.798508 5.635814 0.232336
32.683723 5.616091 0.694660
33.191093 5.554284 -0.704922
33.049625 5.530611 -0.233942
32.895786 5.357419 0.232685
32.731491 5.330662 0.694660
33.188923 5.256609 -0.703875
33.057121 5.235734 -0.233663
32.891869 5.062543 0.232336
32.776760 5.044826 0.694660
33.282974 4.974174 -0.704922
33.151005 4.954451 -0.234012
32.984276 4.782493 0.232685
32.869007 4.765779 0.695707
33.325111 4.683539 -0.704922
33.143463 4.658010 -0.233663
33.024757 4.494472 0.232685
30.710106 4.179462 0.649215
32.929157 4.481462 0.696126
33.275505 4.380803 -0.703037
33.182850 4.368605 -0.233663
30.840683 3.923430 0.217047
34.276173 4.360480 0.723770
30.940802 3.799053 -0.652985
31.036161 3.810761 -0.218304
38.103107 4.509800 0.267871
41.171616 4.872982 0.289443
37.668755 4.458391 0.794555
36.475956 4.155910 -0.769006
36.711586 4.182757 -0.257958
38.609261 4.398970 -0.271292
38.538624 4.220666 0.270663
37.030415 4.055490 0.780315
37.226734 3.912687 -0.784084
41.472412 4.358926 -0.873508
36.955532 3.884183 -0.259424
37.947174 3.821079 0.266265
37.342926 3.760235 0.786178
37.956085 3.654755 -0.798744
37.336403 3.595087 -0.261867
37.839664 3.476977 0.265288
39.096684 3.592480 0.822409
41.247150 3.790081 0.867644
37.269428 3.260653 -0.783665
37.894321 3.315324 -0.265567
37.519775 3.117653 0.262844
37.522427 3.117873 0.788692
37.406101 2.943924 -0.785969
37.842060 2.978235 -0.265009
41.430874 3.260680 -0.290141
37.984333 2.822724 0.265916
37.468441 2.784386 0.787016
37.530102 2.624360 -0.788063
39.335297 2.750592 -0.825969
41.649139 2.912391 -0.874555
37.816730 2.644403 -0.264660
38.047432 2.493761 0.266195
37.650936 2.467773 0.790367
37.421844 2.288818 -0.785341
41.613094 2.545166 -0.873299
37.778481 2.310631 -0.264241
38.157600 2.166745 0.266824
37.830746 2.148185 0.793718
37.470348 1.963738 -0.785969
38.815784 2.034249 -0.271362
38.205021 1.835119 0.267033
37.848053 1.817972 0.793718
37.925541 1.655865 -0.795184
39.541367 1.726413 -0.276318
41.649307 1.818448 -0.291049
38.339485 1.506362 0.267871
38.272068 1.503714 0.802304
38.797836 1.354850 -0.813194
39.444996 1.377450 -0.275550
41.583637 1.452133 -0.290490
38.391151 1.172956 0.268150
39.113163 1.195015 0.819686
40.237377 1.053653 -0.843142
39.865364 1.043911 -0.278413
38.819813 0.847051 0.271082
39.142094 0.854084 0.820105
39.305389 0.686078 -0.823456
41.304646 0.720975 -0.865341
39.872955 0.695985 -0.278413
39.055702 0.511267 0.272688
39.108070 0.511953 0.819267
41.607307 0.544670 0.871624
41.709263 0.363991 -0.873718
39.297546 0.342944 -0.274364
41.297421 0.360397 -0.288326
39.368668 0.171779 0.274852
39.370987 0.171789 0.824713
41.140583 0.179511 0.861781
41.760838 0.000000 -0.874765
41.668983 0.000000 -0.290909
41.328598 -0.180331 0.288535
39.330997 -0.171615 0.823875
41.789242 -0.364689 -0.875393
41.747395 -0.364324 -0.291468
41.445438 -0.542551 0.289373
41.407368 -0.542052 0.867435
41.804459 -0.729700 -0.875812
41.792614 -0.729493 -0.291817
41.599083 -0.907695 0.290490
41.361080 -0.902502 0.866597
41.826485 -1.095265 -0.876440
41.814648 -1.094955 -0.292026
41.709518 -1.274341 0.291328
41.351627 -1.263407 0.866597
41.895267 -1.463015 -0.878116
41.883450 -1.462602 -0.292585
41.806725 -1.642591 0.292096
41.329041 -1.623822 0.866388
34.509544 -1.506719 -0.723561
41.880905 -1.828560 -0.878116
38.322556 -1.673199 -0.267801
41.959003 -1.831970 -0.293213
41.790798 -2.007356 0.292096
41.353241 -1.986339 0.867226
34.505066 -1.808334 -0.723770
41.813431 -2.191349 -0.877069
41.851543 -2.193347 -0.292585
41.621933 -2.363465 0.291049
41.454113 -2.353935 0.869739
34.487972 -2.109375 -0.723770
41.942406 -2.565307 -0.880210
41.960564 -2.566418 -0.293492
41.829227 -2.741632 0.292654
41.521778 -2.721481 0.871624
34.558014 -2.416532 -0.725655
41.878529 -2.928432 -0.879372
41.966496 -2.934583 -0.293702
42.003155 -3.121374 0.294051
41.655975 -3.095574 0.874974
34.485775 -2.714089 -0.724608
42.098793 -3.313247 -0.294819
42.054039 -3.494421 0.294609
39.136509 -3.251993 0.822618
41.886425 -3.480494 0.880419
34.630093 -3.029741 -0.728168
42.118084 -3.684855 -0.295168
42.101604 -3.868594 0.295168
38.688492 -3.554973 0.813822
34.691902 -3.340450 -0.730053
42.163956 -4.059927 -0.295726
42.145840 -4.243863 0.295726
38.088989 -3.835360 0.801885
34.611713 -3.637838 -0.729006
42.156757 -4.430853 -0.295936
42.146961 -4.615843 0.296005
37.586964 -4.116442 0.792042
34.787254 -3.963507 -0.733404
34.744362 -3.958620 -0.244135
42.146290 -4.801963 -0.296145
42.224243 -4.997568 0.296843
38.463036 -4.552400 0.811309
34.781113 -4.270584 -0.734032
34.837521 -4.277510 -0.245042
42.221886 -5.184196 -0.296983
42.258381 -5.375945 0.297402
38.203651 -4.860118 0.806702
42.210472 -5.369850 0.891309
34.742519 -4.573940 -0.734032
34.689812 -4.567000 -0.244274
42.204781 -5.556365 -0.297192
42.328758 -5.760691 0.298239
42.290787 -5.755524 0.894032
34.909195 -4.906168 -0.738430
34.846684 -4.897382 -0.245671
42.303223 -5.945330 -0.298239
42.356049 -6.141335 0.298798
42.318108 -6.135833 0.895707
34.815613 -5.203228 -0.737383
34.842178 -5.207199 -0.245950
42.379910 -6.522892 0.299356
42.342003 -6.517057 0.897383
34.917000 -5.530310 -0.740524
34.755905 -5.504795 -0.245671
42.321373 -6.892473 0.299356
42.401932 -6.905593 0.899896
34.995598 -5.856255 -0.743246
34.943249 -5.847494 -0.247346
42.417297 -7.288625 0.300473
42.458298 -7.295670 0.902409
34.864395 -6.147533 -0.741571
34.969669 -6.166097 -0.247905
34.942432 -6.318621 0.247905
42.470161 -7.679856 0.301311
42.511074 -7.687254 0.904922
35.084671 -6.502560 -0.747435
34.914532 -6.471026 -0.247905
35.013680 -6.647555 0.248812
42.470295 -8.063237 0.301800
42.520950 -8.072855 0.906597
35.105103 -6.823741 -0.749110
35.062870 -6.815531 -0.249371
34.875874 -6.937243 0.248254
42.545429 -8.462811 0.302847
42.644997 -8.482617 0.910786
35.005032 -7.121854 -0.748273
35.119644 -7.145173 -0.250208
35.048973 -7.290197 0.249929
42.587440 -8.858200 0.303685
42.647655 -8.870726 0.912461
35.215370 -7.485258 -0.754137
35.095081 -7.459690 -0.250488
35.101284 -7.621236 0.250767
42.646782 -9.259524 0.914137
35.265839 -7.818248 -0.756650
35.184849 -7.800293 -0.251605
34.955418 -7.909603 0.250208
42.642365 -9.648982 0.915812
35.128078 -8.109956 -0.755184
35.222618 -8.131783 -0.252373
35.157600 -8.278517 0.252163
42.712246 -10.057399 0.919163
35.269844 -8.467541 -0.759791
35.140591 -8.436510 -0.252303
35.200581 -8.613527 0.253001
35.174294 -8.607095 0.758534
42.768524 -10.465391 0.922304
35.359524 -8.816119 -0.763351
35.308201 -8.803323 -0.254048
35.124073 -8.920378 0.253001
35.272266 -8.958014 0.762304
42.791851 -10.867745 0.924817
35.242523 -9.114337 -0.762514
35.307484 -9.131136 -0.254607
35.276978 -9.287653 0.254676
35.154079 -9.255297 0.761466
42.801735 -11.268756 0.927121
35.393417 -9.483638 -0.767540
35.265091 -9.449253 -0.254886
35.320004 -9.629338 0.255584
35.274536 -9.616941 0.765864
42.865746 -11.686543 0.930681
35.473091 -9.837559 -0.771100
35.374012 -9.810081 -0.256282
35.340496 -9.967051 0.256352
35.343227 -9.967821 0.769215
35.414726 -10.155009 -0.771728
35.488918 -10.176283 -0.257748
35.328972 -10.297457 0.256910
35.178112 -10.253484 0.767540
35.506893 -10.517621 -0.775707
35.350822 -10.471391 -0.257399
35.429276 -10.663002 0.258307
35.393650 -10.652279 0.774241
35.576294 -10.876765 -0.779267
35.525856 -10.861344 -0.259354
35.449478 -11.007355 0.259144
35.461662 -11.011139 0.777801
35.670727 -11.246937 -0.783456
35.620461 -11.231088 -0.260750
35.352070 -11.316287 0.259144
35.468964 -11.353704 0.780105
35.495152 -11.533074 -0.781781
35.521095 -11.541504 -0.260750
35.555870 -11.724567 0.261378
35.406513 -11.675317 0.780943
35.734478 -11.956590 -0.789320
35.608685 -11.914499 -0.262146
35.603706 -12.085830 0.262495
35.530495 -12.060977 0.785969
35.742218 -12.307033 -0.791833
35.654636 -12.276875 -0.263263
35.647934 -12.448815 0.263612
35.612667 -12.436500 0.790157
35.746552 -12.658517 -0.794346
35.781799 -12.671000 -0.265009
35.613232 -12.786457 0.264171
35.502785 -12.746801 0.790157
35.700489 -12.993915 -0.795812
35.622879 -12.965668 -0.264660
35.762981 -13.193661 0.266126
35.615311 -13.139182 0.795184
35.894772 -13.420505 -0.802723
35.733173 -13.360086 -0.266335
35.796104 -13.561931 0.267243
35.723679 -13.534492 0.800210
35.962963 -13.804889 -0.806911
35.913963 -13.786079 -0.268569
35.750950 -13.902784 0.267801
35.827843 -13.932686 0.805236
35.878334 -14.132852 -0.807749
35.941154 -14.157598 -0.269686
35.776871 -14.273524 0.268918
35.704895 -14.244808 0.805236
35.864876 -14.490351 -0.810262
35.788425 -14.459462 -0.269477
35.910095 -14.691208 0.270873
35.801308 -14.646702 0.810262
36.069584 -14.940511 -0.817801
35.910324 -14.874542 -0.271362
35.964962 -15.081360 0.272269
35.893410 -15.051356 0.815288
36.085079 -15.317207 -0.821152
35.990864 -15.277215 -0.272967
36.015739 -15.473582 0.273665
35.981159 -15.458726 0.820315
36.124241 -15.707268 -0.825131
36.085434 -15.690393 -0.274713
35.879337 -15.787286 0.273665
35.954700 -15.820447 0.822828
36.031464 -16.042242 -0.826178
36.056759 -16.053505 -0.275550
36.031960 -16.231213 0.275899
35.924660 -16.182880 0.825341
36.135735 -16.468002 -0.831833
36.024490 -16.417305 -0.276388
36.143219 -16.662252 0.277854
35.999981 -16.596218 0.830367
36.244362 -16.901024 -0.837697
36.133610 -16.849379 -0.278343
36.213501 -17.079395 0.279530
36.106972 -17.029154 0.836231
36.348164 -17.337183 -0.843561
36.264992 -17.297514 -0.280507
36.279240 -17.499029 0.281205
36.209133 -17.465212 0.842095
36.339260 -17.723841 -0.846911
36.301407 -17.705379 -0.281973
42.546604 -20.981665 0.331191
42.341042 -20.880291 0.988901
42.670059 -21.274508 -0.998744
38.785511 -19.337742 -0.302568
42.562042 -21.220652 -0.332029
38.647186 -19.479786 0.302149
38.577156 -19.444489 0.904922
38.839363 -19.789644 -0.913090
38.686562 -19.711786 -0.303126
38.573513 -19.866665 0.302917
38.477112 -19.817015 0.906597
38.807079 -20.201687 -0.916440
38.690468 -20.140984 -0.304523
38.549122 -20.281673 0.304104
38.444279 -20.226515 0.909948
38.735245 -20.595894 -0.918953
38.654503 -20.552963 -0.305640
38.511604 -20.693031 0.305221
38.407219 -20.636944 0.913299
38.659473 -20.990381 -0.921466
38.552769 -20.932446 -0.306268
38.399696 -21.066795 0.305779
38.330853 -21.029026 0.915812
38.649712 -21.423885 -0.925655
38.534805 -21.360191 -0.307594
38.345264 -21.474380 0.306826
38.241837 -21.416458 0.918116
38.565704 -21.819426 -0.928168
38.486191 -21.774439 -0.308711
38.295315 -21.887577 0.307943
38.201050 -21.833698 0.921676
38.477730 -22.215126 -0.930681
38.363991 -22.149460 -0.309270
38.249702 -22.306568 0.309130
38.147247 -22.246817 0.925027
38.463306 -22.656618 -0.935079
38.341564 -22.584908 -0.310666
38.216873 -22.736649 0.310457
38.123501 -22.681099 0.929215
38.358395 -23.048048 -0.937383
38.288731 -23.006189 -0.311853
38.153786 -23.152287 0.311574
38.060875 -23.095907 0.932566
38.292194 -23.465488 -0.940733
38.214401 -23.417814 -0.312900
38.094852 -23.573809 0.312760
37.993908 -23.511343 0.935917
38.264015 -23.910011 -0.945131
38.144276 -23.835188 -0.314017
38.014538 -23.985388 0.313808
37.956394 -23.948702 0.940105
38.180389 -24.323591 -0.948273
38.103497 -24.274605 -0.315413
37.980396 -24.429811 0.315274
37.838455 -24.338512 0.942409
38.100834 -24.742970 -0.951624
37.990852 -24.671547 -0.316251
37.891201 -24.842562 0.316321
37.800205 -24.782900 0.946807
38.083549 -25.206951 -0.956650
37.974236 -25.134598 -0.317927
37.839260 -25.283384 0.317717
37.748753 -25.222912 0.950995
38.027901 -25.650145 -0.960838
37.927544 -25.582453 -0.319393
37.790764 -25.730814 0.319183
37.692490 -25.663902 0.955184
37.975647 -26.099937 -0.965236
37.859436 -26.020069 -0.320719
37.720890 -26.167913 0.320510
37.623177 -26.100126 0.959163
37.902042 -26.539295 -0.969215
37.827518 -26.487114 -0.322395
37.654423 -26.611517 0.321906
37.589931 -26.565937 0.964189
37.864349 -27.008377 -0.974241
37.757759 -26.932346 -0.323791
37.615536 -27.079311 0.323581
37.518951 -27.009779 0.968377
37.821339 -27.478811 -0.979268
37.715454 -27.401880 -0.325466
37.539082 -27.524794 0.324978
37.443073 -27.454397 0.972566
37.772987 -27.950541 -0.984294
37.635662 -27.848925 -0.326863
37.489754 -27.994926 0.326653
37.370293 -27.905722 0.976964
37.743221 -28.441557 -0.989948
37.678703 -28.392941 -0.329376
37.721615 -28.684183 0.330842
37.650597 -28.630178 0.990786
37.937767 -29.110674 -1.001676
37.865833 -29.055475 -0.333216
37.912640 -29.355103 0.334751
37.810387 -29.275930 1.001676
38.186504 -29.834566 -1.015079
38.052113 -29.729568 -0.337125
38.094795 -30.031515 0.338661
37.953896 -29.920439 1.012357
39.771248 -31.635479 -1.064503
39.669441 -31.554499 -0.353880
39.671757 -31.839951 0.355137
39.562660 -31.752392 1.062618
39.959850 -32.358849 -1.077069
39.921017 -32.327400 -0.358627
39.918968 -32.615166 0.359884
39.841507 -32.551876 1.077697
40.169682 -33.113331 -1.090472
40.069489 -33.030739 -0.362537
40.147942 -33.390690 0.364561
40.086308 -33.339432 1.092147
40.369347 -33.873905 -1.103875
40.300617 -33.816231 -0.367284
40.435070 -34.230816 0.369867
40.305096 -34.120785 1.106179
40.710808 -34.770317 -1.121467
40.612293 -34.686176 -0.372869
40.657520 -35.032761 0.374684
40.551132 -34.941093 1.121257
40.934013 -35.583397 -1.136126
42.541195 -36.980495 -1.180734
42.541943 -36.981148 -0.393534
42.575649 -37.337845 0.395349
42.642517 -37.396484 1.188064
42.501404 -37.602066 -1.188692
42.554626 -37.649155 -0.396675
42.636139 -38.054211 0.398979
42.724792 -38.133335 1.199582
42.557999 -38.319397 -1.199582
42.640610 -38.393780 -0.400585
42.687340 -38.774448 0.402609
42.745621 -38.827389 1.209634
42.605286 -39.040550 -1.210472
42.657825 -39.088696 -0.403936
42.787930 -39.552757 0.406798
42.816296 -39.578976 1.221362
42.665131 -39.785877 -1.221990
42.724644 -39.841373 -0.407845
42.849018 -40.308334 0.410708
42.935333 -40.389530 1.234765
42.722431 -40.542076 -1.233718
42.839565 -40.653229 -0.412313
42.900150 -41.067959 0.414617
42.985672 -41.149830 1.246493
42.769756 -41.302273 -1.245446
42.857220 -41.386738 -0.415944
42.969906 -41.859428 0.418806
43.018822 -41.907082 1.258011
42.899734 -42.157452 -1.259896
42.922367 -42.179691 -0.420132
43.057491 -42.683372 0.423274
43.077496 -42.703205 1.270577
42.947315 -42.947315 -1.272252
42.998116 -42.998116 -0.424530
43.105770 -43.483589 0.427463
43.153675 -43.531918 1.283980
43.047413 -43.805367 -1.286493
43.069824 -43.828171 -0.428998
43.010757 -44.151775 0.430325
42.841915 -43.978455 1.286074
43.010757 -44.538944 -1.296964
42.838539 -44.360603 -0.430534
41.724880 -43.586380 0.421249
41.550819 -43.404552 1.258639
41.939129 -44.194618 -1.276231
41.788986 -44.036404 -0.423832
41.623852 -44.247459 0.424112
41.471882 -44.085907 1.267854
41.824604 -44.851398 -1.284608
41.710003 -44.728504 -0.426974
41.336685 -44.717773 1.275603
41.701790 -45.509521 -1.292985
41.527519 -45.319332 -0.429138
41.240658 -45.402424 1.284817
41.590725 -46.191181 -1.301990
41.424866 -46.006973 -0.432210
41.095860 -46.044022 1.292776
41.431168 -46.829418 -1.309739
41.273598 -46.651314 -0.434863
0.134348 -0.186621 0.004817
0.153865 -0.221796 0.005654
0.151924 -0.223130 0.005654
0.155556 -0.232806 0.001955
0.138862 -0.207822 0.005236
0.148007 -0.225748 0.005654
0.151469 -0.235485 0.001955
0.162257 -0.252256 0.006283
0.128064 -0.202970 0.001676
0.117369 -0.186019 0.004607
0.147336 -0.238093 0.001955
0.136786 -0.221043 0.005445
0.129690 -0.213723 0.001745
0.140038 -0.230776 0.005654
0.117595 -0.197659 0.001606
0.127795 -0.214804 0.005236
0.130953 -0.224548 0.005445