# This PCD file was generated using the MATLAB® pcwrite function
# from Computer Vision System Toolbox®.
# .PCD v.7 - Point Cloud Data file format
VERSION .7
FIELDS x y z
SIZE 4 4 4
TYPE F F F
COUNT 1 1 1
WIDTH 846
HEIGHT 1
VIEWPOINT 0 0 0 1 0 0 0
POINTS 846
DATA ascii
30.777836 33.005188 -0.315064
30.597532 32.243073 -0.931100
30.679216 32.329147 -0.311155
30.322132 31.399488 -0.914346
30.626741 31.714918 -0.307804
30.377752 30.912626 -0.907854
30.734121 31.275270 -0.306128
30.589800 30.589800 -0.906179
30.723042 30.723042 -0.303336
30.712959 30.181541 -0.901990
30.647625 30.117336 -0.299985
30.493319 29.447056 -0.887959
30.657515 29.605618 -0.297541
30.480799 28.925198 -0.880210
30.769630 29.199289 -0.296145
30.527321 28.467186 -0.874346
30.818495 28.738710 -0.294190
29.801586 27.308121 -0.846702
30.891167 28.306540 -0.292515
29.741564 26.779425 -0.838325
29.851400 26.878321 -0.280437
30.063976 26.598360 -0.840838
30.032393 26.570415 -0.279949
30.513762 26.525208 -0.846911
30.255569 26.300766 -0.279879
30.652843 26.180002 -0.844398
30.712048 26.230568 -0.281973
30.849503 25.885807 -0.843561
30.748274 25.800865 -0.280228
30.642206 25.259485 -0.831833
30.486145 25.130838 -0.275830
30.488520 24.689116 -0.821781
30.579948 24.763153 -0.274713
30.671511 24.397223 -0.820943
30.607059 24.345955 -0.273037
30.765072 24.036308 -0.817801
30.621351 23.924023 -0.271292
30.783291 23.620850 -0.812775
30.614759 23.491531 -0.269407
30.796616 23.206915 -0.807749
30.594980 23.054972 -0.267452
30.604156 22.645884 -0.797487
30.409164 22.501598 -0.264101
30.485163 22.148767 -0.789320
30.199869 21.941488 -0.260610
30.058693 21.440657 -0.773404
29.942438 21.357735 -0.256771
30.015339 21.016966 -0.767540
30.397991 21.284903 -0.259075
30.485981 20.952435 -0.774870
30.714434 21.109446 -0.260192
30.731857 20.924578 0.259563
30.783716 20.959887 0.780105
30.742260 20.735916 -0.776754
30.739964 20.734367 -0.258865
30.688795 20.505598 0.257678
30.782568 20.568254 0.775498
30.830334 20.406153 -0.774451
30.677912 20.305267 -0.256841
30.699316 20.127354 0.256282
30.835468 20.216619 0.772356
30.806000 20.005650 -0.769424
30.686209 19.927856 -0.255444
30.713997 19.755907 0.254956
30.750051 19.779099 0.765864
30.878222 19.671597 -0.766911
30.656532 19.530365 -0.253769
30.716085 19.380407 0.253559
30.684732 19.360624 0.760000
30.777395 19.231850 -0.760210
30.656191 19.156115 -0.252373
30.747988 19.027431 0.252442
30.758997 19.034245 0.757697
30.833231 18.894629 -0.757487
30.728403 18.830389 -0.251605
30.844469 18.716883 0.251884
30.855551 18.723608 0.756021
30.834116 18.527006 -0.753508
30.822985 18.520317 -0.251046
30.912096 18.390764 0.251116
30.845924 18.351397 0.751833
30.951546 18.231853 -0.752461
30.948965 18.230333 -0.250767
31.002300 18.080008 0.250557
30.970348 18.061373 0.750995
30.970934 17.881077 -0.749110
30.968313 17.879564 -0.249650
31.019987 17.729383 0.249440
31.022621 17.730888 0.748482
31.021376 17.551050 -0.746597
31.018721 17.549547 -0.248812
31.033926 17.379833 0.248323
31.001707 17.361790 0.744294
30.998468 17.182732 -0.742409
31.022005 17.195778 -0.247625
31.009069 17.012157 0.246927
31.011789 17.013651 0.740943
31.006655 16.835239 -0.739058
31.039064 16.852837 -0.246578
31.015408 16.665180 0.245810
30.982939 16.647734 0.736754
31.046457 16.507694 -0.736545
31.070169 16.520302 -0.245671
31.018061 16.319391 0.244693
31.056253 16.339485 0.735079
31.056307 16.166889 -0.733404
31.044622 16.160809 -0.244344
31.017052 15.974832 0.243576
29.402237 15.143147 0.692775
31.011005 15.971717 0.730681
30.982410 15.786326 -0.728377
31.041910 15.816644 -0.243227
31.012403 15.631538 0.242459
29.265430 14.750991 0.686493
30.988501 15.619491 0.726911
30.895306 15.403831 -0.723142
30.963974 15.438068 -0.241552
30.968262 15.271856 0.241063
29.446840 14.521575 0.687749
30.899456 15.237926 0.721676
30.920721 15.081043 -0.720629
30.908773 15.075216 -0.240086
30.803129 14.857666 0.238759
29.014133 13.994757 0.674765
30.915791 14.746076 -0.717487
30.939869 14.757561 -0.239318
29.167967 13.756507 0.225146
29.062813 13.706912 0.673089
30.934563 14.425023 -0.714974
29.137085 13.586846 -0.224448
29.223335 13.472142 0.224657
29.426466 13.565786 0.678744
29.458084 13.424822 -0.678116
30.995581 14.125500 -0.713508
29.099852 13.261567 -0.223261
29.449196 13.265896 0.225495
29.698692 13.378285 0.682304
29.236177 13.016785 -0.670367
29.278418 13.035592 -0.223749
29.591299 13.020483 0.225704
29.914970 13.162902 0.684608
29.275307 12.729265 -0.668691
29.730364 12.927130 -0.226332
29.997803 12.888073 0.227938
30.184858 12.968438 0.688168
29.596943 12.563157 -0.673508
30.016932 12.741431 -0.227659
30.072241 12.610337 0.227659
30.001839 12.580815 0.681466
29.566898 12.247010 -0.670367
30.071547 12.456042 -0.227240
30.107100 12.317140 0.227100
30.147497 12.333667 0.682304
29.700455 11.999763 -0.670995
30.067841 12.148196 -0.226402
30.074120 11.998358 0.226053
30.179689 12.040476 0.680629
30.073803 11.846386 -0.677068
30.107578 11.859691 -0.225914
30.177679 11.735457 0.226053
30.134523 11.718676 0.677278
30.101366 11.554832 -0.675393
30.209927 11.596504 -0.225914
30.157375 11.425608 0.225146
30.123449 11.412754 0.674765
30.088676 11.249696 -0.672880
30.272507 11.318427 -0.225634
30.143353 11.120470 0.224308
30.250034 11.159827 0.675393
30.138727 10.969600 -0.671833
30.144604 10.971739 -0.223959
30.267483 10.867137 0.224517
30.270992 10.868397 0.673718
30.167337 10.682815 -0.670367
30.239202 10.708263 -0.223959
30.285637 10.576219 0.223959
30.251417 10.564268 0.671205
30.221600 10.406131 -0.669529
30.331497 10.443972 -0.223959
30.225273 10.260098 0.222842
30.228848 10.261312 0.668691
30.235409 10.116627 -0.667854
30.222338 10.112253 -0.222493
30.199696 9.958366 0.222004
30.203304 9.959556 0.666178
30.246473 9.827675 -0.666178
30.233351 9.823411 -0.221934
30.247353 9.682254 0.221725
30.212891 9.671223 0.664503
30.216661 9.527277 -0.663665
30.203480 9.523121 -0.221097
30.177895 9.370485 0.220608
30.181561 9.371623 0.661990
30.183920 9.228150 -0.661152
30.208931 9.235797 -0.220538
30.181913 9.083725 0.220049
30.223898 9.096361 0.661152
30.196198 8.944521 -0.659686
30.211674 8.949105 -0.219980
30.154430 8.789215 0.219281
30.148552 8.787501 0.657801
30.186607 8.655870 -0.657801
30.221331 8.665828 -0.219491
30.181860 8.512165 0.218932
30.195221 8.515933 0.657173
30.183920 8.370742 -0.656126
30.209078 8.377719 -0.218863
30.177813 8.227416 0.218374
30.181574 8.228441 0.655288
30.188219 8.088909 -0.654660
30.174788 8.085310 -0.218095
30.142088 7.935750 0.217606
30.174885 7.944384 0.653613
30.170544 7.802633 -0.652775
30.166746 7.801651 -0.217536
30.161732 7.660104 0.217257
30.126780 7.651227 0.651100
30.198681 7.529377 -0.651938
30.185163 7.526007 -0.217187
30.149723 7.377590 0.216698
30.153557 7.378529 0.650262
30.156300 7.239887 -0.649634
30.142733 7.236630 -0.216419
30.135088 7.095871 0.216140
30.138945 7.096779 0.648587
30.169622 6.965206 -0.648587
30.156019 6.962066 -0.216070
30.117836 6.814970 0.215581
30.131468 6.818055 0.647121
30.151169 6.684353 -0.646911
30.186337 6.692150 -0.215861
30.137074 6.543400 0.215302
30.140968 6.544246 0.646074
30.130117 6.404354 -0.645236
30.194681 6.418077 -0.215512
30.153866 6.272013 0.215023
30.157776 6.272826 0.645236
30.106482 6.125233 -0.643561
30.131950 6.130414 -0.214674
30.168221 6.000832 0.214744
30.172144 6.001613 0.644398
30.119532 5.854644 -0.642723
30.145037 5.859601 -0.214395
30.150667 5.724283 0.214255
30.193901 5.732491 0.643770
30.179306 5.593404 -0.642932
30.195023 5.596317 -0.214395
30.150272 5.452057 0.213906
30.154232 5.452774 0.641885
30.148199 5.315941 -0.641257
30.134382 5.313505 -0.213627
30.167135 5.183662 0.213696
30.161255 5.182652 0.641047
30.193441 5.052649 -0.641257
30.219055 5.056935 -0.213906
30.171743 4.913781 0.213417
30.165861 4.912823 0.640210
30.187010 4.781153 -0.640210
30.173143 4.778956 -0.213278
30.164059 4.642693 0.213068
30.168058 4.643309 0.639372
30.197920 4.513109 -0.639582
30.184029 4.511033 -0.213068
30.173735 4.374983 0.212859
30.167852 4.374131 0.638534
30.147049 4.236891 -0.637697
30.172733 4.240501 -0.212719
30.171131 4.106111 0.212579
30.175156 4.106658 0.637906
30.192787 3.974956 -0.637906
30.178846 3.973120 -0.212510
30.166136 3.837617 0.212300
30.170172 3.838131 0.637068
30.226326 3.711326 -0.637906
30.212368 3.709612 -0.212510
30.148823 3.568348 0.211951
30.202517 3.574703 0.637068
30.217827 3.442887 -0.637068
30.193913 3.440162 -0.212160
30.178816 3.305118 0.211951
30.232561 3.311004 0.637068
30.197006 3.173833 -0.636021
30.232729 3.177588 -0.212230
30.166710 3.037628 0.211672
30.220514 3.043046 0.636231
30.233505 2.911155 -0.636231
30.219492 2.909806 -0.211951
30.202028 2.775177 0.211742
30.206095 2.775550 0.635393
30.257757 2.647211 -0.636231
30.233772 2.645112 -0.211881
30.225096 2.511512 0.211742
30.229166 2.511850 0.635393
30.150135 2.372867 -0.633508
30.146046 2.372545 -0.211113
30.195999 2.243950 0.211393
30.249935 2.247958 0.635393
30.179668 2.110368 -0.633718
30.235430 2.114267 -0.211602
30.224411 1.981012 0.211462
30.268400 1.983896 0.635393
30.236851 1.849365 -0.634555
30.252729 1.850336 -0.211602
30.200611 1.714915 0.211183
30.214687 1.715714 0.633927
30.241854 1.584908 -0.634346
30.227779 1.584171 -0.211323
30.214428 1.451303 0.211183
30.148619 1.448142 0.632252
30.214581 1.319197 -0.633508
30.240452 1.320327 -0.211323
30.106037 1.182869 0.210345
30.110159 1.183031 0.631205
30.264910 1.056874 -0.634346
30.200855 1.054637 -0.210974
30.115213 0.920103 0.210345
30.079363 0.919008 0.630367
30.223007 0.791417 -0.633299
30.128937 0.788954 -0.210415
30.082106 0.656394 0.210066
30.086237 0.656484 0.630367
30.108809 0.525551 -0.630786
30.154671 0.526352 -0.210555
30.126684 0.394380 0.210345
30.130808 0.394434 0.631205
30.092253 0.262611 -0.630367
30.068123 0.262401 -0.209927
30.088980 0.131289 0.210066
30.053122 0.131132 0.629529
30.083401 0.000000 -0.630157
30.069267 0.000000 -0.209927
30.058981 -0.131158 0.209857
30.093113 -0.131307 0.630367
30.082254 -0.262524 -0.630157
30.068123 -0.262401 -0.209927
30.056692 -0.393464 0.209857
30.090820 -0.393910 0.630367
30.078819 -0.525028 -0.630157
30.064688 -0.524781 -0.209927
30.042116 -0.655521 0.209787
30.056252 -0.655830 0.629739
22.717228 -0.594872 -0.476021
30.043108 -0.786707 -0.629529
30.058964 -0.787122 -0.209927
30.045248 -0.917965 0.209857
30.279226 -0.925114 0.634555
22.761129 -0.794836 -0.477068
30.055082 -1.049547 -0.629948
30.050949 -1.049402 -0.209927
28.787086 -1.131048 0.201130
30.445766 -1.196217 0.212719
30.509762 -1.198732 0.639582
23.003035 -1.004334 -0.482304
30.104710 -1.314400 -0.631205
29.451223 -1.285868 -0.205808
28.476473 -1.367823 0.199036
30.524063 -1.466176 0.213347
30.458195 -1.463012 0.638744
30.042173 -1.574444 -0.630157
29.159271 -1.528173 -0.203853
30.490139 -1.731356 0.213208
30.404341 -1.726484 0.637906
30.336643 -1.855469 -0.636650
23.395710 -1.430943 -0.163641
27.817339 -1.701381 -0.194568
30.522219 -1.866819 -0.213487
30.423977 -1.994093 0.212859
30.388117 -1.991742 0.637906
30.518764 -2.134080 -0.640838
23.771372 -1.662256 -0.166363
25.786402 -1.803161 -0.180466
30.464863 -2.130311 -0.213208
24.322340 -1.807462 0.170273
30.435333 -2.261736 0.213068
30.449341 -2.262777 0.639582
30.439178 -2.395615 -0.639582
23.736023 -1.868066 -0.166224
30.455082 -2.396867 -0.213278
22.920448 -1.904542 0.160569
30.454300 -2.530557 0.213347
30.428436 -2.528408 0.639582
30.417114 -2.661153 -0.639582
23.250618 -2.034165 -0.162943
30.423044 -2.661671 -0.213208
30.441015 -2.797136 0.213417
30.445036 -2.797506 0.640419
30.462395 -2.933195 -0.641047
30.498196 -2.936642 -0.213906
30.415447 -3.062675 0.213417
30.419464 -3.063079 0.640419
30.405809 -3.195779 -0.640419
30.431629 -3.198493 -0.213627
30.427322 -3.332334 0.213696
30.431330 -3.332773 0.641257
30.456232 -3.470049 -0.642095
30.482042 -3.472990 -0.214185
30.476528 -3.607135 0.214255
30.480515 -3.607607 0.642932
30.464483 -3.740568 -0.642932
30.490274 -3.743735 -0.214464
30.483570 -3.878000 0.214534
30.447872 -3.873459 0.642932
30.460419 -4.010190 -0.643561
30.456444 -4.009667 -0.214464
30.448566 -4.143868 0.214534
30.492163 -4.149801 0.644608
30.473766 -4.282809 -0.644608
30.489611 -4.285035 -0.214953
30.490416 -4.420900 0.215093
30.494366 -4.421473 0.645445
30.464895 -4.553009 -0.645236
30.500505 -4.558331 -0.215302
30.450676 -4.686807 0.215093
30.454620 -4.687415 0.645445
30.473377 -4.826509 -0.646283
30.499073 -4.830578 -0.215581
30.448095 -4.958787 0.215372
30.452028 -4.959428 0.646283
30.469542 -5.098853 -0.647121
30.495207 -5.103148 -0.215861
30.403664 -5.224305 0.215372
30.447002 -5.231752 0.647121
30.463270 -5.371496 -0.647958
30.449514 -5.369071 -0.215861
30.474998 -5.510777 0.216210
30.478895 -5.511482 0.648796
30.444727 -5.642596 -0.648587
30.470327 -5.647341 -0.216349
30.474869 -5.785835 0.216559
30.468927 -5.784707 0.649634
30.472839 -5.923320 -0.650262
30.459148 -5.920659 -0.216629
30.452641 -6.057407 0.216768
30.456511 -6.058177 0.650472
30.419989 -6.189017 -0.650262
30.494514 -6.204179 -0.217257
30.476942 -6.339213 0.217327
30.441637 -6.331870 0.651309
30.443056 -6.470871 -0.651938
30.429430 -6.467975 -0.217187
30.459551 -6.613417 0.217606
30.463383 -6.614249 0.652985
30.463516 -6.753599 -0.653613
30.449930 -6.750587 -0.217746
30.439692 -6.887799 0.217885
30.482513 -6.897489 0.654660
30.481352 -7.037175 -0.655288
30.467810 -7.034048 -0.218304
30.456295 -7.171505 0.218444
30.460089 -7.172399 0.655498
30.447947 -7.309905 -0.655917
30.492777 -7.320668 -0.218932
30.431406 -7.446517 0.218723
30.435184 -7.447442 0.656335
30.480005 -7.599519 -0.658011
30.505354 -7.605839 -0.219491
30.442801 -7.731486 0.219281
30.446556 -7.732440 0.658011
30.451244 -7.875227 -0.658849
30.437820 -7.871756 -0.219491
30.490215 -8.027404 0.220119
30.445599 -8.015657 0.659477
30.497248 -8.171713 -0.661362
30.483875 -8.168130 -0.220329
30.496183 -8.314214 0.220678
30.499884 -8.315223 0.662199
30.424776 -8.437537 -0.661362
30.411436 -8.433838 -0.220329
30.460966 -8.590881 0.220957
30.426161 -8.581064 0.662199
30.503756 -8.746811 -0.664712
30.490479 -8.743004 -0.221446
30.461639 -8.878758 0.221515
30.455702 -8.877028 0.664503
30.455023 -9.021189 -0.665341
30.451372 -9.020107 -0.221725
30.459602 -9.167300 0.222074
30.424944 -9.156869 0.665550
30.461187 -9.312920 -0.667225
30.486252 -9.320582 -0.222563
30.416643 -9.444619 0.222353
30.458454 -9.457602 0.668063
30.416899 -9.590411 -0.668063
30.441904 -9.598295 -0.222842
30.485447 -9.758469 0.223470
30.489025 -9.759614 0.670576
30.408117 -9.880197 -0.669739
30.423557 -9.885213 -0.223331
30.475101 -10.049182 0.224029
30.478657 -10.050353 0.672252
30.462957 -10.192762 -0.672880
30.497345 -10.204269 -0.224517
30.424124 -10.327599 0.224308
27.767370 -9.425752 0.614241
30.446594 -10.335226 0.673508
30.457928 -10.487505 -0.674765
30.444956 -10.483039 -0.224797
27.764982 -9.695966 0.205319
30.427248 -10.625670 0.225006
27.674620 -9.664410 0.614032
30.440193 -10.630192 0.675393
30.431219 -10.776259 -0.676231
27.816673 -9.850400 -0.206017
30.512562 -10.805065 -0.225983
27.669901 -9.934509 0.205249
30.446302 -10.931339 0.225844
27.560999 -9.895410 0.613403
30.449776 -10.932587 0.677697
27.808802 -10.121576 -0.619896
30.467548 -11.089281 -0.679163
30.445299 -11.081182 -0.226193
27.591536 -10.179054 0.205319
27.473597 -10.135545 0.613403
30.456392 -11.235956 0.680000
30.425804 -11.375742 -0.680419
27.631157 -10.330866 -0.205947
30.441105 -11.381462 -0.226891
27.454901 -10.401731 0.204970
27.346706 -10.360740 0.612566
30.431976 -11.529644 0.681676
27.693256 -10.630445 -0.621362
30.474716 -11.698148 -0.683770
27.558622 -10.578764 -0.206087
27.363085 -10.640922 0.204970
27.227297 -10.588117 0.611938
27.627342 -10.882699 -0.621990
27.455954 -10.815187 -0.206017
27.306335 -10.894123 0.205249
27.198866 -10.851247 0.613403
27.568399 -11.138357 -0.622828
27.406887 -11.073101 -0.206366
27.173206 -11.116853 0.204970
27.029108 -11.057900 0.611728
27.460915 -11.374683 -0.622618
27.309214 -11.311847 -0.206366
27.075161 -11.353558 0.204970
27.005342 -11.324280 0.613403
27.397419 -11.629515 -0.623456
27.200256 -11.545823 -0.206296
27.048553 -11.620975 0.205528
26.905493 -11.559512 0.613403
27.221542 -11.836264 -0.621780
27.098465 -11.782748 -0.206296
26.909502 -11.840465 0.205249
26.803593 -11.793863 0.613403
27.190283 -12.105894 -0.623456
27.067692 -12.051313 -0.206855
26.841619 -12.091269 0.205528
26.736116 -12.043742 0.614241
27.083607 -12.342710 -0.623456
26.997892 -12.303649 -0.207134
26.735083 -12.325043 0.205528
26.629997 -12.276597 0.614241
27.047354 -12.612389 -0.625131
26.925749 -12.555682 -0.207413
26.698866 -12.592002 0.206087
26.558022 -12.525577 0.615079
26.972357 -12.865154 -0.625969
26.851257 -12.807393 -0.207692
26.660019 -12.859266 0.206645
26.483727 -12.774233 0.615917
26.895006 -13.117571 -0.626807
26.774422 -13.058758 -0.207972
26.618534 -13.126808 0.207204
26.442976 -13.040233 0.617592
26.743721 -13.333928 -0.625969
26.695242 -13.309756 -0.208251
26.502970 -13.358596 0.207204
26.399597 -13.306492 0.619267
26.661976 -13.584955 -0.626807
26.649355 -13.578525 -0.208809
26.527624 -13.662624 0.208321
26.353577 -13.572984 0.620943
26.586752 -13.840187 -0.627854
26.529848 -13.810564 -0.208809
26.442785 -13.912223 0.208600
26.375696 -13.876925 0.624294
26.076551 -13.865149 -0.618639
26.452465 -14.065025 -0.209159
26.390842 -14.180311 0.209159
26.324049 -14.144423 0.625969
26.472952 -14.373640 -0.630995
26.399023 -14.333500 -0.209717
26.336229 -14.448550 0.209717
26.313564 -14.436116 0.628691
26.626329 -14.759215 -0.637697
26.439110 -14.655437 -0.211043
26.313839 -14.736458 0.210555
26.247646 -14.699389 0.630157
26.975109 -15.261783 -0.649215
26.519093 -15.003780 -0.212719
26.357874 -15.064766 0.211951
26.265934 -15.012218 0.633718
26.503223 -15.301643 -0.641047
26.629633 -15.374625 -0.214674
26.354979 -15.369769 0.212998
26.228931 -15.296260 0.636021
26.808020 -15.791130 -0.651728
26.847710 -15.814510 -0.217536
26.503448 -15.767895 0.215302
26.335030 -15.667696 0.641885
26.772034 -16.086260 -0.654241
26.811541 -16.109999 -0.218374
26.561464 -16.117893 0.216908
26.368246 -16.000645 0.646074
26.741455 -16.387186 -0.656964
26.823406 -16.437405 -0.219630
26.632383 -16.480618 0.218653
26.431652 -16.356403 0.651100
26.495691 -16.556345 -0.654451
26.678944 -16.670855 -0.219630
26.783546 -16.899160 0.221097
26.490841 -16.714476 0.656126
26.442955 -16.846020 -0.656754
27.291483 -17.386591 -0.225914
26.778030 -17.224207 0.222283
26.587822 -17.101862 0.662199
26.823187 -17.419182 -0.669948
30.445450 -19.771505 -0.760419
24.731792 -16.061014 -0.205877
27.457405 -17.831047 -0.228566
30.401068 -19.742683 -0.253071
26.927757 -17.654612 0.224797
26.604790 -17.442863 0.666388
24.844347 -16.444115 -0.624084
26.403372 -17.476011 -0.663246
30.396809 -20.119209 -0.763561
24.757467 -16.386610 -0.207274
26.800438 -17.738823 -0.224378
30.361042 -20.095535 -0.254188
24.536070 -16.394478 0.206017
26.731096 -17.861147 0.224448
24.406593 -16.307964 0.614869
26.875517 -17.957645 0.677068
24.691612 -16.654703 -0.623875
26.266439 -17.716936 -0.663665
26.710939 -18.016756 -0.224936
30.400066 -20.505104 -0.256003
24.359007 -16.585457 0.205738
26.516354 -18.054342 0.223959
24.436899 -16.638493 0.619267
27.230160 -18.540356 0.690053
24.833715 -17.067739 -0.631205
24.492434 -16.833183 -0.207483
24.246210 -16.820194 0.206017
24.151121 -16.754229 0.615707
27.502707 -19.079306 0.701152
25.101503 -17.576262 -0.641885
24.639494 -17.252758 -0.209996
24.882462 -17.585186 0.212719
26.189056 -18.508595 0.223889
24.085642 -17.022049 0.617801
25.751226 -18.199167 0.660524
27.841370 -19.676334 0.714137
23.180925 -16.534794 -0.596440
24.678570 -17.603052 -0.634974
24.642675 -17.577450 -0.211323
26.132471 -18.640110 -0.224098
24.703711 -17.784126 0.212510
26.018427 -18.730587 0.223819
24.999111 -17.996784 0.645236
27.936363 -20.111303 0.721048
23.197519 -16.853983 -0.600629
24.354158 -17.694332 -0.630576
30.460897 -22.131138 -0.788692
24.617786 -17.885870 -0.212440
30.426388 -22.106064 -0.262565
24.418547 -17.904419 0.211393
30.394156 -22.285917 0.263124
24.833046 -18.208344 0.645027
27.985554 -20.519857 0.726911
23.403177 -17.317440 -0.609843
26.151766 -19.351288 -0.681466
24.557228 -18.171392 -0.213278
30.368973 -22.471857 -0.263752
24.045040 -17.955284 0.209508
24.577076 -18.352573 0.642513
26.219286 -19.578869 0.685445
23.171320 -17.460842 -0.607749
30.389400 -22.900057 -0.797068
22.856392 -17.223526 -0.199804
23.473528 -17.849684 0.205877
24.559235 -18.675276 0.646283
30.384691 -23.105057 0.799582
23.105314 -17.729332 -0.610053
30.362906 -23.298277 -0.801676
23.284353 -17.866713 -0.204900
23.830803 -18.451778 0.210415
30.377554 -23.520815 0.268220
24.245131 -18.772587 0.642304
23.548475 -18.398087 -0.625969
25.864719 -20.207733 -0.687540
30.386909 -23.740854 -0.807749
23.316669 -18.216980 -0.206575
24.616856 -19.232796 -0.218095
30.424355 -23.770111 -0.269546
23.566788 -18.578556 0.209508
24.245268 -19.113428 0.646702
23.113174 -18.385050 -0.618639
24.388546 -19.399527 -0.652775
25.726513 -20.463793 -0.688587
23.250721 -18.494459 -0.207413
30.434889 -24.209003 -0.271501
23.013830 -18.470552 0.206017
30.344566 -24.354090 0.271641
22.907980 -18.385599 0.615288
22.353586 -18.101576 -0.602513
22.754280 -18.426052 -0.204411
23.091825 -18.866814 0.208181
23.265396 -19.008625 0.629320
22.225628 -18.321394 -0.603351
22.399715 -18.464901 -0.202666
30.455280 -25.105396 -0.275550
23.133886 -19.240252 0.210066
23.206244 -19.300430 0.632252
22.271687 -18.688164 -0.609006
24.868008 -20.866735 -0.680000
22.636061 -18.993912 -0.206296
24.129812 -20.247316 -0.219910
23.209333 -19.648151 0.212300
21.892338 -18.533232 0.600838
22.039333 -18.823370 -0.607121
24.107185 -20.589481 -0.664084
22.629129 -19.327103 -0.207762
22.885481 -19.719391 0.210904
21.850956 -18.827990 0.604189
21.972322 -19.100248 -0.609843
30.408125 -26.433380 -0.843980
22.338860 -19.418875 -0.206645
22.193769 -19.463413 0.206087
21.723406 -19.050915 0.605236
21.527754 -19.046148 -0.602095
22.228464 -19.666084 -0.207204
21.814186 -19.469906 0.204132
21.824852 -19.479424 0.612775
21.464745 -19.326944 -0.605026
22.427565 -20.193869 -0.210694
24.798138 -22.328344 -0.232965
21.480606 -19.511610 0.202596
21.298805 -19.346474 0.602723
21.273157 -19.493258 -0.604398
23.525946 -21.557558 -0.222772
30.404577 -27.860661 -0.287907
21.830875 -20.180254 0.207553
21.283340 -19.674118 0.607121
21.138798 -19.712248 -0.605445
20.667551 -19.272804 -0.197290
30.430885 -28.377260 -0.290490
24.268730 -22.829741 0.232616
22.640087 -21.297667 0.651100
21.125521 -20.047371 -0.610053
21.876759 -20.760267 -0.210555
23.610361 -22.405396 -0.227240
30.414206 -28.862003 -0.292724
21.208090 -20.302328 0.204970
21.240065 -20.332939 0.615917
21.870325 -21.119928 -0.636859
21.083336 -20.359941 -0.204621
25.924376 -25.034878 -0.251605
21.180532 -20.633162 0.206436
21.104788 -20.559376 0.617173
21.128975 -20.763388 -0.620524
30.399199 -29.873209 -0.892775
20.847803 -20.487078 -0.204062
21.155907 -20.972088 0.207972
20.988476 -20.806110 0.619058
22.025118 -21.833748 0.649634
20.331930 -20.331930 -0.602304
22.905235 -22.905235 -0.678534
20.696510 -20.696510 -0.204341
20.789047 -20.971264 0.206157
20.679417 -20.860670 0.615288
19.992556 -20.344572 -0.597487
20.255785 -20.612436 -0.201758
20.458717 -21.001461 0.204691
20.657043 -21.205050 0.620105
20.321247 -21.043266 -0.612775
20.346048 -21.068949 -0.204481
20.530521 -21.446463 0.207274
20.478125 -21.391727 0.620314
20.212540 -21.299572 -0.615079
20.071930 -21.151402 -0.203574
20.369993 -21.653942 0.207553
20.345472 -21.627872 0.621990
20.019081 -21.467834 -0.614869
20.125280 -21.581722 -0.206017
20.478920 -22.153971 0.210625
20.183107 -21.833961 0.622828
20.249752 -22.098726 -0.627854
20.098318 -21.933466 -0.207692
20.029320 -22.050560 0.207972
20.193470 -22.231276 0.629110
20.577944 -22.854122 -0.644189
20.341074 -22.591053 -0.212230
19.842791 -22.231968 0.208042
19.978725 -22.384272 0.628482
20.463844 -23.130169 -0.646911
20.110029 -22.730251 -0.211881
19.773298 -22.547127 0.209368
19.710115 -22.475080 0.626178
20.228422 -23.270140 -0.645864
20.324213 -23.380333 -0.216279
19.569260 -22.711245 0.209298
19.774282 -22.949184 0.634555
20.628439 -24.152800 -0.665341
20.249296 -23.708879 -0.217676
19.654612 -23.216967 0.212370
19.812277 -23.403206 0.642304
21.065956 -25.105429 -0.686493
19.778093 -23.570614 -0.214813
19.419289 -23.349157 0.212021
19.505005 -23.452219 0.638953
19.638695 -24.036562 0.216698
19.944824 -24.411245 0.660315
20.529789 -25.579588 0.228985
20.388115 -25.403065 0.682304
20.058155 -25.443649 0.226193
20.988873 -26.624256 0.710157
20.147579 -26.020960 0.229753
20.394606 -26.339998 0.697801
20.373699 -26.792774 0.234989
20.569431 -27.050175 0.711833
20.330574 -27.225941 0.237223
20.452232 -27.388859 0.716021
20.301121 -27.687235 0.719163
0.122689 -0.170426 0.001466
20.927313 -29.069872 0.250069
0.157713 -0.219077 0.005654
0.153895 -0.221839 0.001885
0.136769 -0.197152 0.005026
0.168804 -0.247923 0.006283
0.155556 -0.232806 0.001955
0.166635 -0.249386 0.006283
0.169967 -0.259242 0.002164
0.148007 -0.225748 0.005654
0.151469 -0.235485 0.001955
0.140623 -0.218622 0.005445
0.128064 -0.202970 0.001676
0.117369 -0.186019 0.004607
0.168384 -0.272106 0.002234
0.157830 -0.255050 0.006283
0.103752 -0.170978 0.001396
0.119292 -0.196587 0.004817
0.138046 -0.232034 0.001885
0.127795 -0.214804 0.005236
0.115843 -0.198639 0.004817