# This PCD file was generated using the MATLAB® pcwrite function
# from Computer Vision System Toolbox®.
# .PCD v.7 - Point Cloud Data file format
VERSION .7
FIELDS x y z
SIZE 4 4 4
TYPE F F F
COUNT 1 1 1
WIDTH 1015
HEIGHT 1
VIEWPOINT 0 0 0 1 0 0 0
POINTS 1015
DATA ascii
30.668718 32.888176 -0.313947
28.154409 29.668558 -0.856754
28.290684 29.812160 -0.286930
28.717823 29.738176 -0.865969
28.904030 29.931000 -0.290490
29.249537 29.764544 -0.874137
29.444481 29.962921 -0.293283
29.826292 29.826292 -0.883561
26.862331 26.862331 -0.265218
27.026264 26.558636 -0.793718
26.931681 26.465689 -0.263612
27.055628 26.127317 -0.787854
27.017744 26.090733 -0.262216
27.108547 25.725050 -0.782828
27.077566 25.695650 -0.260610
27.222326 25.385231 -0.779686
27.154501 25.321981 -0.259214
27.265907 24.984602 -0.774660
27.197498 24.921915 -0.257539
27.304583 24.585157 -0.769634
27.235594 24.523039 -0.255863
27.308424 24.160454 -0.763770
27.268814 24.125408 -0.254188
27.427677 23.842516 -0.761257
27.357555 23.781561 -0.253071
27.452238 23.446426 -0.756231
27.381552 23.386055 -0.251395
27.563892 23.128853 -0.753718
27.462025 23.043375 -0.250278
27.579529 22.734810 -0.748691
27.476881 22.650194 -0.248603
27.621479 22.367434 -0.744503
27.486982 22.258520 -0.246927
27.659130 22.001066 -0.740315
27.554962 21.918205 -0.245810
27.692503 21.635756 -0.736126
27.619104 21.578409 -0.244693
27.785072 21.320236 -0.733613
27.679424 21.239168 -0.243576
27.842312 20.980688 -0.730262
27.831770 20.972742 -0.243297
28.080599 20.778549 -0.731728
27.852961 20.610107 -0.241901
27.880699 20.256514 -0.721885
27.845686 20.231075 -0.240295
27.893620 19.896326 -0.717697
27.858355 19.871170 -0.238899
27.935148 19.560402 -0.714346
27.924213 19.552744 -0.237991
27.948229 19.208286 -0.710367
27.970161 19.223360 -0.236944
28.015324 18.896574 -0.707854
28.004208 18.889076 -0.235827
27.970734 18.513424 -0.702618
28.034557 18.555670 -0.234710
28.048353 18.389307 0.234151
27.975998 18.341867 0.700733
28.139612 18.274076 -0.702828
28.061234 18.223179 -0.233593
28.047968 18.041059 0.232825
27.975231 17.994274 0.696754
28.196825 17.963358 -0.700315
28.084251 17.891642 -0.232476
28.102850 17.731579 0.231987
28.038183 17.690777 0.694451
28.250765 17.653038 -0.697801
28.103628 17.561096 -0.231359
28.154476 17.422518 0.231150
28.055470 17.361252 0.691100
28.267347 17.322252 -0.694451
28.085283 17.210684 -0.229963
28.134464 17.072412 0.229753
28.069149 17.032778 0.687749
28.314596 17.013126 -0.691938
28.131546 16.903137 -0.229125
28.179249 16.764893 0.228916
28.122202 16.730953 0.685445
28.358610 16.704498 -0.689424
28.209051 16.616402 -0.228566
28.186266 16.437744 0.227799
28.198044 16.444613 0.683770
28.364771 16.376408 -0.686074
28.249060 16.309603 -0.227729
28.259182 16.151453 0.227240
28.201593 16.118538 0.680419
28.436987 16.088873 -0.684398
28.355497 16.042768 -0.227449
28.294355 15.845601 0.226402
28.227779 15.808315 0.677697
28.506350 15.801328 -0.682723
28.389463 15.736537 -0.226612
28.300051 15.525939 0.225355
28.233175 15.489250 0.674555
28.493788 15.470865 -0.679163
28.385101 15.411853 -0.225495
28.328756 15.221589 0.224517
28.296812 15.204426 0.672880
28.530607 15.169993 -0.676859
28.447878 15.126005 -0.224936
28.354313 14.917926 0.223680
28.322241 14.901052 0.670367
28.590958 14.883511 -0.675184
28.472353 14.821770 -0.224098
28.305616 14.578350 0.222283
28.691179 14.776929 0.676021
28.612852 14.578977 -0.672671
28.564974 14.554581 -0.223819
31.033001 15.812104 -0.243157
28.815729 14.524323 0.225285
31.539248 15.897090 0.246578
28.819038 14.525991 0.676021
31.503729 15.707179 -0.737383
31.787294 15.848560 -0.247974
32.223854 15.891046 0.250837
31.724398 15.644742 0.740943
24.576626 11.986821 -0.572775
32.313545 15.760369 -0.753089
32.283894 15.745908 -0.250767
32.397327 15.626616 0.251116
32.616135 15.732156 0.758534
24.788580 11.823546 -0.575288
32.494968 15.499305 -0.754137
32.627663 15.562597 -0.252373
33.066074 15.594973 0.255235
32.969204 15.549285 0.763561
24.818327 11.572975 -0.573613
33.236080 15.498238 -0.768168
33.197247 15.480129 -0.255724
33.128254 15.272335 0.254676
33.021923 15.223315 0.761676
33.342766 15.195174 -0.767540
33.249176 15.152522 -0.255095
33.187328 14.949801 0.254118
26.061560 11.739877 0.598744
33.080589 14.901718 0.760000
33.401031 14.871097 -0.765864
24.984859 11.123976 -0.190937
33.243301 14.627403 0.253559
26.080656 11.475763 0.596859
33.163612 14.592339 0.758953
33.456184 14.547162 -0.764189
24.879234 10.817799 -0.189402
33.389343 14.518100 -0.254188
26.129786 11.226242 0.198547
33.305370 14.309116 0.253071
26.161434 11.239840 0.596440
33.188644 14.258967 0.756650
33.462215 14.203868 -0.761466
24.935869 10.584648 -0.189122
33.376694 14.167565 -0.253141
27.324148 11.457967 0.206855
33.373638 13.994729 0.252652
28.213161 11.830760 0.640838
33.274933 13.953338 0.755812
33.510998 13.880710 -0.759791
24.768606 10.259493 -0.187168
33.462101 13.860456 -0.252861
33.392689 13.661309 0.251884
28.722477 11.750675 0.650053
33.528885 13.546549 -0.757487
33.442707 13.511730 -0.251814
33.408466 13.328627 0.251116
29.065363 11.595904 0.655498
33.645824 13.253442 -0.757487
33.447697 13.175398 -0.250976
33.626026 13.076446 0.251884
33.479698 13.019543 0.752461
33.834869 12.987989 -0.759163
33.748112 12.954685 -0.252373
33.673397 12.757710 0.251395
33.601387 12.730428 0.752671
33.872002 12.664223 -0.757487
33.719376 12.607159 -0.251325
33.745918 12.449527 0.251116
33.636162 12.409036 0.750995
33.943649 12.354478 -0.756650
33.677761 12.257703 -0.250208
33.740337 12.114019 0.250278
27.316347 9.807570 0.607958
33.818447 12.142063 0.752671
33.984196 12.034435 -0.755184
33.896561 12.003402 -0.251046
33.958054 11.858684 0.251116
27.174362 9.489712 0.602932
33.875923 11.830002 0.751623
34.191906 11.773217 -0.757487
34.066204 11.729935 -0.251535
34.022369 11.549039 0.250837
27.180401 9.226503 0.601257
31.696268 10.759433 0.701152
33.930534 11.517864 0.750576
34.217495 11.449014 -0.755812
34.138821 11.422689 -0.251325
31.605217 10.421838 0.232336
27.145943 8.951389 0.598744
31.712994 10.457377 0.699477
33.963287 11.199412 0.749110
34.240032 11.125261 -0.754137
31.555286 10.252934 -0.231638
34.218178 11.118160 -0.251186
31.656864 10.133442 0.232057
31.660215 10.134515 0.696335
34.012115 10.887364 0.748063
31.542038 9.945167 -0.692775
31.490967 9.929064 -0.230521
31.705889 9.844940 0.231778
27.193003 8.443652 0.596440
31.212755 9.691818 0.684608
34.096283 10.587177 0.747854
31.321672 9.575996 -0.686074
31.585976 9.656802 -0.230591
31.713991 9.544827 0.231219
27.342239 8.229080 0.598116
31.535482 9.491103 0.689843
34.082066 10.257537 0.745550
31.413631 9.305141 -0.686283
31.582752 9.355237 -0.229963
31.719275 9.245325 0.230661
31.703491 9.240726 0.691728
34.179878 9.962525 0.745760
31.455194 9.019632 -0.685445
31.557453 9.048954 -0.229195
31.798746 8.968174 0.230661
31.398027 8.855160 0.683351
34.227024 9.653019 0.744922
31.484537 8.731435 -0.684398
31.635218 8.773222 -0.229195
31.875797 8.690339 0.230661
34.281021 9.346079 0.744294
31.520905 8.446001 -0.683561
31.671936 8.486469 -0.228916
31.834377 8.381292 0.229823
31.895849 8.397476 0.690890
34.312935 9.033841 0.743246
31.603088 8.173114 -0.683770
31.744787 8.209761 -0.228916
31.789999 8.073631 0.228985
32.016365 8.131121 0.691938
34.380772 8.731604 0.743037
31.624702 7.884924 -0.682723
31.776411 7.922749 -0.228636
31.859243 7.795907 0.228985
31.969568 7.822904 0.689424
34.368256 8.409859 0.741152
31.663143 7.601648 -0.682095
31.795721 7.633477 -0.228287
31.848194 7.499254 0.228427
32.007423 7.536747 0.688796
34.430607 8.107331 0.740943
31.640598 7.304808 -0.680210
31.792921 7.339974 -0.227799
31.912422 7.221044 0.228427
31.954958 7.230669 0.686283
31.634813 7.013269 -0.678744
31.767899 7.042773 -0.227170
31.856958 6.916823 0.227589
32.016842 6.951538 0.686283
31.606796 6.718232 -0.676859
31.749897 6.748649 -0.226612
31.876944 6.630414 0.227310
31.997978 6.655589 0.684608
31.595640 6.428206 -0.675393
31.689993 6.447402 -0.225774
31.815899 6.328576 0.226472
32.015617 6.368302 0.683770
31.876259 6.196117 -0.680210
31.862843 6.193509 -0.226612
32.017277 6.078670 0.227519
32.030682 6.081215 0.682932
32.204365 5.968727 -0.686074
32.240143 5.975357 -0.228916
34.934196 6.474670 -0.248044
34.834190 6.299048 0.247137
34.758533 6.285367 0.739896
35.031776 6.177047 -0.745131
34.890888 6.152205 -0.247346
34.927254 6.001600 0.247416
34.812057 5.981806 0.739896
35.113926 5.876056 -0.745760
35.022148 5.860698 -0.247905
34.938820 5.690148 0.247137
34.862934 5.677789 0.739896
35.163868 5.569409 -0.745760
35.071957 5.554852 -0.247905
34.987144 5.385036 0.247137
34.921036 5.374861 0.740105
35.181465 5.257905 -0.745131
35.079536 5.242672 -0.247625
35.032806 5.079515 0.247137
35.006187 5.075655 0.740943
35.305214 4.961824 -0.746807
35.213074 4.948875 -0.248254
35.115433 4.779000 0.247416
34.999615 4.763238 0.739896
35.267872 4.643104 -0.745131
35.215263 4.636178 -0.247974
35.155800 4.472383 0.247416
35.089439 4.463940 0.740943
35.386433 4.344908 -0.746807
35.294083 4.333568 -0.248254
35.193489 4.165424 0.247416
35.077415 4.151686 0.739896
35.423000 4.035941 -0.746807
35.330555 4.025408 -0.248254
35.228497 3.858148 0.247416
35.112309 3.845423 0.739896
35.456871 3.726667 -0.746807
35.364338 3.716942 -0.248254
35.260826 3.550578 0.247416
35.184319 3.542875 0.740733
35.478092 3.416152 -0.746597
35.425289 3.411067 -0.248463
35.290466 3.242738 0.247416
35.223850 3.236617 0.740943
35.506554 3.106421 -0.746597
35.463669 3.102669 -0.248533
35.367249 2.938792 0.247765
35.290607 2.932423 0.741781
35.572178 2.799591 -0.747435
35.529266 2.796214 -0.248812
35.391548 2.630046 0.247765
35.354736 2.627311 0.742618
35.645119 2.492550 -0.748482
35.552315 2.486060 -0.248812
35.492977 2.326333 0.248323
35.376316 2.318686 0.742618
35.665512 2.181396 -0.748482
35.572659 2.175717 -0.248812
35.501942 2.015946 0.248254
35.435131 2.012153 0.743456
35.673206 1.869554 -0.748273
35.630234 1.867301 -0.249091
33.140984 1.591876 0.231638
35.558136 1.707980 0.248533
33.104561 1.590126 0.694241
35.441353 1.702370 0.743246
35.778057 1.562104 -0.750157
35.685131 1.558047 -0.249371
33.013721 1.297113 0.230661
35.581680 1.398008 0.248603
33.027267 1.297645 0.692356
35.544773 1.396558 0.745131
35.790329 1.249826 -0.750157
32.879158 1.148165 -0.229683
35.747337 1.248325 -0.249720
33.023785 1.008968 0.230661
35.632504 1.088671 0.248882
33.107285 1.011519 0.693822
35.585587 1.087238 0.745760
32.821548 0.859462 -0.687749
32.817951 0.859368 -0.229195
33.031334 0.720746 0.230661
35.690636 0.778772 0.249231
33.154835 0.723441 0.694660
35.553738 0.775785 0.744922
32.667858 0.570220 -0.684398
32.914185 0.574519 -0.229823
33.116356 0.433517 0.231219
35.696072 0.467287 0.249231
32.290150 0.422701 0.676440
35.629131 0.466411 0.746388
32.751568 0.285819 -0.686074
32.917946 0.287271 -0.229823
33.158875 0.144684 0.231499
35.808788 0.156246 0.249999
32.812489 0.143172 0.687330
35.681831 0.155692 0.747435
32.772812 0.000000 -0.686493
32.959198 0.000000 -0.230102
33.198875 -0.144858 0.231778
32.642529 -0.142431 0.683770
35.751816 -0.155998 0.748901
32.801556 -0.286255 -0.687121
33.037937 -0.288318 -0.230661
33.086357 -0.433124 0.231010
31.720324 -0.415242 0.664503
33.269852 -0.435526 0.696964
35.779083 -0.468374 0.749529
32.717838 -0.571092 -0.685445
32.394276 -0.565444 -0.226193
32.881371 -0.717474 0.229614
31.515583 -0.687672 0.660315
35.873589 -0.782764 0.751623
32.521717 -0.851611 -0.681466
32.468079 -0.850207 -0.226751
32.444069 -0.991256 0.226612
31.018719 -0.947708 0.650053
35.865395 -1.095787 0.751623
30.174984 -1.053734 -0.632461
32.543022 -1.136427 -0.682095
32.499397 -1.134904 -0.227031
30.495728 -1.198180 0.213068
32.544098 -1.278661 0.227380
28.701553 -1.127687 0.601676
30.250019 -1.188527 0.634136
35.904415 -1.410688 0.752671
30.164639 -1.317017 -0.632461
33.041267 -1.442613 -0.692775
32.608139 -1.423702 -0.227868
31.133345 -1.495442 0.217606
33.300793 -1.599552 0.232755
28.790483 -1.382906 0.603770
31.686508 -1.522012 0.664503
33.414139 -1.604996 0.700733
30.231871 -1.584385 -0.634136
33.027420 -1.730894 -0.692775
30.846914 -1.616618 -0.215651
31.927788 -1.812991 0.223261
28.278233 -1.605754 0.593299
30.464231 -1.729884 0.639163
30.296726 -1.853027 -0.635812
32.099232 -1.963273 -0.224517
30.254345 -1.982975 0.211672
31.990578 -2.096773 0.223819
28.153402 -1.845271 0.590995
30.438978 -2.128501 -0.639163
32.593243 -2.279142 -0.684398
29.886292 -2.089853 -0.209159
32.320286 -2.260055 -0.226193
30.195999 -2.243950 0.211393
31.861366 -2.367708 0.223051
33.367180 -2.479610 0.233593
27.877001 -2.071619 0.585550
30.788023 -2.423070 -0.646911
29.886854 -2.352146 -0.209298
33.106819 -2.605563 -0.231848
29.796583 -2.475905 0.208740
33.314373 -2.768211 0.233384
27.738298 -2.304875 0.583037
30.237839 -2.645468 -0.635812
29.566338 -2.586720 -0.207204
27.144981 -2.494273 0.190309
30.192070 -2.774261 0.211672
32.123882 -2.951770 0.225215
27.298983 -2.508424 0.574241
29.616493 -2.851744 -0.623246
29.502825 -2.840799 -0.206925
29.917974 -3.012582 0.209927
31.947660 -3.216960 0.224168
36.325417 -3.657777 0.254886
27.315844 -2.750561 0.575079
36.268597 -3.652056 0.763561
29.431393 -3.093364 -0.619896
27.686815 -2.910002 -0.194358
26.908449 -2.946954 0.188983
29.323948 -3.211494 0.205947
26.933018 -2.949645 0.567540
36.364544 -3.982565 0.766283
27.645041 -3.149755 -0.582828
30.207893 -3.441755 -0.636859
31.876728 -3.631894 -0.672042
27.421915 -3.124333 -0.192683
27.338509 -3.235726 0.192194
26.856611 -3.178689 0.566492
30.500372 -3.609957 0.643351
36.378048 -4.305626 0.767330
27.556961 -3.383569 -0.581571
27.175251 -3.336701 -0.191147
29.051117 -3.567029 -0.204341
26.872759 -3.418647 0.189122
26.708834 -3.397793 0.563979
27.119982 -3.570413 -0.572985
27.224413 -3.584162 -0.191705
27.476042 -3.739325 0.193590
31.974463 -4.351533 0.225285
36.611603 -4.982620 0.257958
26.380972 -3.590293 0.557697
27.355106 -3.844509 -0.578639
27.568392 -3.874485 -0.194358
27.115788 -3.931602 0.191287
26.744410 -3.877755 0.566074
28.526850 -4.263366 -0.604189
36.773434 -5.495826 -0.778849
27.770889 -4.150387 -0.196034
27.337414 -4.207630 0.193102
26.818249 -4.127723 0.568377
28.182444 -4.463660 -0.597697
36.872192 -5.839982 -0.781990
28.375595 -4.494253 -0.200572
29.936104 -4.741413 -0.211602
31.723776 -5.024552 -0.224238
27.003563 -4.397810 0.191007
30.142134 -4.908958 0.213208
26.860149 -4.374453 0.570053
27.619801 -4.621970 -0.586597
29.532776 -4.942091 -0.627225
28.157768 -4.711994 -0.199315
31.303942 -5.238483 -0.221585
36.866459 -6.169329 -0.260960
26.855747 -4.614662 0.190239
29.901043 -5.137938 0.211811
26.702711 -4.588365 0.567540
30.644072 -5.265615 0.651309
27.627645 -4.871499 -0.587644
29.803593 -5.255177 -0.633927
27.455770 -4.841193 -0.194638
29.829100 -5.259675 -0.211462
26.666853 -4.822153 0.189192
29.943628 -5.414690 0.212440
26.425537 -4.778515 0.562513
27.112223 -5.024953 -0.577592
32.823681 -6.083510 -0.699267
27.235497 -5.047801 -0.193381
31.355234 -5.811349 -0.222632
37.008812 -6.859178 -0.262775
26.132544 -4.961419 0.185702
36.840992 -6.994481 0.261797
26.245317 -4.982829 0.559581
26.910315 -5.230835 -0.574241
37.087555 -7.209091 -0.791414
26.621080 -5.174614 -0.189332
30.125404 -5.855785 -0.214255
26.137291 -5.199030 0.186051
31.609940 -6.287608 0.225006
26.161612 -5.203868 0.558744
26.883236 -5.469456 -0.574660
30.086887 -6.121246 -0.643142
26.016367 -5.293090 -0.185352
30.700293 -6.246045 -0.218723
37.050049 -7.537918 -0.263961
26.384632 -5.488011 0.188145
26.408854 -5.493050 0.565026
27.078966 -5.755812 -0.579896
30.091002 -6.396039 -0.644398
26.203936 -5.569818 -0.187028
26.560493 -5.766849 0.189751
37.036156 -8.041338 0.264590
26.457615 -5.744511 0.567121
27.027708 -5.991899 -0.579896
30.131647 -6.680026 -0.646492
25.920027 -5.746332 -0.185352
29.873930 -6.622891 -0.213627
27.152868 -6.144067 0.194358
37.081612 -8.390712 0.265428
26.542995 -6.006067 0.570053
36.957367 -8.362598 0.793718
27.130255 -6.263513 -0.583246
26.736063 -6.172506 -0.191566
30.000124 -6.926074 -0.214953
27.010616 -6.360156 0.193730
26.382524 -6.212260 0.567749
37.038689 -8.721454 0.797068
26.578764 -6.380997 -0.572566
28.299480 -6.794104 -0.609634
30.166021 -7.242221 -0.649843
26.603394 -6.386909 -0.191007
37.250584 -8.943074 -0.267452
26.565557 -6.500551 0.190937
26.133083 -6.394724 0.563561
28.219713 -7.035964 -0.609215
30.111374 -7.507609 -0.650053
31.906027 -7.955066 -0.688796
27.245239 -6.793001 -0.196034
30.039623 -7.489719 -0.216140
37.277855 -9.294413 -0.268220
26.488436 -6.727206 0.190798
26.376678 -6.698823 0.570053
28.043390 -7.122114 0.606074
26.995716 -6.981567 -0.584084
26.797674 -6.930350 -0.193241
26.361031 -6.940280 0.190309
26.723288 -7.035655 0.578848
37.223103 -9.800025 0.806283
27.049648 -7.247931 -0.586597
30.226849 -8.099259 -0.655498
31.656105 -8.482227 -0.686493
27.141853 -7.272638 -0.196173
31.498074 -8.439883 -0.227659
25.768841 -7.025393 0.186469
27.495770 -7.496207 0.198966
37.374950 -10.189581 0.270454
26.429375 -7.205475 0.573822
37.232624 -10.150778 0.808377
26.908297 -7.462331 -0.584922
37.592613 -10.425354 -0.817173
26.431740 -7.330170 -0.191496
31.047417 -8.610210 -0.224936
37.409725 -10.550633 0.271362
26.740765 -7.541676 0.581990
37.335072 -10.529579 0.812566
26.332794 -7.550807 -0.573822
31.368700 -8.994830 -0.683561
26.385990 -7.566061 -0.191636
27.174206 -7.792078 -0.197360
27.972034 -8.020851 -0.203155
25.651907 -7.476849 0.186539
27.159149 -7.916170 0.197500
26.731525 -7.791529 0.583246
37.308952 -10.874568 0.814032
26.237141 -7.771795 -0.573194
26.683304 -7.903955 -0.194288
28.102322 -8.324286 -0.204621
26.169788 -7.876212 0.190798
26.001934 -7.825694 0.568796
26.158760 -7.997535 -0.572985
27.908413 -8.532458 -0.611309
25.982166 -7.943546 -0.189681
25.956810 -8.059804 0.189751
28.793150 -8.940511 0.210485
25.837172 -8.022655 0.566702
26.154718 -8.246552 -0.574451
33.267887 -10.489325 -0.730681
26.083523 -8.224103 -0.190937
28.524979 -8.993892 -0.208809
31.328838 -9.877945 -0.229334
26.571196 -8.505507 0.194777
25.651917 -8.211243 0.564189
25.796505 -8.381792 -0.568168
26.001251 -8.448318 -0.190868
28.616592 -9.298095 -0.210066
31.013197 -10.076798 -0.227659
26.438980 -8.718267 0.194358
27.929970 -9.209923 0.205319
29.041092 -9.576316 0.213487
25.835646 -8.519319 0.569843
37.751755 -12.448662 0.832671
26.480871 -8.860375 -0.584922
26.211027 -8.770087 -0.192962
28.923166 -9.677556 -0.212928
27.053135 -9.183302 0.199455
37.791061 -12.828337 0.278622
25.684580 -8.718740 0.568168
37.689022 -12.793698 0.833718
26.100042 -8.986965 -0.578220
37.925884 -13.058929 -0.840210
26.322596 -9.063597 -0.194358
26.320560 -9.191551 0.194638
37.781521 -13.193898 0.279390
26.126654 -9.123836 0.579686
37.604256 -13.131994 0.834346
26.171413 -9.267783 -0.581571
27.745279 -9.825119 -0.616545
38.027241 -13.466153 -0.845027
25.818321 -9.142747 -0.191217
37.902691 -13.422047 -0.280716
25.862886 -9.285726 0.191845
27.312262 -9.806104 0.202596
37.702591 -13.536613 0.279669
25.613192 -9.196075 0.570053
25.638588 -9.331682 -0.571519
27.085396 -9.858278 -0.603770
28.372494 -10.326743 -0.632461
25.803331 -9.391644 -0.191705
29.655977 -10.793893 -0.220329
37.943863 -13.810437 -0.281903
25.630762 -9.455688 0.190728
25.485067 -9.401938 0.569006
27.389179 -10.104402 0.611519
26.951513 -10.076758 -0.602723
29.124117 -10.889061 -0.651309
26.076319 -9.749536 -0.194358
25.519218 -9.668366 0.190519
25.813421 -9.779830 0.578220
25.770502 -9.892369 -0.578220
28.505293 -10.942157 -0.639582
25.719515 -9.872796 -0.192334
25.415236 -9.883445 0.190379
27.288525 -10.611927 0.204411
25.894817 -10.069944 0.581990
37.933720 -14.751616 0.852566
25.804123 -10.164515 -0.580943
28.613367 -11.271105 -0.644189
34.483013 -13.583220 -0.776335
25.985929 -10.236130 -0.194987
34.899113 -13.747126 -0.261867
25.300156 -10.093739 0.190170
27.055563 -10.794075 0.203364
29.117470 -11.616693 0.218863
25.462372 -10.158457 0.574241
27.291725 -10.888294 0.615498
25.788597 -10.419270 -0.582618
28.411953 -11.479174 -0.641885
38.284294 -15.467859 -0.864922
25.979059 -10.496221 -0.195615
28.575109 -11.545094 -0.215162
26.793745 -10.961611 0.202107
28.009966 -11.459180 0.633927
25.835243 -10.701308 -0.585759
25.858757 -10.711048 -0.195405
27.142920 -11.242966 -0.205109
28.667284 -11.874377 -0.216629
26.531075 -11.125403 0.200851
38.205856 -16.021044 0.289234
25.511705 -10.697946 0.579477
27.549322 -11.552389 0.625759
29.245800 -12.263782 0.664294
33.802727 -14.348407 -0.769215
25.810328 -10.955833 -0.195755
33.680450 -14.296504 -0.255444
27.452812 -11.794659 0.208600
38.174843 -16.401207 0.290071
25.490864 -10.951739 0.581152
27.346415 -11.748947 0.623456
30.173828 -13.119954 -0.689215
33.226967 -14.447497 -0.758953
38.434727 -16.711895 -0.877906
26.566584 -11.551479 -0.202247
38.313835 -16.659330 -0.291677
29.335018 -12.907717 0.223749
38.204170 -16.810238 0.291398
25.522438 -11.230142 0.584084
28.524002 -12.550861 0.652775
38.169270 -16.794880 0.873508
32.862156 -14.631175 -0.753508
38.534031 -17.156456 -0.883561
29.342365 -13.064063 -0.224238
38.413651 -17.102859 -0.293562
28.728922 -12.941436 0.219980
38.311306 -17.257986 0.293353
38.185337 -17.201239 0.877278
26.210234 -11.944692 -0.603351
28.530127 -13.001928 -0.656754
32.778713 -14.938121 -0.754555
26.197147 -11.938727 -0.200990
28.144417 -12.826149 -0.215930
38.454025 -17.524509 -0.295028
26.798653 -12.354348 0.206017
27.724936 -12.781370 0.213138
38.386276 -17.696316 0.295098
38.287998 -17.651009 0.883142
27.147026 -12.658866 -0.627435
32.456825 -15.134866 -0.750157
26.128218 -12.183787 -0.201270
26.047674 -12.284881 0.201060
29.755850 -14.033770 0.229683
26.277702 -12.393369 0.608587
29.876644 -14.090740 0.691938
38.340488 -18.082548 0.887959
26.791880 -12.779071 -0.621780
28.434225 -13.562429 -0.659896
25.912592 -12.359673 -0.200432
28.051666 -13.379959 -0.216978
38.566528 -18.395290 -0.298309
25.894444 -12.489997 0.200711
38.404839 -18.524294 0.297681
25.952431 -12.517966 0.603561
38.370335 -18.507652 0.892357
25.987423 -12.674913 -0.605655
27.353291 -13.341091 -0.637487
25.911600 -12.637932 -0.201270
38.620239 -18.836349 -0.299985
26.555756 -13.095849 0.206715
38.555618 -19.013527 0.300124
26.021540 -12.832403 0.607749
38.449471 -18.961180 0.898011
25.768457 -12.847679 -0.603142
27.522144 -13.722034 -0.644189
38.813740 -19.351816 -0.908482
25.827177 -12.876955 -0.201479
38.678120 -19.284199 -0.301730
26.779785 -13.498123 0.209368
38.611469 -19.461782 0.301870
26.122833 -13.166992 0.612775
38.496807 -19.403988 0.903037
25.993868 -13.244537 -0.611100
27.321177 -13.920835 -0.642304
38.830456 -19.785107 -0.912880
26.007847 -13.251659 -0.203783
27.442331 -13.982567 -0.215023
38.713291 -19.725407 -0.303336
25.896439 -13.337543 0.203364
38.671303 -19.917030 0.303685
25.855837 -13.316631 0.609215
38.530441 -19.844481 0.907854
26.116739 -13.595514 -0.616754
38.833687 -20.215538 -0.917069
26.183922 -13.630486 -0.206087
38.823517 -20.210245 -0.305570
25.956055 -13.656141 0.204760
27.145466 -14.281920 0.642513
38.612389 -20.314960 0.913927
26.385515 -14.029428 -0.625969
38.964760 -20.717930 -0.924398
26.902758 -14.304450 -0.212719
38.901722 -20.684414 -0.307594
26.170626 -14.061985 0.207413
27.641678 -14.852409 0.219072
38.802292 -20.849224 0.307525
26.191944 -14.073440 0.622828
27.521799 -14.787995 0.654451
38.680237 -20.783640 0.919791
39.010921 -21.181202 -0.929843
26.293568 -14.276242 -0.208879
38.957012 -21.151932 -0.309479
26.204723 -14.376404 0.208670
27.426764 -15.046838 0.655288
38.751591 -21.259850 0.925864
26.259069 -14.555640 -0.628901
29.459476 -16.329655 -0.705550
39.069439 -21.656544 -0.935707
26.421618 -14.645741 -0.210904
38.937122 -21.583199 -0.310806
26.374912 -14.770660 0.211043
38.938549 -21.806635 0.311574
26.683800 -14.943645 0.640629
27.791626 -15.564058 0.667225
38.808834 -21.733992 0.931728
26.409502 -14.941777 -0.635602
27.714748 -15.680251 -0.667016
39.174820 -22.164047 -0.942828
26.327618 -14.895450 -0.211183
39.008392 -22.069885 -0.312900
38.955132 -22.264692 0.313249
38.826015 -22.190897 0.936754
28.018436 -16.176451 -0.677697
39.205029 -22.635035 -0.948273
26.439112 -15.264628 -0.213138
39.091434 -22.569450 -0.315134
39.044415 -22.770029 0.315553
38.941799 -22.710186 0.944294
27.910662 -16.440636 -0.678534
39.273060 -23.133598 -0.954765
26.313513 -15.499844 -0.213208
39.203171 -23.092432 -0.317647
26.460478 -15.742331 0.214953
39.145008 -23.288832 0.317996
39.051456 -23.233173 0.951833
28.108921 -16.889544 -0.686911
39.378201 -23.660809 -0.962304
28.328690 -17.021593 -0.230731
39.240162 -23.577869 -0.319602
39.145462 -23.754049 0.319672
39.052357 -23.697552 0.956859
28.241774 -17.306581 -0.693822
39.408909 -24.149811 -0.968168
28.042652 -17.184559 -0.229614
30.216831 -18.516897 -0.247416
39.297226 -24.081371 -0.321766
39.251301 -24.289442 0.322255
39.141628 -24.221575 0.964189
28.030321 -17.515289 -0.692356
39.459503 -24.657034 -0.974660
27.866180 -17.412724 -0.229404
29.286840 -18.478621 0.241761
39.342300 -24.823143 0.324768
28.942915 -18.261620 0.716859
39.199345 -24.732943 0.970891
27.935431 -17.796831 -0.693822
39.664433 -25.269030 -0.985131
27.679432 -17.633743 -0.229125
29.492680 -18.788910 -0.244135
39.503494 -25.166500 -0.327002
29.469290 -18.955284 0.244623
39.368076 -25.322397 0.326793
29.623306 -19.054350 0.737801
39.284725 -25.268784 0.978430
27.636520 -17.947365 -0.690262
29.975897 -19.466576 -0.748691
39.626877 -25.733995 -0.989739
29.235344 -18.985655 -0.243367
39.550739 -25.684551 -0.329236
29.235851 -19.167864 0.244065
39.496834 -25.895258 0.329725
29.054571 -19.049011 0.727749
39.330273 -25.786057 0.985131
27.578894 -18.254070 -0.692775
29.613129 -19.600502 -0.743875
39.734283 -26.299547 -0.998116
27.559256 -18.241074 -0.230731
29.160276 -19.300766 -0.244135
39.525227 -26.161175 -0.330912
30.223185 -20.194487 0.253769
39.535416 -26.416721 0.331959
30.383549 -20.301638 0.765445
39.394703 -26.322699 0.992461
27.617474 -18.628222 -0.697801
39.892826 -26.908052 -1.007959
27.506796 -18.553568 -0.231638
30.499550 -20.572206 -0.256841
30.211119 -20.570019 0.255165
39.551357 -26.929560 0.334053
39.469269 -26.873669 1.000210
27.560976 -18.942133 -0.700524
39.936634 -27.447689 -1.015079
28.786026 -19.784088 -0.243855
39.804325 -27.356754 -0.337195
39.692795 -27.535873 0.337265
29.926033 -20.760427 0.762932
39.594696 -27.467819 1.009425
30.752413 -21.533072 -0.786388
29.595242 -20.722811 -0.252233
30.848515 -21.600363 -0.262914
39.777641 -28.112057 0.340057
29.449800 -20.813061 0.755393
39.639252 -28.014254 1.016755
29.700560 -21.185204 -0.764189
29.388853 -20.962866 -0.252023
30.246626 -21.774454 0.260192
39.855427 -28.691801 0.342850
29.551043 -21.273706 0.762723
39.693493 -28.575226 1.024503
29.207197 -21.220270 -0.756231
33.858025 -24.599295 -0.876650
29.204802 -21.218531 -0.252023
39.996826 -29.059395 -0.345154
30.055458 -22.037573 0.260192
39.950291 -29.292767 0.345852
39.797375 -29.180643 1.033718
29.454893 -21.795473 -0.767540
29.484751 -21.817568 -0.256073
31.317499 -23.173731 -0.271990
39.989605 -29.861652 0.348435
39.869656 -29.772085 1.042304
31.706861 -23.892834 -0.831623
40.290310 -30.360926 -1.056754
30.946371 -23.319763 -0.270524
40.226292 -30.312683 -0.351646
40.085686 -30.481863 0.351576
39.926662 -30.360939 1.050681
31.409903 -24.101665 -0.829320
29.297825 -22.481012 -0.257818
30.860693 -23.680243 -0.271571
40.277569 -30.906065 -0.354439
40.158146 -31.093758 0.354578
40.000118 -30.971401 1.059686
31.072329 -24.276363 -0.825969
40.423965 -31.582663 -1.074556
40.297890 -31.484161 -0.357022
30.870056 -24.335991 0.274433
40.215099 -31.703028 0.357510
40.073784 -31.591625 1.068901
31.250515 -24.857782 -0.836440
40.522388 -32.232964 -1.084608
40.452030 -32.176998 -0.360861
40.326843 -32.365715 0.361001
40.163040 -32.234245 1.078744
40.550354 -32.837029 -1.092985
40.449463 -32.755329 -0.363375
40.414566 -33.020088 0.364352
40.259586 -32.893463 1.089006
31.652813 -26.092566 -0.859267
40.694271 -33.545769 -1.104713
40.563316 -33.437817 -0.367005
40.555420 -33.729584 0.368261
40.332283 -33.544006 1.098849
40.767601 -34.208080 -1.114765
32.088821 -26.925716 -0.292445
40.660648 -34.118336 -0.370565
40.587715 -34.360035 0.371263
40.434818 -34.230602 1.109739
40.870461 -34.906670 -1.125865
31.883045 -27.230694 -0.292724
40.749161 -34.803074 -0.374126
40.649948 -35.026234 0.374614
40.535984 -34.928040 1.120838
40.918926 -35.570278 -1.135707
31.697029 -27.553808 -0.293213
40.791058 -35.459126 -0.377337
40.681061 -35.676334 0.377756
40.560379 -35.570496 1.130053
30.805281 -27.254210 -0.861571
38.338108 -33.918694 -0.357371
40.891987 -36.178173 -0.381177
40.815804 -36.429497 0.381945
40.636292 -36.269276 1.140943
31.123508 -28.023733 -0.877278
38.152119 -34.352322 -1.075393
31.129578 -28.029198 -0.292445
37.624504 -33.877258 -0.353461
38.453396 -34.928604 0.362676
40.754871 -37.019119 1.153299
30.944115 -28.355057 -0.879163
37.990940 -34.812283 -1.079372
30.787951 -28.211960 -0.291537
37.342186 -34.217812 -0.353601
36.961823 -34.467457 -1.058639
37.071415 -34.569653 -0.353880
29.493402 -28.233789 0.285045
29.516541 -28.255939 0.855917
37.930233 -36.310299 1.099896
35.887184 -34.655849 -1.045027
28.067955 -27.104910 -0.272409
29.383423 -28.624063 0.859267
36.595001 -35.649273 1.070158
36.282513 -35.967262 1.070158
35.552601 -35.552601 -1.053194
26.692631 -26.692631 -0.263543
36.115074 -36.431622 1.074556
25.955986 -26.413002 -0.775707
25.204082 -25.647861 -0.251046
35.239235 -36.491295 -1.062618
25.416931 -26.320002 -0.255444
34.403297 -36.253513 -1.046912
27.722557 -29.728804 -0.283788
27.626516 -29.886198 0.284137
26.894974 -29.094818 0.829948
34.846054 -38.027798 -1.080419
34.144936 -37.921795 -1.068901
34.298798 -38.092674 -0.357859
33.620522 -38.001087 -0.354229
26.214951 -29.892422 0.277575
24.792557 -28.270494 0.787644
26.564564 -30.559034 -0.848168
26.779676 -30.806494 -0.284975
24.668907 -28.629677 0.791623
27.860001 -34.712841 0.932357
23.389360 -31.322153 0.818849
22.680019 -31.504534 0.271013
0.128507 -0.178507 0.004607
0.113997 -0.164325 0.001396
0.153865 -0.221796 0.005654
0.133334 -0.199548 0.001676
0.166635 -0.249386 0.006283
0.148007 -0.225748 0.005654
0.151469 -0.235485 0.001955
0.162257 -0.252256 0.006283
0.128064 -0.202970 0.001676
0.117369 -0.186019 0.004607
0.147336 -0.238093 0.001955
0.136786 -0.221043 0.005445
0.145253 -0.239369 0.001955
0.119292 -0.196587 0.004817
0.138046 -0.232034 0.001885
0.127795 -0.214804 0.005236
0.130953 -0.224548 0.005445