# This PCD file was generated using the MATLAB® pcwrite function
# from Computer Vision System Toolbox®.
# .PCD v.7 - Point Cloud Data file format
VERSION .7
FIELDS x y z
SIZE 4 4 4
TYPE F F F
COUNT 1 1 1
WIDTH 861
HEIGHT 1
VIEWPOINT 0 0 0 1 0 0 0
POINTS 861
DATA ascii
38.333530 40.395115 -0.388786
38.392834 39.756943 -0.385854
38.457954 39.135098 -0.383062
38.634911 38.634911 -1.144503
38.585876 38.585876 -0.380967
34.727318 34.126442 -0.339918
32.729164 31.606186 -0.317647
32.199558 30.556240 -0.929843
32.619289 30.954552 -0.313947
31.931211 29.776337 -0.914555
38.665730 36.056374 -0.369099
32.130871 29.442518 -0.912880
38.757725 35.514912 -0.367005
32.297421 29.080729 -0.910367
33.122131 29.823299 -0.933613
33.306938 29.989702 -0.312900
38.813507 34.947842 -0.364631
32.871944 29.082640 -0.919372
33.290272 29.452744 -0.310317
39.138199 34.022320 -1.086283
33.515835 29.134871 -0.310038
39.108097 33.996151 -0.361769
39.220741 33.497677 -1.080419
39.121933 33.413288 -0.359186
39.235851 32.922787 -1.072880
39.166897 32.864929 -0.356952
39.336510 32.426514 -1.067854
35.408989 29.188919 -0.320370
35.546631 28.785093 -0.958116
35.475849 28.727776 -0.318695
35.577389 28.299532 -0.952252
35.474762 28.217901 -0.316461
35.665424 27.864882 -0.948063
35.625099 27.833378 -0.315623
35.748592 27.430861 -0.943875
35.707962 27.399685 -0.314227
35.794979 26.973450 -0.938849
35.722095 26.918530 -0.312272
35.900410 26.564907 -0.935498
35.827026 26.510605 -0.311155
35.936741 26.109571 -0.930472
35.862850 26.055885 -0.309479
36.000431 25.678858 -0.926283
35.958607 25.649025 -0.308362
36.026596 25.226093 -0.921257
35.984474 25.196598 -0.306687
36.047615 24.774837 -0.916231
36.005196 24.745686 -0.305011
36.096668 24.347509 -0.912042
36.020805 24.296339 -0.303336
36.241066 23.987438 -0.910367
36.164745 23.936924 -0.302777
36.151768 23.702139 0.301800
36.061111 23.642700 0.903247
36.281315 23.561363 -0.906179
36.204525 23.511494 -0.301381
36.357231 23.385756 0.301800
36.350632 23.157906 -0.902828
36.442055 23.216150 -0.301660
36.255466 22.875496 0.299287
36.180756 22.828358 0.896126
36.415676 22.755041 -0.899477
36.304054 22.685291 -0.298868
36.317657 22.474049 0.298170
36.251068 22.432840 0.892985
36.442371 22.331915 -0.895288
36.364216 22.284021 -0.297751
36.307220 22.031763 0.296494
36.231766 21.985975 0.887749
36.464470 21.910065 -0.891100
36.385864 21.862833 -0.296355
36.360600 21.632284 0.295377
36.258995 21.571836 0.883770
36.550907 21.530130 -0.888587
36.446026 21.468349 -0.295307
27.434748 15.999472 0.221725
36.411316 21.234453 0.882932
36.529598 21.090374 -0.883561
27.954618 16.139606 -0.225355
36.484760 21.064487 -0.294120
27.720913 15.843807 0.222912
27.133944 15.508326 0.654660
36.607834 20.711716 -0.881048
36.597565 20.705906 -0.293562
28.390327 15.899347 0.227170
36.565418 20.477617 0.292585
27.259520 15.266065 0.654451
36.682251 20.333303 -0.878534
36.645672 20.313028 -0.292515
36.567383 20.061552 0.291188
27.453060 15.061264 0.655917
36.525192 20.038406 0.872671
36.717712 19.936090 -0.875184
28.886015 15.683826 -0.229474
28.443270 15.283119 0.225425
27.988567 15.038800 0.665550
36.784355 19.558590 -0.872671
29.313147 15.586076 -0.231778
25.593218 13.465243 0.201898
25.959843 13.658134 0.614451
36.776272 19.144516 -0.868482
25.607378 13.330358 -0.201549
29.776228 15.500524 -0.234361
25.869768 13.323806 0.203155
25.935831 13.357831 0.611100
25.797890 13.144681 -0.606492
36.861763 18.782007 -0.866597
25.945478 13.219881 -0.203294
26.297588 13.255076 0.205598
27.815617 14.020225 0.217466
25.935349 13.072492 0.608377
27.783409 14.003991 0.651728
26.027931 12.977048 -0.609215
27.942671 13.931702 -0.654032
26.149345 13.037582 -0.203992
27.344984 13.485053 0.212859
27.707291 13.663723 0.647121
26.301931 12.828309 -0.612985
26.486814 12.918483 -0.205738
27.317513 13.176404 0.211742
27.141090 13.091309 0.631205
36.988857 17.642780 -0.858430
26.715874 12.742818 -0.206645
26.924974 12.698642 0.207832
26.892597 12.683372 0.622828
26.730217 12.464504 -0.617801
26.853245 12.521873 -0.206855
26.698759 12.308296 0.205249
28.542244 13.158154 0.219421
27.374512 12.619823 0.631414
26.938044 12.276374 -0.620105
27.152582 12.374145 -0.208321
28.446283 12.814116 0.217815
27.793528 12.520071 0.638534
27.135483 12.081495 -0.622199
28.986092 12.905439 -0.221515
40.934975 18.225426 -0.312830
28.053614 12.343885 0.213976
27.627193 12.156256 0.632252
27.588285 11.995728 -0.630157
28.272274 12.293135 -0.215232
41.019096 17.835611 -0.312272
27.645754 11.877553 0.210066
27.502575 11.816039 0.627016
27.885180 11.836556 -0.634555
28.157557 11.952174 -0.213557
27.600803 11.573977 0.208949
27.346481 11.467332 0.621152
28.384592 11.757283 -0.643561
28.297741 11.721308 -0.213836
41.056206 17.006037 -0.310247
27.478628 11.241803 0.207274
27.408497 11.213112 0.620314
40.992451 16.770454 0.927749
28.643698 11.572805 -0.647121
29.409555 11.882232 -0.221446
41.203045 16.647112 -0.310247
27.501381 10.971938 0.206715
27.533163 10.984618 0.620943
41.044380 16.375046 0.925655
29.292423 11.538592 -0.659477
27.474562 10.822517 -0.206157
30.563473 12.039272 -0.229334
41.244404 16.246603 -0.309479
27.586761 10.727904 0.206645
41.184425 16.015747 0.308502
41.120487 15.990883 0.924189
28.766638 11.042478 -0.645445
41.292542 15.850721 -0.926493
27.651978 10.614600 -0.206785
41.235241 15.828727 -0.308362
28.081427 10.639101 0.209647
41.360023 15.669910 0.308781
28.216190 10.690159 0.632042
28.824448 10.777020 -0.644608
41.494843 15.514286 -0.927959
27.987083 10.463942 -0.208600
38.608688 14.435197 -0.287768
28.004330 10.331343 0.208391
28.092669 10.363933 0.627225
28.851631 10.501135 -0.643142
41.525303 15.113975 -0.925655
28.331041 10.311656 -0.210485
38.676807 14.077206 -0.287349
41.505211 15.106662 -0.308362
28.131065 10.100084 0.208670
28.097353 10.087980 0.625341
28.913898 10.238949 -0.642513
39.007374 13.813236 -0.866807
41.608494 14.734341 -0.924608
28.127737 9.960554 -0.208321
28.180370 9.841026 0.208391
28.184315 9.842403 0.625341
28.831991 9.927651 -0.638744
28.279772 9.737506 -0.208809
28.236769 9.585092 0.208181
28.449009 9.657138 0.629320
41.409641 14.056679 0.916021
28.879602 9.662980 -0.637906
28.515398 9.541119 -0.209927
28.499777 9.397817 0.209508
28.911997 9.533747 0.637697
41.511738 13.688519 0.915603
28.943811 9.404414 -0.637487
28.597572 9.291915 -0.209927
28.856890 9.237164 0.211532
29.003614 9.284130 0.637906
27.308462 8.610325 -0.599791
27.075365 8.536830 -0.198198
26.978657 8.377095 0.197221
29.156048 9.053194 0.213138
29.083529 9.030675 0.637906
27.688513 8.465227 -0.606492
27.101017 8.285612 -0.197849
26.744316 8.049126 0.194987
27.150768 8.171453 0.593927
29.295258 8.816872 0.640838
41.606926 12.522263 0.910158
27.099890 8.027353 -0.592042
26.932590 7.977797 -0.196104
29.482988 8.733259 -0.214674
26.803938 7.812636 0.194917
41.761150 12.172265 0.303685
26.817909 7.816708 0.585131
27.649433 7.928348 -0.602513
27.183819 7.794835 -0.197430
29.625364 8.494936 -0.215162
29.373419 8.284161 0.213068
29.271467 8.255407 0.637068
28.719524 7.964629 -0.624294
29.014206 8.046351 -0.210206
29.338467 7.998584 0.212300
29.265228 7.978617 0.635393
28.778276 7.711116 -0.624084
28.561731 7.653093 -0.206436
29.426491 7.747348 0.212440
29.256392 7.702565 0.633718
28.457298 7.359558 -0.615707
28.443485 7.355985 -0.205109
28.388081 7.209654 0.204481
30.103579 7.645335 0.216838
29.865145 7.584781 0.645445
28.210011 7.033546 -0.609006
28.428972 7.088139 -0.204551
28.333357 6.933128 0.203643
30.208002 7.391851 0.217117
30.124422 7.371399 0.649634
28.348089 6.805774 -0.610681
28.207764 6.772085 -0.202526
28.324646 6.669569 0.203155
30.265455 7.126569 0.651309
28.143377 6.497411 -0.605026
29.643578 6.843760 -0.637278
27.992970 6.462686 -0.200572
28.411030 6.428760 0.203364
30.550774 6.912934 0.656126
42.086544 9.523212 0.903875
29.760736 6.597796 -0.638534
42.156979 9.345977 -0.904503
28.136166 6.237638 -0.201200
29.854404 6.618562 -0.213487
28.114254 6.104203 0.200851
42.148502 9.151338 0.903456
29.914972 6.358624 -0.640629
42.305386 8.992287 -0.905969
28.306902 6.016818 -0.202038
29.842556 6.343231 -0.212998
28.205612 5.866776 0.201130
30.065754 6.253686 0.214395
42.177818 8.772999 0.902409
42.460621 8.638711 -0.907644
30.053558 6.114466 -0.214115
28.412657 5.651629 0.202247
30.158413 5.998881 0.214674
42.174324 8.388994 0.900733
42.485321 8.258309 -0.906597
30.145037 5.859601 -0.214395
42.464157 8.254196 -0.302009
28.785095 5.465021 0.204551
30.317680 5.755991 0.215442
30.734131 5.835057 0.655288
42.236103 8.018775 0.900524
42.477127 7.872670 -0.904922
30.607979 5.672853 -0.217327
42.416584 7.861449 -0.301172
30.524199 5.519674 0.216559
42.314308 7.651673 0.900733
42.544209 7.501692 -0.904922
42.503265 7.494473 -0.301311
30.827442 5.297123 0.218374
42.407444 7.286932 0.300404
42.300644 7.268580 0.899058
42.608055 7.130143 -0.904922
42.567051 7.123281 -0.301311
42.479290 6.918191 0.300473
42.362461 6.899165 0.899058
42.629154 6.751795 -0.904084
42.588085 6.745290 -0.301032
42.538044 6.547231 0.300473
42.460579 6.535308 0.899896
42.686451 6.379533 -0.904084
42.645325 6.373386 -0.301032
42.593559 6.175772 0.300473
42.515995 6.164526 0.899896
42.780098 6.012351 -0.904922
42.699318 6.000998 -0.301032
42.606194 5.798449 0.300194
42.568169 5.793273 0.899896
42.791286 5.633580 -0.904084
42.750061 5.628152 -0.301032
42.704773 5.432733 0.300543
42.617104 5.421580 0.899896
42.799126 5.255072 -0.903247
42.757847 5.250003 -0.300753
42.740623 5.058686 0.300473
42.583366 5.040073 0.898220
42.287079 4.818004 -0.891519
42.802032 4.876676 -0.300753
42.783142 4.685516 0.300473
42.635666 4.669364 0.898430
41.919846 4.405953 -0.882932
42.922520 4.511339 -0.301311
35.290672 3.553584 0.247625
42.822403 4.311989 0.300473
35.144527 3.538868 0.739896
41.877087 4.032305 -0.881257
35.166492 3.386148 -0.246648
42.950298 4.135643 -0.301241
35.250637 3.239078 0.247137
35.213894 3.235703 0.740733
41.950520 3.670195 -0.882095
42.665977 3.732790 -0.299007
35.317421 2.934651 0.247416
35.240791 2.928284 0.740733
41.861343 3.294559 -0.879582
42.348015 3.332861 -0.296564
35.341686 2.626341 0.247416
35.304886 2.623606 0.741571
41.788765 2.922155 -0.877487
42.415390 2.965973 -0.296843
35.413151 2.321100 0.247765
35.366341 2.318033 0.742409
42.072132 2.573242 -0.882932
42.629299 2.607320 -0.298170
35.462009 2.013679 0.247974
43.089535 2.446801 0.301311
35.395203 2.009885 0.742618
42.222782 2.212802 -0.885655
42.420750 2.223177 -0.296564
35.518185 1.706061 0.248254
43.179165 2.074044 0.301800
35.441353 1.702370 0.743246
42.280437 1.846004 -0.886493
42.428543 1.852470 -0.296494
35.481758 1.394082 0.247905
43.195618 1.697160 0.301800
35.494820 1.394595 0.744084
40.986019 1.431263 -0.859058
41.413746 1.446200 -0.289303
35.492573 1.084396 0.247905
38.061310 1.162878 0.265846
35.505638 1.084795 0.744084
40.307339 1.055485 -0.844608
38.335926 1.003862 -0.267731
35.510681 0.774846 0.247974
38.040020 0.830036 0.265637
35.553738 0.775785 0.744922
38.485695 0.671770 -0.806283
38.263237 0.667887 -0.267173
38.275787 0.501058 0.267243
43.335232 0.567289 0.302568
35.609138 0.466149 0.745969
37.760277 0.329529 -0.790995
38.657585 0.337360 -0.269896
43.328533 0.189058 0.302498
35.611851 0.155387 0.745969
36.921902 0.000000 -0.773404
37.179092 0.000000 -0.259563
42.038975 0.000000 -0.293492
36.318768 -0.158472 0.253559
43.388531 -0.189319 0.302917
35.691830 -0.155736 0.747644
36.310650 -0.316878 -0.760629
40.249638 -0.351253 -0.843142
36.057747 -0.314671 -0.251744
42.277359 -0.368949 -0.295168
42.845284 -0.560875 0.299147
35.759090 -0.468112 0.749110
43.456741 -0.568880 0.910367
36.956261 -0.645074 -0.774241
41.592651 -0.726002 -0.290420
42.678802 -0.931255 0.298030
35.793625 -0.781020 0.749948
43.450123 -0.948085 0.910367
37.598862 -0.984561 -0.787854
37.996048 -0.994962 -0.265358
41.134895 -1.077155 -0.287279
42.674332 -1.117467 -0.298030
42.359200 -1.294191 0.295866
35.775455 -1.093039 0.749739
43.500156 -1.329050 0.911624
37.418980 -1.306700 -0.784294
37.546200 -1.311142 -0.262286
41.433735 -1.446898 -0.289443
42.852833 -1.496454 -0.299356
43.295540 -1.701086 0.302498
35.794525 -1.406371 0.750367
43.526859 -1.710175 0.912461
37.166431 -1.622721 -0.779267
42.779850 -1.867809 -0.896964
42.997986 -1.877333 -0.300473
43.279045 -2.078842 0.302498
43.590172 -2.093786 0.914137
37.140873 -1.946471 -0.779058
42.352573 -2.219604 -0.888377
42.290932 -2.216374 -0.295656
42.949764 -2.438864 0.300334
41.633785 -2.364138 0.873508
43.650093 -2.478632 0.915812
37.212284 -2.276001 -0.780943
41.712883 -2.551269 -0.875393
41.860752 -2.560313 -0.292794
41.679550 -2.731822 0.291607
41.511803 -2.720827 0.871414
43.686661 -2.863375 0.917069
37.370525 -2.613202 -0.784712
42.068024 -2.941683 -0.883351
42.056274 -2.940861 -0.294330
41.893459 -3.113222 0.293283
41.685886 -3.097796 0.875603
43.749741 -3.251167 0.918953
41.841412 -3.292990 -0.879163
42.258297 -3.325800 -0.295936
43.803482 -3.447409 -0.306757
41.944420 -3.485312 0.293841
41.697121 -3.464763 0.876440
43.799412 -3.639451 0.920629
41.811081 -3.657996 -0.879163
44.091866 -3.857538 -0.927121
42.028431 -3.677011 -0.294539
41.862617 -3.846634 0.293492
43.855587 -4.029762 0.922514
44.026669 -4.239286 -0.926493
42.004696 -4.044592 -0.294609
44.016335 -4.432212 0.308851
43.938122 -4.424336 0.925027
44.236576 -4.649451 -0.931728
44.066193 -4.631543 -0.309340
44.015743 -4.820508 0.309130
43.937592 -4.811949 0.925864
44.323452 -5.050020 -0.934451
44.193001 -5.035156 -0.310526
44.061375 -5.215007 0.309759
43.973354 -5.204590 0.927540
44.386852 -5.450020 -0.936754
44.345882 -5.444990 -0.311923
44.252262 -5.629599 0.311434
44.084949 -5.608314 0.930891
44.456551 -5.852816 -0.939268
44.366077 -5.840905 -0.312411
41.446911 -5.640677 0.292026
44.310444 -6.030386 0.312202
44.272087 -6.025167 0.935917
39.968353 -5.617186 -0.845446
42.195969 -5.930257 -0.892566
41.511024 -5.833994 -0.292654
39.357475 -5.706563 0.277645
39.468536 -5.722665 0.835393
44.316765 -6.425625 0.938011
39.957367 -5.971668 -0.846283
39.895927 -5.962486 -0.281624
39.385246 -6.061969 0.278203
39.209583 -6.034932 0.830995
44.377579 -6.830363 0.940524
40.288845 -6.381126 -0.854451
39.862129 -6.313541 -0.281764
38.245178 -6.228622 0.270524
38.208118 -6.222587 0.810890
39.896362 -6.676362 -0.847330
39.805515 -6.661159 -0.281764
44.549435 -7.455019 -0.315344
37.617760 -6.463913 0.266475
38.290310 -6.579478 0.813822
40.053192 -7.062459 -0.851938
38.524742 -6.792951 -0.273107
36.733345 -6.642471 0.260610
37.759197 -6.827975 0.803770
37.955147 -7.034571 -0.808587
39.675465 -7.353413 -0.845236
37.824894 -7.010430 -0.268569
39.712696 -7.360313 -0.281973
38.098499 -7.233226 0.270733
38.169651 -7.246734 0.813822
37.853058 -7.357889 -0.807749
37.772095 -7.342151 -0.268639
39.725483 -7.721852 -0.282532
39.632568 -7.883408 0.282113
39.379700 -7.833109 0.841048
38.561378 -7.845401 -0.824294
38.892265 -7.912721 -0.277086
38.827995 -8.076235 0.276877
38.781273 -8.066517 0.829739
38.002480 -8.077677 -0.813822
38.616325 -8.208154 -0.275620
38.756042 -8.414762 0.276877
38.465149 -8.351603 0.824503
44.766911 -9.719849 0.959582
37.071590 -8.218574 -0.795393
37.742683 -8.367352 -0.269896
38.398293 -8.688646 0.274852
37.386425 -8.459684 0.802932
36.745178 -8.483293 -0.789948
37.366180 -8.626662 -0.267731
37.853798 -8.913386 0.271501
36.552105 -8.606878 0.786597
36.348938 -8.726608 -0.783037
36.842197 -8.845029 -0.264520
37.376331 -9.145930 0.268639
36.155132 -8.847105 0.779686
36.281101 -9.045895 -0.783247
36.307583 -9.052497 -0.261239
36.955875 -9.385596 0.266195
37.190926 -9.445292 0.803770
36.200779 -9.362159 -0.783247
36.101345 -9.336443 -0.260331
36.688828 -9.659363 0.264869
37.107082 -9.769480 0.803770
35.673473 -9.558679 -0.773613
36.317924 -9.731359 -0.262495
36.323357 -9.902884 0.262844
37.917473 -10.337489 0.823247
35.492359 -9.842902 -0.771519
35.692001 -9.898269 -0.258586
36.736023 -10.360629 0.266475
37.440922 -10.559431 0.814870
35.289787 -10.119184 -0.769006
35.450466 -10.165258 -0.257469
36.337002 -10.591270 0.264241
37.395340 -10.899747 0.815917
34.922142 -10.344410 -0.762932
35.302883 -10.457191 -0.257050
36.779419 -11.069349 0.268150
36.791397 -11.072953 0.804817
34.534153 -10.558150 -0.756440
35.344162 -10.805795 -0.258027
36.223022 -11.247548 0.264799
36.502403 -11.334298 0.800629
38.765305 -12.036947 0.850262
34.288139 -10.811009 -0.753089
35.210373 -11.101788 -0.257748
36.352062 -11.636387 0.266475
35.973621 -11.515247 0.791205
39.077751 -12.508887 0.859477
34.211510 -11.115993 -0.753508
35.492565 -11.532233 -0.260541
37.160820 -12.253801 0.273177
38.634781 -12.739841 0.852147
34.302826 -11.477565 -0.757697
35.656101 -11.930365 -0.262495
37.355484 -12.680478 0.275411
45.404808 -15.412856 1.004398
34.796906 -11.981536 -0.770890
36.637951 -12.615458 -0.270524
42.615139 -14.881873 0.315134
45.532303 -15.900592 0.336706
42.455811 -14.826233 0.941990
35.096272 -12.428241 -0.779896
37.584297 -13.309298 -0.835184
42.644062 -15.101054 -0.315832
42.436592 -15.236294 0.314785
42.287174 -15.182647 0.941152
42.577530 -15.496953 -0.949110
42.463676 -15.455514 -0.315483
42.226963 -15.578349 0.314227
42.078033 -15.523406 0.939477
42.590508 -15.923939 -0.952461
42.327187 -15.825486 -0.315483
42.023952 -15.921452 0.313738
41.866169 -15.861673 0.937802
42.729939 -16.402487 -0.958744
42.140793 -16.176334 -0.315134
41.799534 -16.254950 0.313110
41.651615 -16.197428 0.936126
42.761913 -16.844366 -0.962723
42.100368 -16.583776 -0.315902
41.544640 -16.574631 0.312272
41.360104 -16.501009 0.932775
42.947006 -17.351717 -0.970262
46.098740 -18.625101 -1.041467
42.334183 -17.104120 -0.318764
41.481716 -16.970617 0.312900
41.112747 -16.819668 0.930472
43.043343 -17.829138 -0.975917
46.137661 -19.110846 -1.046074
42.515900 -17.610662 -0.321278
41.627136 -17.455708 0.315134
40.770782 -17.096609 0.926074
43.125397 -18.305645 -0.981362
46.162395 -19.594774 -1.050472
42.682770 -18.117762 -0.323721
41.794792 -17.956461 0.317578
40.592480 -17.439905 0.925446
46.145512 -20.064640 -1.054032
42.798149 -18.609165 -0.325815
41.966007 -18.465487 0.320091
41.253193 -18.151838 0.944084
45.822525 -20.401503 -1.050681
42.999538 -19.144627 -0.328608
42.414135 -19.106174 0.324768
42.588181 -19.184576 0.978430
44.960423 -20.489645 -1.034974
43.058319 -19.622807 -0.330353
43.117588 -19.877480 0.331470
43.109180 -19.873604 0.994346
46.332382 -21.359520 1.068692
40.457767 -18.865767 -0.935079
43.519840 -20.293634 -0.335240
45.999466 -21.694757 0.355067
46.234650 -21.805676 1.070786
35.274323 -16.824987 -0.818639
40.435978 -19.286972 -0.938430
43.034218 -20.526268 -0.332866
45.889458 -22.134447 0.355695
37.217693 -17.951685 0.865550
35.207027 -17.171616 -0.820524
40.400917 -19.704844 -0.941571
35.106041 -17.122360 -0.272688
43.221951 -21.080755 -0.335729
45.461372 -22.419067 0.353880
37.050655 -18.271360 0.865341
46.367119 -22.865732 1.082933
40.379528 -20.132490 -0.945131
34.785252 -17.343287 -0.271362
34.218121 -17.247353 0.267522
46.174816 -23.274023 0.361001
46.424721 -23.399986 1.089006
40.300293 -20.534025 -0.947435
34.276184 -17.464588 -0.268569
36.147255 -18.417946 -0.283230
34.075195 -17.549879 0.267592
32.646439 -16.814020 0.769215
34.557407 -17.798233 0.814241
34.550362 -17.985781 -0.815917
40.288063 -20.972639 -0.951414
34.512749 -17.966200 -0.271641
32.416306 -17.055044 0.255724
34.265884 -18.028154 0.270314
32.436531 -17.065685 0.767749
40.182961 -21.365658 -0.953299
34.178070 -18.172802 -0.270245
33.666824 -18.089836 0.266824
34.197487 -18.374971 0.813194
40.135563 -21.791832 -0.956650
37.111542 -20.149923 -0.294819
39.976418 -21.705423 -0.317578
35.112049 -19.263130 0.279599
33.711517 -18.494770 0.805445
39.532887 -21.913435 -0.946807
36.995514 -20.506947 -0.295307
38.840916 -21.529871 -0.310038
33.616451 -18.826118 0.268988
32.685257 -18.304623 0.784712
37.982693 -21.489574 -0.914137
34.491356 -19.514271 -0.276667
33.042843 -18.885540 0.265707
32.437473 -18.539543 0.782618
34.546837 -19.945625 -0.835603
34.016647 -19.639521 -0.274224
33.084095 -19.294073 0.267382
32.213997 -18.786648 0.781152
34.087189 -20.078888 -0.828692
33.775040 -19.895020 -0.273665
32.862900 -19.551371 0.266963
32.220673 -19.169285 0.785341
33.492313 -19.925833 0.816335
35.316116 -21.220064 -0.863037
34.148712 -20.518618 -0.278133
32.152451 -19.510588 0.262565
31.470951 -19.097042 0.771100
34.302715 -21.020731 -0.842723
32.160805 -19.708166 -0.263333
34.496979 -21.139776 -0.282462
32.253075 -19.958807 0.264799
31.294600 -19.365686 0.770890
34.372330 -21.478216 -0.849006
32.513371 -20.316610 -0.267662
34.379032 -21.482403 -0.283020
31.976191 -20.175472 0.263961
31.969955 -20.171539 0.791833
39.731888 -25.312004 -0.986807
34.325195 -21.867561 -0.284137
36.037239 -22.958252 -0.298309
32.396034 -20.837830 0.268918
34.389248 -22.119907 0.285464
31.767485 -20.433533 0.791205
39.635262 -25.739441 -0.989948
32.413826 -21.049786 -0.269826
35.910999 -23.320875 -0.298938
32.020618 -20.993637 0.267312
31.119743 -20.402998 0.779477
32.206676 -21.115623 0.806702
34.154797 -22.392866 0.855498
36.049316 -23.860521 -0.905550
32.595802 -21.574692 -0.272897
36.022991 -23.843096 -0.301590
32.135517 -21.472267 0.269826
32.004559 -21.384764 0.806283
32.259068 -21.759014 -0.815079
35.615932 -24.023249 -0.899896
32.165874 -21.696156 -0.270873
34.752407 -23.440796 -0.292654
31.665882 -21.560532 0.267452
34.186920 -23.277044 0.288745
31.453106 -21.415657 0.797068
34.597469 -23.778181 -0.879372
39.508183 -27.153223 -1.004189
33.013691 -22.689680 -0.279669
34.554768 -23.748835 -0.292724
31.599771 -21.921541 0.268499
31.207521 -21.649427 0.795603
39.408951 -27.594444 -1.007749
31.372759 -21.967442 -0.267382
32.806240 -22.971176 -0.279599
31.864576 -22.519657 0.272409
31.213360 -22.059422 0.800629
39.646870 -28.279837 -1.020105
31.147301 -22.217154 -0.267103
39.565048 -28.221476 -0.339289
32.178123 -23.164934 0.276807
32.244877 -23.212990 0.832252
35.467613 -25.768730 -0.918325
33.977886 -24.686378 -0.293213
30.619955 -22.451481 0.265078
29.783529 -21.838188 0.773613
33.159859 -24.537006 -0.864084
30.666391 -22.691936 -0.266335
33.126133 -24.512051 -0.287698
29.493435 -22.023792 0.256980
29.800104 -22.252794 0.779058
33.104168 -24.945778 -0.868273
30.547064 -23.018864 -0.267033
33.086662 -24.932589 -0.289234
29.252361 -22.244013 0.256561
34.346649 -26.117800 0.301241
29.946985 -22.772217 0.788063
32.613007 -24.799507 0.858220
32.750374 -25.130247 -0.864713
36.510044 -28.015142 -0.963980
32.844028 -25.202108 -0.289024
30.353832 -23.502449 0.268011
32.765377 -25.369665 0.289303
30.150286 -23.344847 0.798744
32.718910 -25.562813 -0.869739
42.157207 -32.936821 -1.120629
32.930168 -25.727865 -0.291747
30.508820 -24.051214 0.271222
29.945419 -23.607065 0.798744
33.519581 -26.662678 -0.897173
35.319183 -28.094149 -0.945341
32.915695 -26.182327 -0.293632
30.601921 -24.560638 0.273945
32.021278 -25.699791 0.286651
32.170975 -25.819939 0.864084
32.687359 -26.469702 -0.881048
35.927349 -29.093393 -0.968377
30.408981 -24.624706 -0.273177
31.869980 -25.807800 -0.286301
32.942413 -26.676241 -0.295936
32.182976 -26.294592 0.290141
32.478645 -26.536167 0.878534
32.370266 -26.683989 -0.878744
31.975344 -26.358438 -0.289303
32.198311 -26.779053 0.292375
32.576370 -27.093481 0.887540
32.434868 -27.216085 -0.886912
48.411049 -40.621693 -1.323770
32.119461 -26.951427 -0.292724
32.718979 -27.698660 0.299287
33.833271 -28.641977 0.309479
32.544727 -27.551144 0.893194
32.158119 -27.465628 -0.885864
31.540871 -26.938448 -0.289583
32.536625 -28.035349 0.299845
32.643890 -28.127775 0.902618
32.279396 -28.060049 -0.895917
49.241547 -42.805023 -1.366702
34.821453 -30.269825 -0.322115
33.523720 -29.399513 0.311294
32.690342 -28.668661 0.910786
49.008400 -43.358971 -1.370681
48.643490 -43.036125 -0.453433
35.205589 -31.422190 0.329446
34.460293 -30.756987 0.967540
46.287769 -41.677692 -1.304713
46.140739 -41.545307 -0.433466
46.070053 -41.847092 0.434514
31.777996 -28.865099 0.899267
46.312977 -42.438023 -1.315812
46.189301 -42.324696 -0.437376
33.587887 -31.048323 0.958116
46.350342 -43.222393 -1.327540
46.227741 -43.108067 -0.441285
45.966373 -43.240845 0.440587
33.315662 -31.340246 0.958116
45.775356 -43.061157 1.316440
46.072926 -43.721577 -1.330472
45.748245 -43.413464 -0.440308
45.276669 -43.342983 0.437585
45.072849 -43.147865 1.307016
45.308468 -43.753880 -1.319372
45.051155 -43.505394 -0.437236
44.574383 -43.422443 0.434444
44.458271 -43.309330 1.300105
44.575508 -43.804230 -1.309111
44.077805 -43.315136 -0.431442
43.526199 -43.148010 0.427881
43.361507 -42.984749 1.278954
43.760311 -43.760311 -1.296336
43.620354 -43.620354 -0.430674
43.422569 -43.803165 0.430604
43.266293 -43.645519 1.287331
43.622032 -44.390102 -1.303666
43.483353 -44.248978 -0.433117
43.338711 -44.488430 0.433606
43.218639 -44.365173 1.297383
43.566364 -45.114288 -1.313718
43.366467 -44.907288 -0.435840
43.204681 -45.132202 0.436189
43.078728 -45.000626 1.304922
43.398121 -45.732075 -1.320629
43.255146 -45.581413 -0.438702
43.062702 -45.777000 0.438772
42.965252 -45.673409 1.313509
43.276943 -46.408840 -1.329215
43.148983 -46.271622 -0.441704
42.789001 -46.288879 1.320420
43.194519 -47.138546 -1.339268
43.047558 -46.978168 -0.444846
43.109318 -47.877750 -1.349530
42.923683 -47.671577 -0.447848
42.857220 -48.441277 -0.451548
0.181113 -0.251582 0.002164
0.157713 -0.219077 0.005654
0.170995 -0.246488 0.002094
0.136769 -0.197152 0.005026
0.135070 -0.198377 0.001676
0.151924 -0.223130 0.005654
0.133334 -0.199548 0.001676
0.138862 -0.207822 0.005236
0.120622 -0.183978 0.001536
0.148007 -0.225748 0.005654
0.129831 -0.201844 0.001676
0.118988 -0.184988 0.004607
0.128064 -0.202970 0.001676
0.117369 -0.186019 0.004607
0.147336 -0.238093 0.001955
0.131525 -0.212541 0.005236
0.140038 -0.230776 0.005654
0.117595 -0.197659 0.001606
0.102236 -0.171844 0.004188
0.115843 -0.198639 0.004817