# This PCD file was generated using the MATLAB® pcwrite function
# from Computer Vision System Toolbox®.
# .PCD v.7 - Point Cloud Data file format
VERSION .7
FIELDS x y z
SIZE 4 4 4
TYPE F F F
COUNT 1 1 1
WIDTH 766
HEIGHT 1
VIEWPOINT 0 0 0 1 0 0 0
POINTS 766
DATA ascii
15.600703 17.326336 -0.488377
15.576981 17.299990 -0.162524
15.548676 16.968403 -0.482094
15.571975 16.993828 -0.160918
15.566607 16.693144 -0.478115
15.556004 16.681772 -0.159243
15.546519 16.382614 -0.473089
15.570201 16.407568 -0.157916
15.522209 16.073719 -0.468063
15.546076 16.098433 -0.156241
15.528743 15.802163 -0.464084
15.517753 15.790980 -0.154565
15.489312 15.489312 -0.458848
15.541828 15.541828 -0.153448
15.516926 15.248441 -0.455707
15.534216 15.265431 -0.152052
15.505565 14.973550 -0.451519
15.522975 14.990362 -0.150656
15.497850 14.706911 -0.447540
15.479112 14.689129 -0.148980
15.501298 14.455194 -0.443979
15.518948 14.471653 -0.148142
15.449944 14.157265 -0.438953
15.467702 14.173537 -0.146467
15.454022 13.914865 -0.435602
15.442173 13.904195 -0.145071
15.462543 13.680103 -0.432461
15.480537 13.696023 -0.144303
15.453062 13.433142 -0.428901
15.478716 13.455442 -0.143186
15.425253 13.174411 -0.424922
15.443469 13.189968 -0.141789
15.447728 12.962183 -0.422409
15.435419 12.951855 -0.140672
15.413678 12.706056 -0.418430
15.416683 12.708533 -0.139486
15.422964 12.489270 -0.415707
15.449286 12.510585 -0.138787
15.406175 12.254625 -0.412356
15.456135 12.294365 -0.137880
15.425867 12.052008 -0.410053
15.444634 12.066670 -0.136833
15.363884 11.789123 -0.405655
15.351013 11.779246 -0.135087
15.402300 11.606465 -0.403979
15.421276 11.620765 -0.134808
15.438704 11.424040 -0.402304
15.425637 11.414371 -0.133970
15.384129 11.177223 -0.398325
15.387128 11.179403 -0.132784
15.375269 10.967073 -0.395602
15.361985 10.957598 -0.131736
15.404871 10.786607 -0.393927
15.424257 10.800181 -0.131457
15.374822 10.566822 -0.390786
15.394302 10.580211 -0.130410
15.390726 10.479173 0.129991
15.325542 10.337209 -0.387225
15.369982 10.367184 -0.129433
15.398442 10.288910 0.129293
15.428692 10.309122 0.388691
15.290112 10.120304 -0.384084
15.334786 10.149874 -0.128385
15.353840 10.066419 0.128176
15.384291 10.086383 0.385341
15.369460 9.981044 -0.383875
15.364070 9.977544 -0.127897
15.373818 9.888772 0.127617
15.379230 9.892253 0.383037
15.363222 9.787452 -0.381571
15.383085 9.800106 -0.127338
15.358043 9.690204 0.126780
15.329682 9.672310 0.379686
15.312389 9.568243 -0.378220
15.332335 9.580707 -0.126221
15.314470 9.476882 0.125732
15.345491 9.496078 0.378011
15.352681 9.408135 -0.377173
15.347149 9.404745 -0.125663
15.319648 9.296190 0.125104
15.333755 9.304751 0.375707
15.374208 9.237757 -0.375707
15.385778 9.244708 -0.125314
15.331437 9.121246 0.124546
15.337040 9.124580 0.373822
15.342250 9.037275 -0.372984
15.362473 9.049189 -0.124476
15.315431 8.931695 0.123778
15.321081 8.934990 0.371519
15.359921 8.868054 -0.371519
15.345596 8.859784 -0.123708
15.358063 8.777856 0.123498
15.363749 8.781106 0.370681
15.323603 8.669677 -0.368796
15.343997 8.681216 -0.123080
15.338106 8.589752 0.122731
15.370008 8.607618 0.369005
15.328721 8.496849 -0.367121
15.349202 8.508202 -0.122521
15.333577 8.412289 0.122102
15.339354 8.415458 0.366492
15.340781 8.329365 -0.365655
15.361349 8.340532 -0.122032
15.335934 8.240294 0.121544
15.306523 8.224492 0.363979
15.262815 8.115383 -0.362094
15.283450 8.126355 -0.120846
15.301064 8.050279 0.120706
15.333472 8.067330 0.362932
15.333054 7.981883 -0.362094
15.353784 7.992674 -0.120846
15.370731 7.916447 0.120706
15.341070 7.901171 0.361466
15.259594 7.775152 -0.358744
15.324939 7.808446 -0.120078
15.332075 7.728002 0.119868
15.382653 7.753495 0.360838
15.326863 7.641692 -0.358744
15.311954 7.634259 -0.119449
15.336150 7.562953 0.119380
15.369027 7.579165 0.358953
15.321077 7.472589 -0.357068
15.333053 7.478429 -0.119100
15.356531 7.407111 0.119030
15.326522 7.392637 0.356440
15.322536 7.308475 -0.355602
15.343575 7.318511 -0.118681
15.348229 7.238695 0.118472
15.363323 7.245813 0.355812
15.304181 7.136457 -0.353717
15.334354 7.150527 -0.118123
15.338164 7.070991 0.117913
15.344254 7.073798 0.353927
15.293095 6.969465 -0.352042
15.314275 6.979117 -0.117495
15.335464 6.908123 0.117425
15.296012 6.890351 0.351414
15.289397 6.807278 -0.350576
15.338055 6.828942 -0.117215
15.358552 6.757925 0.117146
15.328105 6.744527 0.350786
15.293207 6.649676 -0.349320
15.314530 6.658947 -0.116587
15.334251 6.588114 0.116517
15.386377 6.610509 0.350786
15.277029 6.484714 -0.347644
15.261599 6.478164 -0.115749
15.326607 6.426980 0.116029
15.286738 6.410262 0.347225
15.296089 6.335848 -0.346806
15.317550 6.344737 -0.115749
15.308067 6.262695 0.115470
15.305082 6.261475 0.346388
15.285909 6.175908 -0.345340
15.307432 6.184604 -0.115261
15.287832 6.099227 0.114912
15.331283 6.116561 0.345759
15.264804 6.012966 -0.343665
15.286388 6.021469 -0.114702
15.265917 5.936590 0.114353
15.262940 5.935433 0.343037
15.279360 5.865197 -0.342827
15.291675 5.869924 -0.114353
15.317142 5.803146 0.114353
15.323504 5.805557 0.343246
15.292502 5.717632 -0.341990
15.304851 5.722249 -0.114074
15.292146 5.641571 0.113795
15.298545 5.643931 0.341571
15.219682 5.539511 -0.339267
15.269633 5.557692 -0.113445
15.303149 5.494392 0.113515
15.309575 5.496699 0.340733
15.239170 5.396473 -0.338639
15.251568 5.400863 -0.112957
15.237226 5.321077 0.112678
15.272010 5.333225 0.338848
15.210057 5.237243 -0.336964
15.222478 5.241519 -0.112398
15.245204 5.175049 0.112398
15.251698 5.177254 0.337382
15.226738 5.094795 -0.336335
15.267639 5.108480 -0.112398
15.251797 5.029288 0.112119
15.258318 5.031439 0.336545
15.232584 4.949367 -0.335498
15.245065 4.953422 -0.111910
15.209391 4.868564 0.111491
15.263556 4.885903 0.335707
15.189379 4.789193 -0.333613
15.163730 4.781106 -0.111002
15.213097 4.723792 0.111211
15.257872 4.737695 0.334660
15.221033 4.653537 -0.333403
15.233563 4.657368 -0.111211
15.215438 4.579327 0.110932
15.260340 4.592841 0.333822
15.222718 4.509174 -0.332566
15.235274 4.512894 -0.110932
15.226020 4.437980 0.110723
15.232650 4.439912 0.332356
15.223046 4.365138 -0.331728
15.206789 4.360476 -0.110444
15.264168 4.304941 0.110723
15.270815 4.306815 0.332356
15.183485 4.210753 -0.330053
15.167173 4.206230 -0.109885
15.223973 4.150531 0.110164
15.221005 4.149722 0.330471
15.219652 4.078094 -0.330053
15.193643 4.071125 -0.109815
15.172581 3.994607 0.109536
15.227633 4.009101 0.329843
15.177226 3.925097 -0.328377
15.189866 3.928366 -0.109536
15.177786 3.854667 0.109327
15.203897 3.861298 0.328587
15.210900 3.792503 -0.328377
15.184758 3.785985 -0.109257
15.201133 3.719694 0.109257
15.207881 3.721345 0.327958
15.204530 3.650285 -0.327539
15.217218 3.653331 -0.109257
15.194080 3.577731 0.108977
15.200850 3.579325 0.327121
15.148131 3.497222 -0.325655
15.170572 3.502403 -0.108698
15.195463 3.438382 0.108768
15.192501 3.437712 0.326283
15.148791 3.358406 -0.325026
15.210321 3.372047 -0.108768
15.215117 3.303526 0.108698
15.221922 3.305003 0.326283
15.138404 3.217767 -0.324189
15.190262 3.228790 -0.108419
15.204206 3.162479 0.108419
15.211030 3.163899 0.325445
15.165908 3.085539 -0.324189
15.198262 3.092121 -0.108279
15.191994 3.021875 0.108140
15.238061 3.031039 0.325445
15.192256 2.953075 -0.324189
15.214850 2.957467 -0.108210
15.227610 2.891052 0.108210
15.234464 2.892353 0.324817
15.187957 2.814921 -0.323560
15.200750 2.817292 -0.107930
15.173538 2.743823 0.107651
15.209932 2.750404 0.323770
15.162713 2.673595 -0.322513
15.185366 2.677590 -0.107651
15.196904 2.611306 0.107651
15.164381 2.605717 0.322304
15.106582 2.527975 -0.320838
15.168703 2.538370 -0.107372
15.219113 2.478590 0.107651
15.186543 2.473285 0.322304
15.167565 2.402306 -0.321676
15.190276 2.405903 -0.107372
15.200629 2.339601 0.107372
15.207547 2.340665 0.322304
15.059408 2.250644 -0.318953
15.181024 2.268819 -0.107162
15.180882 2.201123 0.107093
15.177923 2.200694 0.321257
15.127977 2.126099 -0.320000
15.190342 2.134863 -0.107093
15.199512 2.068563 0.107093
15.166830 2.064115 0.320628
15.145955 1.994003 -0.320000
15.248051 2.007444 -0.107372
15.167386 1.929535 0.106743
15.184265 1.931682 0.320628
15.123086 1.856881 -0.319162
15.135960 1.858462 -0.106464
15.143925 1.792402 0.106464
15.160830 1.794402 0.319791
15.138714 1.724839 -0.319162
15.221149 1.734231 -0.106953
15.119228 1.655825 0.106185
15.175911 1.662033 0.319791
15.113418 1.588484 -0.318325
15.166089 1.594020 -0.106464
15.103254 1.520818 0.105976
15.140100 1.524528 0.318744
15.166512 1.460369 -0.319162
15.239144 1.467363 -0.106883
15.185655 1.395366 0.106464
15.192651 1.396008 0.319581
15.138839 1.324477 -0.318325
15.111905 1.322120 -0.105906
15.157392 1.259482 0.106185
15.124547 1.256753 0.317906
15.189688 1.195454 -0.319162
15.172712 1.194118 -0.106255
15.167806 1.127163 0.106185
15.164848 1.126943 0.318534
15.119754 1.057276 -0.317487
15.132678 1.058180 -0.105906
15.137151 0.992141 0.105906
15.174106 0.994563 0.318534
15.128405 0.925293 -0.317487
15.191241 0.929136 -0.106255
15.115281 0.858308 0.105696
15.152262 0.860408 0.317906
15.095967 0.791146 -0.316649
15.148841 0.793917 -0.105906
15.112207 0.725891 0.105626
15.119248 0.726230 0.317068
15.142249 0.661125 -0.317487
15.175173 0.662562 -0.106045
15.117967 0.593987 0.105626
15.164970 0.595833 0.317906
15.067509 0.526169 -0.315812
15.130408 0.528365 -0.105696
15.082594 0.460815 0.105347
15.089647 0.461030 0.316231
15.081521 0.394924 -0.316021
15.134443 0.396309 -0.105696
15.126031 0.330051 0.105626
15.143073 0.330423 0.317278
15.114382 0.263823 -0.316649
15.127327 0.264048 -0.105626
15.098338 0.197648 0.105417
15.095395 0.197610 0.316231
15.156098 0.132265 -0.317487
15.179052 0.132466 -0.105976
15.099488 0.065884 0.105417
15.146533 0.066090 0.317278
15.116684 0.000000 -0.316649
15.129631 0.000000 -0.105626
15.129487 -0.066015 0.105626
15.096544 -0.065872 0.316231
15.156098 -0.132265 -0.317487
15.189052 -0.132553 -0.106045
15.128335 -0.198041 0.105626
15.145380 -0.198264 0.317278
15.064400 -0.262950 -0.315602
15.137325 -0.264223 -0.105696
15.086041 -0.329179 0.105347
15.093096 -0.329333 0.316231
15.151482 -0.396756 -0.317487
15.174428 -0.397356 -0.105976
15.122575 -0.462036 0.105626
15.139613 -0.462557 0.317278
15.027541 -0.524773 -0.314974
15.090434 -0.526970 -0.105417
15.087991 -0.592809 0.105417
15.085050 -0.592693 0.316231
15.112285 -0.659817 -0.316859
15.165182 -0.662126 -0.105976
15.112207 -0.725891 0.105626
15.129234 -0.726709 0.317278
15.016094 -0.786960 -0.314974
15.078938 -0.790254 -0.105417
15.105298 -0.857741 0.105626
15.072408 -0.855873 0.316231
15.098468 -0.923462 -0.316859
15.161298 -0.927305 -0.106045
15.097238 -0.989525 0.105626
15.144176 -0.992602 0.317906
15.000072 -1.048907 -0.314974
15.062850 -1.053297 -0.105417
15.048139 -1.118270 0.105347
15.055175 -1.118793 0.316231
15.070085 -1.186041 -0.316649
15.063054 -1.185488 -0.105487
15.077668 -1.252858 0.105626
15.094656 -1.254269 0.317278
15.029281 -1.314892 -0.316021
15.082020 -1.319506 -0.105696
15.066161 -1.384386 0.105626
15.043312 -1.382286 0.316440
15.096848 -1.453661 -0.317697
15.119699 -1.455861 -0.106045
15.063457 -1.516810 0.105696
15.110257 -1.521523 0.318115
15.033874 -1.580124 -0.316649
15.086530 -1.585658 -0.105906
15.049646 -1.648204 0.105696
15.056650 -1.648971 0.317278
15.108913 -1.721443 -0.318534
15.121795 -1.722911 -0.106255
15.024759 -1.778298 0.105626
15.041688 -1.780301 0.317278
15.004006 -1.842260 -0.316649
14.987082 -1.840182 -0.105417
15.048348 -1.914392 0.105906
15.045415 -1.914019 0.317697
15.076569 -1.984868 -0.318534
15.138994 -1.993086 -0.106604
15.070703 -2.051033 0.106185
15.038046 -2.046588 0.317906
15.009171 -2.109401 -0.317487
15.031903 -2.112596 -0.105976
15.012646 -2.176730 0.105906
15.049296 -2.182044 0.318534
15.039632 -2.247688 -0.318534
15.151354 -2.264385 -0.106953
15.032612 -2.313740 0.106185
15.039563 -2.314810 0.318744
15.009570 -2.377282 -0.318325
15.061880 -2.385567 -0.106464
15.051328 -2.451264 0.106464
15.068130 -2.454001 0.319791
14.948811 -2.501573 -0.317487
15.089802 -2.525167 -0.106813
15.039219 -2.584210 0.106534
15.085554 -2.592172 0.320628
15.044562 -2.652762 -0.320000
15.047496 -2.653280 -0.106674
15.094816 -2.729588 0.107093
15.062359 -2.723718 0.320628
15.020840 -2.783948 -0.320000
15.131925 -2.804536 -0.107442
15.060597 -2.859344 0.107023
15.077306 -2.862516 0.321466
15.074487 -2.930183 -0.321676
15.097058 -2.934571 -0.107372
15.074303 -2.998465 0.107302
15.051752 -2.993980 0.321466
15.018951 -3.055640 -0.321047
15.119870 -3.076172 -0.107721
15.047563 -3.129897 0.107302
15.054417 -3.131323 0.322094
14.981935 -3.184509 -0.320838
14.965294 -3.180971 -0.106813
15.029449 -3.263213 0.107372
15.055829 -3.268941 0.322723
15.031661 -3.332439 -0.322513
15.063880 -3.339582 -0.107721
15.000400 -3.394244 0.107372
15.007226 -3.395789 0.322304
15.040975 -3.472482 -0.323351
15.024420 -3.468661 -0.107651
15.009142 -3.534184 0.107651
15.006216 -3.533495 0.322932
14.932326 -3.584934 -0.321676
14.954685 -3.590302 -0.107372
15.006869 -3.672158 0.107860
14.974810 -3.664313 0.322932
14.939277 -3.724780 -0.322513
14.932487 -3.723087 -0.107442
15.022713 -3.815283 0.108210
15.029474 -3.817000 0.324817
14.983639 -3.875032 -0.324189
14.967197 -3.870780 -0.107930
14.988847 -3.946234 0.108210
14.995593 -3.948010 0.324817
15.016852 -4.023754 -0.325655
15.000463 -4.019362 -0.108419
15.021373 -4.095296 0.108698
15.028090 -4.097127 0.326283
14.990802 -4.157317 -0.325864
15.003361 -4.160800 -0.108698
14.994687 -4.228939 0.108768
14.991764 -4.228115 0.326283
14.992393 -4.299000 -0.326702
15.014542 -4.305351 -0.109047
14.986013 -4.368024 0.108977
14.983091 -4.367173 0.326911
14.992652 -4.441026 -0.327539
14.976399 -4.436212 -0.109047
14.956901 -4.501516 0.109047
14.953984 -4.500638 0.327121
14.991570 -4.583383 -0.328377
14.965805 -4.575506 -0.109257
14.983898 -4.652624 0.109536
14.952332 -4.642823 0.327958
14.979608 -4.723052 -0.329005
14.972991 -4.720966 -0.109606
14.942726 -4.783204 0.109536
14.939813 -4.782272 0.328587
14.985363 -4.869040 -0.330053
14.969265 -4.863809 -0.109885
14.938403 -4.925947 0.109815
14.982965 -4.940641 0.330471
14.942303 -4.999625 -0.330053
14.945216 -5.000599 -0.110025
14.980069 -5.085048 0.110444
14.948748 -5.074416 0.330681
14.973729 -5.155869 -0.331728
14.957739 -5.150362 -0.110444
14.963447 -5.225470 0.110653
14.941651 -5.217858 0.331519
14.881044 -5.269654 -0.330681
14.949930 -5.294048 -0.110723
14.926688 -5.359229 0.110723
14.961416 -5.371697 0.332984
14.919046 -5.430089 -0.332566
14.931352 -5.434567 -0.110932
14.916879 -5.503127 0.111002
14.913971 -5.502054 0.332984
14.946010 -5.588084 -0.334241
14.930191 -5.582170 -0.111281
14.933745 -5.657890 0.111491
14.977580 -5.674498 0.335498
14.934011 -5.732630 -0.335079
14.908916 -5.722997 -0.111491
14.930402 -5.806116 0.111840
14.964764 -5.819479 0.336335
14.920625 -5.877390 -0.335916
14.979358 -5.900526 -0.112398
14.944181 -5.962124 0.112328
14.941268 -5.960961 0.336964
14.942925 -6.037334 -0.337592
14.927297 -6.031019 -0.112398
14.900839 -6.096094 0.112398
14.907187 -6.098691 0.337382
14.926619 -6.182808 -0.338430
14.938768 -6.187840 -0.112887
14.911626 -6.252964 0.112887
14.908719 -6.251745 0.338639
14.872096 -6.312830 -0.338430
14.884201 -6.317968 -0.112887
14.893243 -6.398642 0.113166
14.908710 -6.405288 0.339895
14.889790 -6.474265 -0.340105
14.892693 -6.475527 -0.113376
14.910061 -6.560584 0.113725
14.888852 -6.551251 0.340733
14.860125 -6.616154 -0.340733
14.917833 -6.641848 -0.114004
14.888711 -6.706875 0.114004
14.904040 -6.713780 0.342409
14.883701 -6.782894 -0.342618
14.868404 -6.775922 -0.114074
14.875023 -6.857480 0.114353
14.872123 -6.856143 0.343037
14.860188 -6.929420 -0.343456
14.881211 -6.939223 -0.114632
14.886969 -7.021151 0.114912
14.893109 -7.024046 0.344922
14.871344 -7.093267 -0.345131
14.901320 -7.107565 -0.115261
14.897186 -7.185549 0.115470
14.894281 -7.184149 0.346388
14.880765 -7.257834 -0.346806
14.865691 -7.250482 -0.115470
14.860819 -7.328545 0.115679
14.857922 -7.327116 0.347016
14.852653 -7.405259 -0.347644
14.837650 -7.397779 -0.115749
14.840948 -7.480454 0.116029
14.838055 -7.478995 0.348063
14.787464 -7.534589 -0.347644
14.799257 -7.540598 -0.115959
14.801775 -7.623415 0.116238
14.852219 -7.649395 0.349948
14.792096 -7.700278 -0.349320
14.803850 -7.706397 -0.116517
14.849730 -7.812821 0.117146
14.846836 -7.811298 0.351414
14.830266 -7.885393 -0.351833
14.850817 -7.896319 -0.117425
14.807412 -7.956310 0.117355
14.822140 -7.964223 0.352461
14.760889 -8.014509 -0.351833
14.781343 -8.025615 -0.117425
14.851389 -8.147751 0.118263
14.813433 -8.126927 0.353927
14.795320 -8.201180 -0.354346
14.815697 -8.212475 -0.118263
14.849520 -8.316131 0.118821
14.855349 -8.319395 0.356649
14.827608 -8.389057 -0.356859
14.847906 -8.400541 -0.119100
14.845838 -8.485095 0.119380
14.842944 -8.483441 0.358115
14.753837 -8.518131 -0.356859
14.774034 -8.529792 -0.119100
14.831695 -8.649589 0.119868
14.837440 -8.652939 0.359791
14.782313 -8.707448 -0.359372
14.793812 -8.714221 -0.119868
14.832994 -8.824703 0.120497
14.804325 -8.807648 0.360838
14.842881 -8.918503 -0.362723
14.828633 -8.909942 -0.120776
14.781066 -8.969371 0.120706
14.795279 -8.977996 0.362513
14.832685 -9.089481 -0.364398
14.792947 -9.065129 -0.121125
14.770258 -9.140113 0.121264
14.809887 -9.164637 0.364817
14.752801 -9.218573 -0.364398
14.806559 -9.252165 -0.121893
14.757591 -9.311346 0.121823
14.771625 -9.320201 0.365864
14.806705 -9.432912 -0.367749
14.792726 -9.424006 -0.122451
14.785106 -9.510099 0.122731
14.790631 -9.513654 0.368377
14.790904 -9.605326 -0.369424
14.777016 -9.596306 -0.123010
14.801905 -9.704554 0.123568
14.807380 -9.708143 0.370890
14.781553 -9.783696 -0.371309
14.801112 -9.796642 -0.123917
14.783170 -9.877798 0.124127
14.788600 -9.881427 0.372566
14.761921 -9.957042 -0.372984
14.773089 -9.964575 -0.124406
14.754268 -10.045823 0.124615
14.792711 -10.071999 0.374869
14.732144 -10.125122 -0.374450
14.767982 -10.149753 -0.125104
14.772852 -10.248292 0.125523
14.778187 -10.251993 0.376754
14.716934 -10.304908 -0.376335
14.760760 -10.335595 -0.125802
14.748187 -10.422988 0.126082
14.753476 -10.426726 0.378430
14.748538 -10.520030 -0.379477
14.735132 -10.510468 -0.126361
14.745940 -10.615558 0.126850
14.759293 -10.625171 0.380943
14.728969 -10.701222 -0.381361
14.772290 -10.732697 -0.127478
14.757577 -10.820703 0.127757
14.722449 -10.794946 0.382409
14.691280 -10.870975 -0.382827
14.686107 -10.867147 -0.127548
14.718674 -10.990955 0.128246
14.763869 -11.024704 0.385969
14.699656 -11.076984 -0.385550
14.718493 -11.091181 -0.128665
14.757518 -11.221877 0.129433
14.730765 -11.201534 0.387644
14.657954 -11.247444 -0.387016
14.676679 -11.261812 -0.129153
14.714375 -11.393085 0.129921
14.719411 -11.396986 0.389948
14.693177 -11.479568 -0.390576
14.743322 -11.518745 -0.130619
14.708628 -11.595347 0.130759
14.713612 -11.599277 0.392461
14.717631 -11.706932 -0.393927
14.704849 -11.696765 -0.131178
14.700464 -11.798370 0.131597
14.705396 -11.802328 0.394974
14.677068 -11.885255 -0.395602
14.703243 -11.906451 -0.132085
14.728589 -12.033762 0.132784
14.725718 -12.031416 0.398325
14.696224 -12.114633 -0.398953
14.714522 -12.129716 -0.133133
14.707586 -12.232170 0.133552
14.743153 -12.261750 0.401676
14.712486 -12.345242 -0.402304
14.723016 -12.354076 -0.134180
14.691867 -12.437584 0.134389
14.696633 -12.441619 0.403351
14.665014 -12.525105 -0.403979
14.683082 -12.540536 -0.134808
14.711554 -12.676286 0.135576
14.678390 -12.647710 0.405864
14.675882 -12.757549 -0.407330
14.686291 -12.766598 -0.135855
14.660519 -12.856930 0.136135
14.717794 -12.907160 0.410053
14.623898 -12.938131 -0.409005
14.641727 -12.953906 -0.136484
14.659670 -13.084256 0.137182
14.664271 -13.088363 0.411728
14.629313 -13.172292 -0.412356
14.647028 -13.188243 -0.137601
14.633756 -13.292368 0.138020
14.667906 -13.323387 0.415079
14.609632 -13.387261 -0.415079
14.619853 -13.396627 -0.138438
14.634691 -13.528170 0.139137
14.639179 -13.532318 0.417592
14.631178 -13.643794 -0.419058
14.648658 -13.660094 -0.139835
14.625333 -13.758140 0.140184
14.666174 -13.796559 0.421780
14.605836 -13.860420 -0.421780
14.644952 -13.897540 -0.140952
14.627514 -14.002798 0.141371
14.631885 -14.006982 0.424293
14.592203 -14.091527 -0.424922
14.645401 -14.142900 -0.142138
14.590715 -14.213645 0.142208
14.652324 -14.273662 0.428482
14.589904 -14.337459 -0.428482
14.628410 -14.375299 -0.143186
14.601055 -14.474190 0.143535
14.605309 -14.478407 0.430786
14.541997 -14.541997 -0.430786
14.566045 -14.566045 -0.143814
14.622029 -14.750191 0.145001
14.619179 -14.747315 0.434974
14.582723 -14.839486 -0.435812
14.606593 -14.863777 -0.145489
14.597421 -14.984672 0.146048
14.629457 -15.017557 0.439163
14.563791 -15.081247 -0.439163
14.608310 -15.127347 -0.146816
14.604400 -15.255955 0.147444
14.636121 -15.289091 0.443351
14.562388 -15.345555 -0.443142
14.613412 -15.399323 -0.148212
14.580338 -15.499356 0.148561
14.591197 -15.510900 0.446074
14.496105 -15.545170 -0.445236
14.505752 -15.555514 -0.148491
14.587072 -15.780206 0.150027
14.584229 -15.777130 0.450053
14.549022 -15.877471 -0.451100
14.565370 -15.895312 -0.150516
14.576557 -16.047539 0.151354
14.587160 -16.059210 0.454451
14.543709 -16.152426 -0.455288
14.553236 -16.163006 -0.151842
14.515866 -16.263655 0.152191
14.572953 -16.327614 0.458430
14.475073 -16.361094 -0.457592
14.517652 -16.409220 -0.152959
14.505255 -16.540073 0.153588
14.535387 -16.574432 0.461780
14.508843 -16.690516 -0.463246
14.524793 -16.708862 -0.154565
14.517023 -16.847836 0.155263
14.520720 -16.852123 0.465969
14.466529 -16.938129 -0.466597
14.456361 -16.926224 -0.155403
14.498669 -17.126520 0.156659
14.502302 -17.130812 0.470157
14.465976 -17.239878 -0.471414
14.513790 -17.296862 -0.157637
14.476546 -17.406155 0.158056
14.505689 -17.441195 0.475184
14.469618 -17.709929 0.159661
14.479448 -17.721960 0.479372
14.496035 -18.061684 0.161686
14.468177 -18.026976 0.484189
14.455491 -18.336704 0.163012
14.508380 -18.403791 0.490890
14.466342 -18.683538 0.164967
14.469643 -18.687801 0.495079
14.448015 -19.000105 0.166643
14.445199 -18.996401 0.499896
14.443204 -19.341795 0.168528
14.470298 -19.378078 0.506597
14.421691 -19.668705 0.170273
14.442527 -19.697121 0.511623
14.413088 -20.021042 0.172228
0.157713 -0.219077 0.005654
14.427802 -20.041481 0.517278
0.153865 -0.221796 0.005654
0.129417 -0.190074 0.004817
0.155556 -0.232806 0.001955
0.166635 -0.249386 0.006283
0.148007 -0.225748 0.005654
0.129831 -0.201844 0.001676
0.162257 -0.252256 0.006283
0.128064 -0.202970 0.001676
0.117369 -0.186019 0.004607
0.147336 -0.238093 0.001955
0.157830 -0.255050 0.006283
0.129690 -0.213723 0.001745
0.140038 -0.230776 0.005654
0.117595 -0.197659 0.001606
0.102236 -0.171844 0.004188
0.110806 -0.190002 0.004607