# This PCD file was generated using the MATLAB® pcwrite function
# from Computer Vision System Toolbox®.
# .PCD v.7 - Point Cloud Data file format
VERSION .7
FIELDS x y z
SIZE 4 4 4
TYPE F F F
COUNT 1 1 1
WIDTH 778
HEIGHT 1
VIEWPOINT 0 0 0 1 0 0 0
POINTS 778
DATA ascii
3.063124 3.523721 -0.097801
3.057161 3.516861 -0.032533
3.001010 3.392025 -0.094869
3.061230 3.460091 -0.032253
3.077326 3.417717 -0.096335
3.084617 3.425814 -0.032184
3.039489 3.317020 -0.094241
3.046838 3.325040 -0.031485
3.027409 3.246498 -0.092984
3.034819 3.254445 -0.031067
3.028096 3.190947 -0.092147
3.035570 3.198823 -0.030787
3.055826 3.164401 -0.092147
3.056422 3.165018 -0.030718
3.027264 3.080566 -0.090471
3.048881 3.102564 -0.030368
2.962128 2.962128 -0.087749
3.005131 3.005131 -0.029670
3.030650 2.978211 -0.089005
3.074034 3.020845 -0.030089
3.013373 2.909980 -0.087749
3.021153 2.917494 -0.029321
3.016896 2.862927 -0.087120
3.046498 2.891019 -0.029321
3.034452 2.829673 -0.086911
3.042357 2.837044 -0.029042
3.022174 2.769312 -0.085864
3.030136 2.776608 -0.028693
3.031366 2.729454 -0.085445
3.002232 2.703222 -0.028204
2.995166 2.649899 -0.083770
3.025707 2.676920 -0.028204
2.957813 2.571187 -0.082094
2.973483 2.584810 -0.027506
2.995342 2.558264 -0.082513
3.079569 2.630200 -0.028274
3.048188 2.557734 -0.083351
3.033462 2.545377 -0.027646
3.039534 2.505599 -0.082513
3.094139 2.550611 -0.027995
3.014665 2.441228 -0.081257
2.999710 2.429117 -0.026948
3.020205 2.402380 -0.080838
3.005142 2.390398 -0.026808
2.985906 2.332845 -0.079372
3.025887 2.364082 -0.026808
3.045809 2.337131 -0.080419
3.054336 2.343674 -0.026878
3.002211 2.262328 -0.078743
2.978838 2.244715 -0.026040
3.021839 2.236043 -0.078743
3.094774 2.290012 -0.026878
3.025060 2.197835 -0.078325
3.041830 2.210019 -0.026250
3.011567 2.148130 -0.077487
3.061000 2.183390 -0.026250
3.013819 2.110298 -0.077068
3.014406 2.110710 -0.025691
3.056452 2.120336 0.025970
3.064071 2.125622 0.078115
3.007401 2.066929 -0.076440
3.073916 2.112644 -0.026040
3.008713 2.048560 0.025412
3.041183 2.070668 0.077068
3.017035 2.035016 -0.076230
3.050784 2.057780 -0.025691
3.059734 2.044449 0.025691
3.075763 2.055159 0.077487
3.018005 1.997574 -0.075812
3.043609 2.014521 -0.025482
3.044008 1.995739 0.025412
3.043414 1.995350 0.076230
3.043706 1.976606 -0.076021
3.002367 1.949760 -0.024993
3.036077 1.952870 0.025202
3.052302 1.963307 0.076021
3.035543 1.933854 -0.075393
3.044569 1.939604 -0.025202
3.044546 1.920965 0.025133
3.043952 1.920591 0.075393
3.035346 1.896695 -0.074974
3.018978 1.886467 -0.024853
3.078200 1.904848 0.025272
3.086102 1.909738 0.076021
3.000635 1.838792 -0.073717
3.077956 1.886174 -0.025202
3.009217 1.826037 0.024574
3.051366 1.851614 0.074764
3.042277 1.827984 -0.074346
3.017155 1.812890 -0.024574
3.076600 1.830385 0.024993
3.076000 1.830028 0.074974
3.032269 1.786143 -0.073717
3.024245 1.781416 -0.024504
3.040627 1.773241 0.024574
3.083216 1.798079 0.074764
3.030424 1.749616 -0.073298
2.987715 1.724958 -0.024085
3.073349 1.756564 0.024714
3.107470 1.776065 0.074974
2.967262 1.678796 -0.071414
3.037467 1.718516 -0.024365
3.036212 1.700361 0.024295
3.044343 1.704914 0.073089
2.938078 1.628603 -0.070367
3.008618 1.667704 -0.024016
3.068469 1.683420 0.024434
3.067871 1.683092 0.073298
2.969750 1.612443 -0.070785
2.987905 1.622300 -0.023736
3.074234 1.651845 0.024365
3.073634 1.651523 0.073089
2.966053 1.577078 -0.070367
3.001949 1.596164 -0.023736
3.053133 1.606331 0.024085
3.052538 1.606018 0.072251
2.988571 1.555752 -0.070576
3.060113 1.592994 -0.024085
3.102594 1.597941 0.024365
3.066437 1.579319 0.072251
2.904044 1.479684 -0.068272
2.993709 1.525371 -0.023457
3.080702 1.552802 0.024085
3.062246 1.543499 0.071833
2.934741 1.463208 -0.068691
2.997957 1.494726 -0.023387
3.049293 1.503745 0.023736
3.048699 1.503452 0.071204
3.001314 1.463838 -0.069948
3.019874 1.472891 -0.023457
3.080313 1.485767 0.023876
3.079712 1.485477 0.071623
2.932759 1.398854 -0.068063
3.005536 1.433567 -0.023248
3.084117 1.454564 0.023806
3.047345 1.437221 0.070576
2.999221 1.398560 -0.069319
3.045120 1.419963 -0.023457
3.069449 1.415035 0.023597
3.068851 1.414760 0.070785
2.984018 1.359895 -0.068691
3.093793 1.409923 -0.023736
3.072563 1.384089 0.023527
3.035502 1.367394 0.069738
2.986639 1.329737 -0.068482
3.032897 1.350333 -0.023178
3.084525 1.357223 0.023527
3.083923 1.356959 0.070576
2.988960 1.299637 -0.068272
3.081247 1.339764 -0.023457
3.096251 1.330254 0.023527
3.058904 1.314209 0.069738
3.009391 1.277411 -0.068482
3.019182 1.281567 -0.022899
3.070854 1.287716 0.023248
3.079476 1.291331 0.069948
2.992713 1.239622 -0.067853
3.030251 1.255171 -0.022899
3.081975 1.260869 0.023248
3.081374 1.260623 0.069738
3.021956 1.220950 -0.068272
3.041089 1.228680 -0.022899
3.055709 1.219104 0.022968
3.064399 1.222571 0.069110
2.976683 1.172547 -0.067016
3.088911 1.216754 -0.023178
3.056911 1.188768 0.022899
3.065633 1.192160 0.068901
2.949467 1.132194 -0.066178
3.024727 1.161084 -0.022619
3.039115 1.151418 0.022689
3.038523 1.151193 0.068063
2.996694 1.120418 -0.067016
3.062843 1.145150 -0.022829
3.086574 1.138697 0.022968
3.095352 1.141936 0.069110
3.034542 1.104483 -0.067644
3.082117 1.121799 -0.022899
3.058748 1.098203 0.022689
3.076971 1.104745 0.068482
3.015791 1.067948 -0.067016
3.082363 1.091522 -0.022829
3.105977 1.084656 0.022968
3.067616 1.071260 0.068063
3.006090 1.035080 -0.066597
3.025586 1.041793 -0.022340
3.077448 1.044653 0.022689
3.038979 1.031594 0.067225
2.996046 1.002463 -0.066178
3.100943 1.037561 -0.022829
3.086447 1.017758 0.022689
3.085845 1.017559 0.068063
2.966645 0.963922 -0.065340
3.043307 0.988830 -0.022340
3.057116 0.978591 0.022410
3.056520 0.978400 0.067225
3.013085 0.950022 -0.066178
3.051820 0.962235 -0.022340
3.065539 0.951875 0.022410
3.064942 0.951690 0.067225
3.011699 0.920769 -0.065969
3.060101 0.935567 -0.022340
3.073729 0.925087 0.022410
3.073130 0.924907 0.067225
2.990861 0.885934 -0.065340
3.068148 0.908827 -0.022340
3.081685 0.898229 0.022410
3.081084 0.898054 0.067225
3.056142 0.876335 -0.066597
3.075963 0.882018 -0.022340
3.050909 0.860445 0.022131
3.059937 0.862991 0.066597
3.005868 0.833601 -0.065340
3.083542 0.855142 -0.022340
3.058301 0.833789 0.022131
3.057705 0.833626 0.066387
3.041999 0.815101 -0.065969
3.090887 0.828201 -0.022340
3.065461 0.807069 0.022131
3.103537 0.817093 0.067225
2.981241 0.771001 -0.064503
3.020547 0.781167 -0.021782
3.072387 0.780287 0.022131
3.042718 0.772752 0.065759
3.007257 0.749793 -0.064921
3.056357 0.762035 -0.021991
3.079079 0.753446 0.022131
3.078479 0.753299 0.066387
2.994242 0.718854 -0.064503
3.062891 0.735335 -0.021991
3.046603 0.717380 0.021851
3.055741 0.719531 0.065759
3.058851 0.706191 -0.065759
3.069191 0.708579 -0.021991
3.091760 0.699594 0.022131
3.081406 0.697251 0.066178
3.045376 0.675143 -0.065340
3.114308 0.690426 -0.022270
3.097747 0.672587 0.022131
3.067833 0.666092 0.065759
3.070710 0.652700 -0.065759
3.081090 0.654906 -0.021991
3.103498 0.645529 0.022131
3.093105 0.643367 0.066178
3.017506 0.613919 -0.064503
3.086688 0.627994 -0.021991
3.069783 0.610618 0.021851
3.078990 0.612449 0.065759
2.963864 0.576117 -0.063246
3.023338 0.587677 -0.021502
3.074995 0.583806 0.021851
3.074395 0.583692 0.065550
3.047422 0.564806 -0.064921
3.136507 0.581317 -0.022270
3.079972 0.556950 0.021851
3.040019 0.549725 0.064712
3.052234 0.538191 -0.064921
3.072525 0.541769 -0.021782
3.084715 0.530051 0.021851
3.084114 0.529948 0.065550
3.037093 0.508235 -0.064503
3.116586 0.521538 -0.022061
3.089223 0.503112 0.021851
3.098489 0.504621 0.065759
2.982165 0.472328 -0.063246
3.002499 0.475549 -0.021223
3.093496 0.476135 0.021851
3.092893 0.476042 0.065550
3.025725 0.452198 -0.064084
3.125214 0.467066 -0.022061
3.097533 0.449121 0.021851
3.057352 0.443295 0.064712
3.029556 0.425776 -0.064084
3.089561 0.434209 -0.021782
3.101335 0.422073 0.021851
3.100730 0.421991 0.065550
3.013331 0.396713 -0.063665
3.093233 0.407232 -0.021782
3.104900 0.394993 0.021851
3.064623 0.389869 0.064712
3.046448 0.374057 -0.064293
3.056968 0.375348 -0.021502
3.068507 0.363182 0.021572
3.077837 0.364286 0.064921
2.999929 0.341799 -0.063246
3.129675 0.356581 -0.021991
3.111320 0.340745 0.021851
3.120652 0.341767 0.065759
3.042570 0.319787 -0.064084
3.102833 0.326121 -0.021782
3.074378 0.309574 0.021572
3.073778 0.309513 0.064712
3.025341 0.291307 -0.063665
3.135422 0.301907 -0.021991
3.116793 0.286393 0.021851
3.076362 0.282678 0.064712
3.047687 0.266638 -0.064084
3.068205 0.268433 -0.021502
3.079312 0.255871 0.021572
3.088675 0.256649 0.064921
3.010030 0.236895 -0.063246
3.110306 0.244786 -0.021782
3.081428 0.228990 0.021572
3.080827 0.228945 0.064712
3.051877 0.213408 -0.064084
3.072423 0.214845 -0.021502
3.083309 0.202091 0.021572
3.082708 0.202051 0.064712
3.073581 0.187988 -0.064503
3.144048 0.192298 -0.021991
3.124890 0.177444 0.021851
3.084354 0.175142 0.064712
3.055136 0.160113 -0.064084
3.075704 0.161191 -0.021502
3.086366 0.148249 0.021572
3.085765 0.148220 0.064712
2.976511 0.129957 -0.062408
3.086984 0.134781 -0.021572
3.087543 0.121310 0.021572
3.096931 0.121679 0.064921
3.057465 0.106769 -0.064084
3.078049 0.107488 -0.021502
3.048503 0.093140 0.021293
3.047909 0.093122 0.063874
3.058280 0.080084 -0.064084
3.118855 0.081670 -0.021782
3.129179 0.068279 0.021851
3.098583 0.067611 0.064921
3.068859 0.053567 -0.064293
2.979474 0.052007 -0.020804
3.089660 0.040446 0.021572
3.089058 0.040438 0.064712
2.979233 0.025999 -0.062408
3.089807 0.026964 -0.021572
3.089895 0.013482 0.021572
3.089293 0.013480 0.064712
3.059329 0.000000 -0.064084
3.079925 0.000000 -0.021502
3.089895 -0.013482 0.021572
3.089293 -0.013480 0.064712
2.999228 -0.026174 -0.062827
3.119805 -0.027226 -0.021782
3.089660 -0.040446 0.021572
3.099055 -0.040569 0.064921
3.058863 -0.053393 -0.064084
3.079456 -0.053752 -0.021502
3.089189 -0.067406 0.021572
3.098583 -0.067611 0.064921
3.078269 -0.080607 -0.064503
3.118855 -0.081670 -0.021782
3.128464 -0.095583 0.021851
3.087881 -0.094343 0.064712
3.017498 -0.105373 -0.063246
2.998099 -0.104696 -0.020944
3.087543 -0.121310 0.021572
3.086941 -0.121286 0.064712
3.076394 -0.134318 -0.064503
3.156915 -0.137834 -0.022061
3.086366 -0.148249 0.021572
3.085765 -0.148220 0.064712
3.065120 -0.160636 -0.064293
3.075704 -0.161191 -0.021502
3.084955 -0.175176 0.021572
3.084354 -0.175142 0.064712
3.033664 -0.185547 -0.063665
3.114105 -0.190467 -0.021782
3.083309 -0.202091 0.021572
3.092684 -0.202705 0.064921
3.061850 -0.214105 -0.064293
3.072423 -0.214845 -0.021502
3.121317 -0.231954 0.021851
3.120708 -0.231909 0.065550
3.029964 -0.238463 -0.063665
3.080400 -0.242433 -0.021572
3.079312 -0.255871 0.021572
3.088675 -0.256649 0.064921
2.987929 -0.261410 -0.062827
3.068205 -0.268433 -0.021502
3.116793 -0.286393 0.021851
3.116186 -0.286337 0.065550
3.045244 -0.293224 -0.064084
3.135422 -0.301907 -0.021991
3.114176 -0.313581 0.021851
3.083726 -0.310515 0.064921
2.982911 -0.313517 -0.062827
2.993438 -0.314623 -0.021014
3.111320 -0.340745 0.021851
3.110714 -0.340679 0.065550
2.989995 -0.340667 -0.063037
3.109804 -0.354317 -0.021851
3.108228 -0.367883 0.021851
3.067909 -0.363111 0.064712
3.076218 -0.377712 -0.064921
3.096668 -0.380223 -0.021782
3.104900 -0.394993 0.021851
3.104295 -0.394916 0.065550
3.052980 -0.401933 -0.064503
3.132890 -0.412453 -0.022061
3.101335 -0.422073 0.021851
3.071011 -0.417946 0.064921
3.069158 -0.431342 -0.064921
3.089561 -0.434209 -0.021782
3.137118 -0.454861 0.022131
3.126612 -0.453337 0.066178
3.045501 -0.455153 -0.064503
3.125214 -0.467066 -0.022061
3.093496 -0.476135 0.021851
3.063249 -0.471479 0.064921
3.031538 -0.480148 -0.064293
3.121019 -0.494321 -0.022061
3.128702 -0.509542 0.022131
3.088621 -0.503014 0.065550
3.037093 -0.508235 -0.064503
3.116586 -0.521538 -0.022061
3.084715 -0.530051 0.021851
3.093967 -0.531641 0.065759
3.052234 -0.538191 -0.064921
3.072525 -0.541769 -0.021782
3.079972 -0.556950 0.021851
3.079372 -0.556841 0.065550
3.027761 -0.561162 -0.064503
3.136507 -0.581317 -0.022270
3.114292 -0.591267 0.022131
3.113685 -0.591152 0.066387
2.983492 -0.579932 -0.063665
3.062602 -0.595310 -0.021782
3.069783 -0.610618 0.021851
3.098602 -0.616350 0.066178
2.988115 -0.607939 -0.063874
3.096487 -0.629987 -0.022061
3.103498 -0.645529 0.022131
3.073529 -0.639295 0.065759
3.012034 -0.640228 -0.064503
3.090871 -0.656985 -0.022061
3.097747 -0.672587 0.022131
3.087373 -0.670334 0.066178
3.025854 -0.670816 -0.064921
3.085020 -0.683932 -0.022061
3.052747 -0.690766 0.021851
3.061903 -0.692838 0.065759
3.058851 -0.706191 -0.065759
3.117908 -0.719826 -0.022340
3.085537 -0.726548 0.022131
3.075204 -0.724114 0.066178
3.052572 -0.732858 -0.065759
3.101784 -0.744673 -0.022270
3.079079 -0.753446 0.022131
3.088190 -0.755675 0.066597
3.046060 -0.759468 -0.065759
3.104871 -0.774131 -0.022340
3.111156 -0.790133 0.022410
3.071788 -0.780135 0.066387
3.058676 -0.791027 -0.066178
3.097997 -0.801197 -0.022340
3.104142 -0.817252 0.022410
3.064863 -0.806911 0.066387
3.070971 -0.822864 -0.066597
3.090887 -0.828201 -0.022340
3.058301 -0.833789 0.022131
3.096288 -0.844145 0.067225
3.025136 -0.838944 -0.065759
3.122087 -0.865831 -0.022619
3.127903 -0.882160 0.022689
3.088804 -0.871133 0.067225
3.056142 -0.876335 -0.066597
3.075963 -0.882018 -0.022340
3.081685 -0.898229 0.022410
3.081084 -0.898054 0.067225
3.000448 -0.888773 -0.065550
3.106500 -0.920187 -0.022619
3.073729 -0.925087 0.022410
3.073130 -0.924907 0.067225
3.049943 -0.932461 -0.066806
3.060101 -0.935567 -0.022340
3.065539 -0.951875 0.022410
3.064942 -0.951690 0.067225
3.013085 -0.950022 -0.066178
3.089968 -0.974263 -0.022619
3.133306 -1.002979 0.022968
3.094608 -0.990592 0.068063
2.966645 -0.963922 -0.065340
3.081348 -1.001191 -0.022619
3.086447 -1.017758 0.022689
3.133320 -1.033214 0.069110
3.071895 -1.027842 -0.067853
3.100943 -1.037561 -0.022829
3.115324 -1.057510 0.022968
3.124184 -1.060518 0.069110
3.081715 -1.061119 -0.068272
3.063406 -1.054815 -0.022619
3.068215 -1.071468 0.022689
3.077055 -1.074556 0.068272
3.034640 -1.074622 -0.067435
3.091789 -1.094860 -0.022899
3.171686 -1.138752 0.023527
3.133429 -1.125016 0.069738
3.100306 -1.128419 -0.069110
3.044530 -1.108118 -0.022619
3.086574 -1.138697 0.022968
3.095352 -1.141936 0.069110
3.034152 -1.134423 -0.067853
3.100309 -1.159158 -0.023108
3.113924 -1.179760 0.023248
3.113317 -1.179530 0.069738
2.977468 -1.142943 -0.066806
3.024727 -1.161084 -0.022619
3.103511 -1.206889 0.023248
3.112224 -1.210278 0.069948
2.985985 -1.176211 -0.067225
3.060999 -1.205760 -0.022968
3.130012 -1.248748 0.023527
3.092257 -1.233686 0.069738
3.003417 -1.213459 -0.067853
3.041089 -1.228680 -0.022899
3.118995 -1.276015 0.023527
3.090627 -1.264409 0.069948
3.038897 -1.258752 -0.068901
3.104160 -1.285785 -0.023457
3.107742 -1.303184 0.023527
3.107136 -1.302930 0.070576
3.073812 -1.304756 -0.069948
2.991568 -1.269845 -0.022689
3.096251 -1.330254 0.023527
3.104833 -1.333942 0.070785
3.062309 -1.331530 -0.069948
3.117928 -1.355714 -0.023736
3.084525 -1.357223 0.023527
3.083923 -1.356959 0.070576
3.050573 -1.358202 -0.069948
3.051167 -1.358467 -0.023317
3.118150 -1.404624 0.023876
3.117542 -1.404350 0.071623
3.002214 -1.368188 -0.069110
3.048296 -1.389189 -0.023387
3.123936 -1.440154 0.024016
3.132407 -1.444059 0.072251
3.026404 -1.411235 -0.069948
3.026994 -1.411511 -0.023317
3.093161 -1.458830 0.023876
3.119686 -1.471339 0.072251
3.050069 -1.454808 -0.070785
3.140920 -1.498142 -0.024295
3.107333 -1.498800 0.024085
3.106727 -1.498507 0.072251
3.010300 -1.468221 -0.070157
3.055825 -1.490426 -0.023736
3.130010 -1.543550 0.024365
3.120433 -1.538827 0.072880
3.095794 -1.543506 -0.072461
3.123245 -1.557192 -0.024365
3.116421 -1.570805 0.024365
3.115813 -1.570499 0.073089
3.091115 -1.575001 -0.072670
3.100627 -1.579848 -0.024295
3.138154 -1.616256 0.024644
3.146430 -1.620518 0.074136
3.121593 -1.624999 -0.073717
3.148812 -1.639168 -0.024783
3.088531 -1.624955 0.024365
3.052538 -1.606018 0.072251
3.098466 -1.647484 -0.073508
3.143217 -1.671278 -0.024853
3.144703 -1.689710 0.024923
3.144090 -1.689381 0.074764
3.092758 -1.679230 -0.073717
3.154876 -1.712958 -0.025063
3.129838 -1.717088 0.024923
3.102932 -1.702327 0.074136
3.043009 -1.686767 -0.072880
3.052348 -1.691944 -0.024365
3.149634 -1.763880 0.025202
3.149020 -1.763536 0.075602
3.097787 -1.752643 -0.074555
3.098391 -1.752985 -0.024853
3.134121 -1.791298 0.025202
3.098790 -1.771104 0.074764
3.099691 -1.789607 -0.074974
3.152256 -1.819956 -0.025412
3.152923 -1.838730 0.025482
3.143672 -1.833335 0.076230
3.075341 -1.811515 -0.074764
3.136254 -1.847395 -0.025412
3.136757 -1.866174 0.025482
3.110369 -1.850475 0.075812
2.982288 -1.791939 -0.072880
3.025727 -1.818040 -0.024644
3.154548 -1.914227 0.025761
3.128291 -1.898294 0.076649
3.043258 -1.864911 -0.074764
3.146166 -1.927973 -0.025761
3.171736 -1.962730 0.026040
3.137111 -1.941303 0.077278
3.111654 -1.944377 -0.076859
3.154662 -1.971252 -0.025970
3.154488 -1.990334 0.026040
3.120051 -1.968606 0.077278
3.119864 -1.987573 -0.077487
3.137340 -1.998706 -0.025970
3.136999 -2.017786 0.026040
3.136388 -2.017392 0.078115
3.135940 -2.036503 -0.078325
3.086232 -2.004223 -0.025691
3.119271 -2.045084 0.026040
3.160468 -2.072094 0.079162
3.084701 -2.041719 -0.077487
3.177027 -2.102829 -0.026599
3.167822 -2.116671 0.026599
3.167204 -2.116258 0.079791
3.075055 -2.074151 -0.077696
3.083945 -2.080147 -0.025970
3.149230 -2.144234 0.026599
3.156880 -2.149443 0.080000
3.147472 -2.163197 -0.080000
3.156326 -2.169283 -0.026738
3.163264 -2.194434 0.026878
3.129788 -2.171211 0.079791
3.128474 -2.190582 -0.080000
3.079937 -2.156595 -0.026250
3.143993 -2.221955 0.026878
3.143380 -2.221522 0.080628
3.125518 -2.229410 -0.080419
3.166832 -2.258879 -0.027157
3.181293 -2.290203 0.027367
3.188786 -2.295598 0.082304
3.041237 -2.209588 -0.078743
3.106550 -2.257040 -0.026808
3.136993 -2.300138 0.027157
3.136381 -2.299690 0.081466
3.150428 -2.331194 -0.082094
3.143004 -2.325701 -0.027297
3.180900 -2.375291 0.027716
3.148237 -2.350900 0.082304
3.098026 -2.334530 -0.081257
3.162519 -2.383129 -0.027646
3.160051 -2.402959 0.027716
3.159435 -2.402490 0.083141
3.109263 -2.385821 -0.082094
3.181269 -2.441074 -0.027995
3.170588 -2.454931 0.027995
3.138349 -2.429970 0.083141
3.088325 -2.412864 -0.082094
3.104687 -2.425647 -0.027506
3.149044 -2.482506 0.027995
3.156282 -2.488212 0.084189
3.106273 -2.470841 -0.083141
3.200789 -2.546023 -0.028553
3.158455 -2.534928 0.028274
3.157840 -2.534434 0.084817
3.069053 -2.485270 -0.082723
0.986951 -0.799217 -0.008866
3.108508 -2.517220 -0.027925
3.167189 -2.587702 0.028553
3.143345 -2.568220 0.085026
3.132109 -2.581911 -0.085026
3.117287 -2.569693 -0.028204
3.175239 -2.640819 0.028833
3.182307 -2.646697 0.086702
3.109458 -2.609145 -0.085026
3.125385 -2.622509 -0.028484
3.121545 -2.642583 0.028553
3.128567 -2.648527 0.085864
3.071366 -2.623195 -0.084607
3.109985 -2.656178 -0.028553
3.151394 -2.715414 0.029042
3.158353 -2.721411 0.087330
3.161540 -2.748284 -0.087749
3.169703 -2.755381 -0.029321
3.135096 -2.749405 0.029112
3.104417 -2.722501 0.086492
3.070045 -2.716146 -0.085864
3.123069 -2.763058 -0.029112
3.140825 -2.803293 0.029391
3.140213 -2.802747 0.088168
3.090805 -2.782973 -0.087120
3.121132 -2.810280 -0.029321
3.145850 -2.857489 0.029670
3.160038 -2.870377 0.089424
3.081143 -2.823348 -0.087539
3.162843 -2.898211 -0.029950
3.113451 -2.878045 0.029601
3.120186 -2.884270 0.089005
3.122195 -2.911494 -0.089424
3.078924 -2.871143 -0.029391
3.131919 -2.946215 0.030019
3.131308 -2.945641 0.090052
3.082165 -2.924865 -0.089005
3.126287 -2.966736 -0.030089
3.156654 -3.021838 0.030508
3.127150 -2.993595 0.090681
3.092483 -2.986376 -0.090052
3.136245 -3.028637 -0.030438
3.137326 -3.056248 0.030578
3.136714 -3.055652 0.091728
3.080566 -3.027264 -0.090471
3.116828 -3.062899 -0.030508
3.131841 -3.104629 0.030787
3.131231 -3.104024 0.092356
3.131796 -3.131796 -0.092775
3.167761 -3.167761 -0.031276
3.132789 -3.160248 0.031067
3.146256 -3.173832 0.093613
3.139385 -3.194661 -0.093822
3.175042 -3.230946 -0.031625
3.160914 -3.244769 0.031625
3.139368 -3.222652 0.094241
3.028046 -3.135634 -0.091309
3.111994 -3.222564 -0.031276
3.139393 -3.279453 0.031695
3.138781 -3.278813 0.095079
3.151973 -3.321486 -0.095916
3.173237 -3.343894 -0.032184
3.158617 -3.357708 0.032184
3.130599 -3.327925 0.095707
3.109231 -3.334241 -0.095497
3.164395 -3.393399 -0.032393
3.149559 -3.407173 0.032393
3.148945 -3.406509 0.097173
3.093524 -3.375990 -0.095916
3.053593 -3.332412 -0.031555
3.153323 -3.471538 0.032742
3.152709 -3.470862 0.098220
3.150914 -3.499444 -0.098639
3.131455 -3.477833 -0.032672
3.176178 -3.558607 0.033301
3.155587 -3.535536 0.099267
3.160004 -3.571735 -0.099895
3.173873 -3.587410 -0.033440
3.171376 -3.616261 0.033580
3.144390 -3.585489 0.099895
3.148393 -3.621811 -0.100524
3.155567 -3.630065 -0.033580
3.113588 -3.613497 0.033301
3.119507 -3.620366 0.100105
3.149132 -3.687160 -0.101571
3.162735 -3.703087 -0.033999
3.127164 -3.693955 0.033789
3.158853 -3.731388 0.102408
3.161821 -3.768112 -0.103037
3.149583 -3.753526 -0.034208
3.126781 -3.759545 0.034138
3.177315 -3.820306 0.104084
3.144469 -3.848638 0.034697
3.118553 -3.816918 0.103246
3.160836 -3.938321 0.035255
3.141447 -3.914161 0.105131
3.151111 -3.997166 0.035535
3.150497 -3.996387 0.106597
3.109988 -4.016605 0.035465
3.146107 -4.063253 0.107644
3.147452 -4.139110 0.036303
3.110529 -4.090553 0.107644
3.153094 -4.222505 0.036791
3.134533 -4.197649 0.109738
3.122039 -4.257924 0.036861
3.156901 -4.305470 0.111833
0.181113 -0.251582 0.002164
3.149029 -4.374277 0.037629
0.157713 -0.219077 0.005654
3.154256 -4.381538 0.113089
0.148196 -0.213623 0.001815
0.136769 -0.197152 0.005026
0.123814 -0.181845 0.001536
0.151924 -0.223130 0.005654
0.155556 -0.232806 0.001955
0.138862 -0.207822 0.005236
0.159001 -0.242517 0.002025
0.148007 -0.225748 0.005654
0.151469 -0.235485 0.001955
0.146031 -0.227031 0.005654
0.128064 -0.202970 0.001676
0.117369 -0.186019 0.004607
0.147336 -0.238093 0.001955
0.136786 -0.221043 0.005445
0.114127 -0.188076 0.001536
0.140038 -0.230776 0.005654
0.117595 -0.197659 0.001606
0.107348 -0.180436 0.004398
0.115843 -0.198639 0.004817