# This PCD file was generated using the MATLAB® pcwrite function
# from Computer Vision System Toolbox®.
# .PCD v.7 - Point Cloud Data file format
VERSION .7
FIELDS x y z
SIZE 4 4 4
TYPE F F F
COUNT 1 1 1
WIDTH 781
HEIGHT 1
VIEWPOINT 0 0 0 1 0 0 0
POINTS 781
DATA ascii
27.560818 30.609390 -0.287558
27.612070 30.133287 -0.856126
23.118134 25.229015 -0.238899
23.332865 25.021435 -0.716650
23.439713 25.136015 -0.239946
23.784317 25.063440 -0.723770
23.823372 25.104595 -0.241621
23.765997 24.610409 -0.716650
23.777576 24.622402 -0.238969
23.804667 24.223804 -0.711414
23.767254 24.185734 -0.236735
23.795994 23.795994 -0.704922
23.694571 23.694571 -0.233942
23.781685 23.370197 -0.698430
23.772058 23.360737 -0.232685
23.768967 22.953424 -0.692147
23.773602 22.957899 -0.230731
23.740925 22.529297 -0.228497
23.790356 22.184866 -0.227100
23.776615 21.787252 -0.225146
23.285051 20.965954 -0.656335
23.787487 21.418348 -0.223470
23.793743 21.050926 -0.221795
23.795414 20.685038 -0.220119
23.377356 19.966148 -0.643979
23.830542 20.353207 -0.218793
23.895346 20.050575 -0.653404
23.884684 20.041630 -0.217676
23.876543 19.682302 -0.648168
23.865767 19.673420 -0.215930
23.891996 19.347359 -0.643979
23.850029 19.313372 -0.214255
23.872139 18.988756 -0.638953
23.861141 18.980009 -0.212859
23.887245 18.662762 -0.634974
23.876144 18.654089 -0.211532
23.882629 18.325787 -0.630576
23.879354 18.323273 -0.210136
23.881948 17.996340 -0.626388
23.846676 17.969759 -0.208460
23.877350 17.668308 -0.622199
23.873966 17.665806 -0.207343
23.844591 17.324108 -0.617383
23.800699 17.292221 -0.205389
23.929747 17.068922 -0.615707
23.983259 17.107092 -0.205668
24.012270 16.813572 -0.614032
24.033335 16.828323 -0.204830
23.993292 16.490131 -0.609843
24.047417 16.527330 -0.203713
24.011951 16.196266 -0.606702
24.066374 16.232975 -0.202666
24.128660 16.122255 0.202596
24.099018 16.102449 0.607121
24.018982 15.897817 -0.603351
24.140406 15.978187 -0.202107
24.109543 15.806909 0.201270
24.104841 15.803827 0.603770
23.947178 15.551479 -0.598116
24.102804 15.652544 -0.200641
24.145641 15.530998 0.200432
24.149343 15.533380 0.601466
24.014521 15.298937 -0.596440
24.213179 15.425496 -0.200432
24.212597 15.277011 0.199873
24.216333 15.279368 0.599791
24.045370 15.025214 -0.593927
28.920576 18.071581 -0.714346
24.245104 15.150023 -0.199594
24.251455 15.007256 0.199106
24.246727 15.004330 0.597278
24.030655 14.726005 -0.590367
28.915211 17.719265 -0.710367
24.274075 14.875172 -0.198756
24.278906 14.732801 0.198268
24.248531 14.714370 0.594136
24.021130 14.433352 -0.587016
28.863064 17.342678 -0.705341
24.291529 14.595823 -0.197849
24.303421 14.459016 0.197430
24.307276 14.461309 0.592461
24.025566 14.152141 -0.584084
28.841017 16.988657 -0.701152
24.323198 14.327458 -0.197081
24.359568 14.206079 0.196872
24.363455 14.208347 0.590786
28.892929 16.681341 -0.698849
24.282761 14.019658 -0.195755
24.378429 13.933420 0.196034
24.382357 13.935664 0.588273
28.932980 16.369492 -0.696335
24.291035 13.743207 -0.194847
24.429293 13.681062 0.195475
24.363468 13.644198 0.584922
28.934818 16.038832 -0.692985
24.243868 13.438595 -0.193521
24.442547 13.409640 0.194638
24.446547 13.411835 0.584084
28.941887 15.714163 -0.689843
24.289913 13.188347 -0.192962
24.523401 13.176898 0.194358
24.536234 13.183794 0.583456
29.007296 15.423452 -0.688168
24.289297 12.914848 -0.192054
29.136560 15.492184 -0.230382
24.566658 12.925144 0.193800
24.544172 12.913314 0.580943
28.998894 15.095868 -0.684817
24.214806 12.605430 -0.190588
29.137596 15.168073 -0.229334
24.571835 12.655327 0.192962
24.584822 12.662015 0.579267
29.049351 14.801383 -0.682932
24.216967 12.339161 -0.189751
29.206482 14.881446 -0.228846
24.574183 12.386407 0.192124
24.587246 12.392992 0.576754
29.043198 14.480405 -0.679791
24.216333 12.073818 -0.188913
29.192047 14.554618 -0.227729
24.618557 12.140529 0.191636
24.613758 12.138162 0.574869
29.087582 14.186962 -0.677906
24.239885 11.822581 -0.188285
29.174143 14.229180 -0.226612
24.552435 11.842690 0.190309
24.682724 11.905533 0.574032
29.092968 13.876634 -0.675184
29.197922 13.926695 -0.225844
24.537270 11.572528 0.189402
24.722380 11.659832 0.572566
29.113283 13.575747 -0.672880
29.218651 13.624881 -0.225076
24.464781 11.278419 0.188075
24.750553 11.410161 0.570890
29.194254 13.304587 -0.672042
29.227243 13.319622 -0.224238
24.489332 11.031639 0.187517
24.849182 11.193741 0.570890
29.236177 13.016785 -0.670367
29.223606 13.011189 -0.223331
24.465679 10.765157 0.186609
29.344172 12.911744 0.223819
24.836105 10.928148 0.568377
29.321150 12.749199 -0.669739
29.271845 12.727760 -0.222842
24.402500 10.484141 0.185422
29.354664 12.611759 0.223051
24.893782 10.695212 0.567540
29.357664 12.461590 -0.668063
29.381800 12.471833 -0.222842
24.419287 10.239857 0.184864
29.389830 12.324178 0.222493
24.912405 10.446638 0.565864
29.299032 12.136056 -0.664294
29.452562 12.199651 -0.222563
24.387398 9.977148 0.183956
29.394449 12.025587 0.221725
24.965607 10.213699 0.565026
29.190617 11.793775 -0.659477
29.483728 11.912199 -0.222004
24.473536 9.763950 0.183956
29.433258 11.742679 0.221236
24.821634 9.902828 0.559791
29.143589 11.479965 -0.656126
29.540037 11.636130 -0.221655
24.464611 9.513766 0.183258
29.422771 11.441890 0.220398
24.431887 9.501041 0.549110
29.177324 11.200125 -0.654660
29.537766 11.338486 -0.220887
29.418636 11.145724 0.219630
25.084175 9.503544 0.561885
29.189669 10.913570 -0.652775
29.466990 11.017256 -0.219630
29.552307 10.902422 0.219910
25.869642 9.543815 0.577592
29.349569 10.827627 0.655288
29.208635 10.631074 -0.651100
29.374075 10.691289 -0.218234
29.523972 10.600189 0.219002
29.339432 10.533933 0.652985
29.234325 10.352418 -0.649634
29.277731 10.367788 -0.216838
29.577589 10.328957 0.218723
29.354729 10.251130 0.651309
29.276289 10.080634 -0.648587
29.272541 10.079345 -0.216140
29.552969 10.031881 0.217885
29.490404 10.010643 0.652356
29.334700 9.815253 -0.647958
29.274038 9.794956 -0.215512
29.487440 9.723499 0.216768
29.643105 9.774830 0.653822
29.343166 9.534173 -0.646283
29.329868 9.529852 -0.215302
29.494980 9.441418 0.216210
29.689188 9.503584 0.652985
29.425251 9.277746 -0.646283
29.364229 9.258506 -0.214953
29.347048 9.112500 0.214534
29.770990 9.244139 0.652985
29.428604 8.997228 -0.644608
29.376966 8.981440 -0.214464
29.300970 8.818591 0.213627
29.773937 8.960938 0.651309
29.419724 8.714520 -0.642723
29.415873 8.713379 -0.214185
29.386410 8.565357 0.213696
29.783813 8.681190 0.649843
29.465820 8.449188 -0.642095
29.452341 8.445323 -0.213906
29.373419 8.284161 0.213068
29.617874 8.353105 0.644608
29.490259 8.178372 -0.641047
29.447828 8.166606 -0.213347
29.377058 8.009106 0.212579
29.535309 8.052249 0.641257
29.492905 7.902600 -0.639582
29.479338 7.898965 -0.213068
29.445831 7.752440 0.212579
29.449759 7.753475 0.637906
29.560745 7.644928 -0.639582
29.508421 7.631397 -0.212789
29.463902 7.482878 0.212230
29.477537 7.486341 0.637068
29.500221 7.355231 -0.636859
29.496271 7.354247 -0.212230
29.489227 7.215968 0.211951
29.502901 7.219314 0.636231
29.602171 7.106853 -0.637697
29.598219 7.105904 -0.212510
29.560808 6.960646 0.212021
29.525850 6.952415 0.635393
29.624096 6.839261 -0.636859
29.571411 6.827098 -0.211881
29.620424 6.702418 0.212021
29.585396 6.694492 0.635393
29.731455 6.591305 -0.637906
29.668913 6.577440 -0.212160
29.589836 6.424583 0.211393
29.554758 6.416967 0.633508
29.738945 6.321208 -0.636859
29.686056 6.309966 -0.211881
29.654564 6.168159 0.211462
29.580265 6.152704 0.632880
29.743990 6.051483 -0.635812
29.749788 6.052663 -0.211951
29.668032 5.901339 0.211183
29.632832 5.894337 0.632880
29.795666 5.791691 -0.635812
29.762211 5.785188 -0.211672
29.679104 5.634754 0.210904
29.683140 5.635520 0.632880
29.815580 5.525991 -0.635184
29.772234 5.517957 -0.211393
29.727144 5.375544 0.210904
29.691835 5.369158 0.632042
29.951283 5.281219 -0.637068
29.809404 5.256202 -0.211323
29.733501 5.109150 0.210625
29.688292 5.101381 0.630995
29.996227 5.019647 -0.637068
29.854137 4.995869 -0.211323
29.816433 4.855915 0.210904
29.781017 4.850147 0.632042
30.038889 4.757693 -0.637068
29.886721 4.733592 -0.211253
29.808256 4.587930 0.210555
29.782682 4.583993 0.631205
30.039713 4.489465 -0.636231
29.936781 4.474082 -0.211323
29.857056 4.329067 0.210625
29.781973 4.318181 0.630367
30.077745 4.227151 -0.636231
29.974684 4.212667 -0.211323
29.933329 4.073747 0.210904
29.897774 4.068909 0.632042
30.063929 3.957991 -0.635184
30.049961 3.956152 -0.211602
29.928061 3.807330 0.210625
29.892471 3.802803 0.631205
30.097322 3.695487 -0.635184
30.083342 3.693770 -0.211602
30.009798 3.551894 0.210974
29.964233 3.546501 0.632042
30.098625 3.429305 -0.634555
30.114429 3.431106 -0.211602
30.029711 3.288788 0.210904
29.954287 3.280528 0.631205
30.127405 3.166518 -0.634555
30.143225 3.168180 -0.211602
30.097065 3.030615 0.211183
29.981773 3.019006 0.631205
30.104132 2.898698 -0.633508
30.090094 2.897346 -0.211043
30.122364 2.767857 0.211183
30.006979 2.757254 0.631205
30.207958 2.642854 -0.635184
30.193926 2.641626 -0.211602
30.145372 2.504887 0.211183
30.079714 2.499432 0.632252
30.229872 2.379143 -0.635184
30.225798 2.378822 -0.211672
30.205973 2.244691 0.211462
30.100380 2.236845 0.632252
30.299349 2.118737 -0.636231
30.235430 2.114267 -0.211602
30.224411 1.981012 0.211462
30.108778 1.973433 0.632042
30.266788 1.851196 -0.635184
30.252729 1.850336 -0.211602
30.230562 1.716616 0.211393
30.204706 1.715147 0.633718
30.281792 1.587001 -0.635184
30.267723 1.586264 -0.211602
30.244392 1.452742 0.211393
30.298414 1.455337 0.635393
30.334440 1.324430 -0.636021
30.290403 1.322508 -0.211672
30.255919 1.188758 0.211393
30.309959 1.190882 0.635393
30.354834 1.060014 -0.636231
30.340767 1.059523 -0.211951
30.315115 0.926211 0.211742
30.319199 0.926335 0.635393
30.352934 0.794820 -0.636021
30.338860 0.794451 -0.211881
30.322042 0.661629 0.211742
30.326128 0.661718 0.635393
30.358715 0.529913 -0.636021
30.394629 0.530540 -0.212230
30.366657 0.397521 0.212021
30.370735 0.397575 0.636231
30.452160 0.265752 -0.637906
30.438099 0.265629 -0.212510
30.368971 0.132510 0.212021
30.373049 0.132528 0.636231
30.443321 0.000000 -0.637697
30.439259 0.000000 -0.212510
30.408970 -0.132685 0.212300
30.413038 -0.132703 0.637068
30.452160 -0.265752 -0.637906
30.438099 -0.265629 -0.212510
30.446650 -0.398568 0.212579
30.450710 -0.398622 0.637906
30.438684 -0.531309 -0.637697
30.474615 -0.531936 -0.212789
30.442013 -0.664247 0.212579
30.446072 -0.664336 0.637906
30.472868 -0.797960 -0.638534
30.508799 -0.798901 -0.213068
30.475037 -0.931097 0.212859
30.489082 -0.931526 0.638953
30.514702 -1.065597 -0.639582
30.500666 -1.065107 -0.213068
30.505718 -1.198573 0.213138
30.509762 -1.198732 0.639582
30.544195 -1.333588 -0.640419
30.560141 -1.334285 -0.213557
30.534052 -1.466656 0.213417
30.538084 -1.466849 0.640419
30.561346 -1.601652 -0.641047
30.547333 -1.600918 -0.213557
30.560024 -1.735324 0.213696
30.564049 -1.735552 0.641257
30.636019 -1.873779 -0.642932
30.622030 -1.872923 -0.214185
30.623545 -2.007173 0.214255
30.587645 -2.004820 0.642095
30.608526 -2.140357 -0.642723
30.644421 -2.142867 -0.214464
30.604862 -2.274334 0.214255
30.608866 -2.274632 0.642932
30.678387 -2.414441 -0.644608
30.664431 -2.413343 -0.214744
30.623713 -2.544634 0.214534
30.617741 -2.544138 0.643561
30.695988 -2.685551 -0.645445
30.682049 -2.684331 -0.215023
30.680002 -2.819096 0.215093
30.644154 -2.815802 0.644608
30.661430 -2.952360 -0.645236
30.647503 -2.951019 -0.214953
30.644283 -3.085717 0.215023
30.608467 -3.082111 0.644398
30.763760 -3.233401 -0.647958
30.700142 -3.226715 -0.215512
30.655951 -3.357373 0.215302
30.709604 -3.363249 0.647121
30.764172 -3.505135 -0.648587
30.710558 -3.499026 -0.215791
30.714859 -3.635343 0.215930
30.718800 -3.635809 0.647958
30.782028 -3.779558 -0.649634
30.768181 -3.777858 -0.216419
30.721645 -3.908287 0.216210
30.715656 -3.907525 0.648587
30.817261 -4.057169 -0.651100
30.853012 -4.061876 -0.217257
30.765636 -4.187019 0.216768
30.769545 -4.187551 0.650472
30.869787 -4.338466 -0.652985
30.856001 -4.336528 -0.217536
30.807096 -4.466816 0.217327
30.810986 -4.467380 0.652147
30.909855 -4.619509 -0.654660
30.856543 -4.611541 -0.217815
30.806477 -4.741570 0.217606
30.849878 -4.748250 0.653822
30.937489 -4.900017 -0.656126
30.923769 -4.897844 -0.218583
30.833015 -5.021475 0.218095
30.836872 -5.022103 0.654451
30.932993 -5.176408 -0.656964
30.919300 -5.174116 -0.218863
30.876719 -5.305591 0.218723
30.841139 -5.299477 0.655498
30.926027 -5.453093 -0.657801
30.922211 -5.452420 -0.219212
30.858765 -5.580173 0.218932
30.872425 -5.582644 0.657173
30.995228 -5.744626 -0.660315
30.991440 -5.743924 -0.220049
31.015203 -5.888420 0.220398
30.979691 -5.881678 0.660524
31.022430 -6.030149 -0.661990
31.008846 -6.027509 -0.220538
30.962637 -6.158851 0.220398
30.956600 -6.157650 0.661152
31.007814 -6.308611 -0.662828
31.043259 -6.315822 -0.221166
31.015406 -6.451213 0.221166
30.989782 -6.445884 0.663037
31.039597 -6.597670 -0.664712
31.065210 -6.603115 -0.221725
30.997015 -6.730112 0.221446
30.961662 -6.722436 0.663665
31.049166 -6.883434 -0.666178
30.996643 -6.871790 -0.221655
31.054142 -7.026835 0.222283
31.018835 -7.018846 0.666178
31.104813 -7.181112 -0.668691
31.052418 -7.169015 -0.222493
31.040308 -7.309022 0.222632
31.043989 -7.309889 0.668063
31.157621 -7.480283 -0.671205
31.144249 -7.477073 -0.223610
31.130754 -7.617647 0.223749
31.085840 -7.606657 0.670367
31.207567 -7.780921 -0.673718
31.165140 -7.770342 -0.224238
31.140631 -7.908712 0.224308
31.105488 -7.899788 0.672252
31.254631 -8.082997 -0.676231
31.241364 -8.079566 -0.225285
31.176802 -8.208167 0.225076
31.141718 -8.198930 0.674555
31.260162 -8.376135 -0.677906
31.198645 -8.359652 -0.225495
31.181166 -8.500961 0.225634
31.194380 -8.504564 0.677278
31.291853 -8.677999 -0.680210
31.288319 -8.677018 -0.226682
31.259785 -8.816171 0.226751
31.186333 -8.795456 0.678744
31.349480 -8.989319 -0.683142
31.326756 -8.982802 -0.227519
31.258461 -9.111011 0.227310
31.223572 -9.100842 0.681257
31.346529 -9.285265 -0.684817
31.323877 -9.278555 -0.228078
31.292669 -9.418024 0.228148
31.296143 -9.419070 0.684608
31.369478 -9.590611 -0.687121
31.356468 -9.586635 -0.228916
31.371641 -9.741154 0.229334
31.336880 -9.730360 0.687330
31.437151 -9.912096 -0.690472
31.433744 -9.911021 -0.230102
31.437819 -10.063325 0.230451
31.403124 -10.052219 0.690681
31.425524 -10.210772 -0.692147
31.460182 -10.222034 -0.230940
31.424778 -10.362338 0.231010
31.390167 -10.350924 0.692356
31.524847 -10.548066 -0.696335
31.512028 -10.543777 -0.231987
31.437315 -10.671530 0.231778
31.402784 -10.659809 0.694660
31.545034 -10.861827 -0.698849
31.541731 -10.860689 -0.232895
31.465721 -10.988321 0.232685
31.431269 -10.976291 0.697383
31.562140 -11.176740 -0.701362
31.502312 -11.155554 -0.233314
31.509806 -11.313176 0.233733
31.484842 -11.304214 0.700733
31.576141 -11.492776 -0.703875
31.563505 -11.488176 -0.234501
31.494316 -11.618867 0.234361
31.460035 -11.606220 0.702409
31.624483 -11.823910 -0.707226
31.583817 -11.808705 -0.235408
31.541342 -11.949945 0.235478
31.497795 -11.933447 0.705550
31.594767 -12.128095 -0.708901
31.591591 -12.126876 -0.236246
31.622257 -12.297223 0.236874
31.588137 -12.283955 0.709948
31.636562 -12.461973 -0.712252
31.633427 -12.460738 -0.237363
31.699497 -12.646817 0.238270
31.581884 -12.599895 0.712252
31.749083 -12.827462 -0.717278
31.699644 -12.807487 -0.238689
31.652714 -12.949467 0.238759
31.628036 -12.939371 0.715812
31.700592 -13.130815 -0.718744
31.669819 -13.118069 -0.239318
31.686052 -13.287065 0.239876
31.615335 -13.257411 0.718116
31.814875 -13.504613 -0.723979
31.765848 -13.483803 -0.240923
31.752651 -13.642015 0.241272
31.718903 -13.627516 0.723142
31.769163 -13.813625 -0.725655
31.757017 -13.808344 -0.241761
31.778841 -13.983025 0.242389
31.708588 -13.952112 0.725655
31.866611 -14.187929 -0.730681
31.781471 -14.150023 -0.242878
31.801485 -14.325524 0.243506
31.767939 -14.310412 0.729843
31.959929 -14.564979 -0.735707
31.875166 -14.526350 -0.244554
31.820560 -14.669479 0.244623
31.787119 -14.654063 0.733194
31.976587 -14.910928 -0.739058
31.928446 -14.888478 -0.245950
31.872223 -15.031916 0.246020
31.802711 -14.999132 0.736545
32.025726 -15.275488 -0.743246
31.977818 -15.252637 -0.247346
31.883940 -15.378987 0.247137
31.814690 -15.345585 0.739896
32.070923 -15.642035 -0.747435
31.987301 -15.601249 -0.248463
31.927891 -15.745093 0.248533
31.894768 -15.728759 0.744922
32.112148 -16.010527 -0.751623
32.019970 -15.964569 -0.249789
31.967867 -16.113131 0.249929
31.899139 -16.078489 0.748273
32.185005 -16.399080 -0.756650
32.102184 -16.356878 -0.251535
32.039398 -16.501373 0.251605
31.970934 -16.466112 0.753299
32.173695 -16.748566 -0.759791
32.091270 -16.705658 -0.252582
32.071171 -16.873459 0.253001
31.967590 -16.818964 0.756650
32.255829 -17.150728 -0.765236
32.156166 -17.097738 -0.254258
32.134109 -17.266281 0.254676
32.030972 -17.210861 0.761676
32.271873 -17.522198 -0.769215
32.216652 -17.492214 -0.255933
32.157555 -17.642239 0.256073
32.089928 -17.605137 0.766702
32.266388 -17.885551 -0.772775
32.281425 -17.893887 -0.257678
32.211769 -18.039457 0.257748
32.144428 -18.001743 0.771728
32.239605 -18.240292 -0.775917
32.332928 -18.293089 -0.259354
32.226753 -18.419107 0.259144
32.159710 -18.380789 0.775917
32.226395 -18.605919 -0.779477
32.379902 -18.694544 -0.261029
32.263470 -18.815500 0.260750
32.205360 -18.781612 0.780943
32.260937 -19.003143 -0.784294
32.387852 -19.077902 -0.262426
32.312893 -19.224152 0.262495
32.246449 -19.184622 0.785969
32.239563 -19.371483 -0.787854
32.357277 -19.442213 -0.263543
32.417469 -19.671402 0.264729
32.351318 -19.631262 0.792671
32.367645 -19.834919 -0.795184
32.391010 -19.849237 -0.265218
32.482662 -20.100882 0.266684
32.348804 -20.018049 0.796859
32.235718 -20.143112 -0.796231
32.352245 -20.215927 -0.266335
32.508984 -20.511642 0.268360
32.443459 -20.470299 0.803561
32.210487 -20.520344 -0.800000
32.377010 -20.626429 -0.268011
32.505367 -20.908154 0.269826
32.499027 -20.904078 0.809425
32.499741 -21.105579 -0.811728
32.422215 -21.055231 -0.269896
32.488926 -21.300673 0.271222
32.549480 -21.340374 0.815288
32.556099 -21.548412 -0.817801
32.378998 -21.431190 -0.271082
32.501354 -21.716711 0.272897
32.594772 -21.779131 0.821152
32.391682 -21.848465 -0.818430
32.389709 -21.847134 -0.272758
32.575108 -22.179602 0.275131
32.634869 -22.220293 0.827016
31.713659 -21.796194 -0.806074
32.494503 -22.332853 -0.275271
32.544643 -22.577021 0.276528
32.645088 -22.646704 0.832252
31.194658 -21.842735 -0.797697
32.462204 -22.730280 -0.276667
32.566872 -23.015989 0.278413
32.609509 -23.046124 0.836440
30.929605 -22.061872 -0.795812
32.254471 -23.006891 -0.276598
32.632595 -23.492107 0.280716
32.634346 -23.493368 0.842304
30.719727 -22.319187 -0.795393
32.084831 -23.310995 -0.276877
32.587631 -23.894241 0.282113
32.686092 -23.966436 0.849006
30.869370 -22.842133 -0.804398
31.946302 -23.639021 -0.832461
32.257988 -23.869658 -0.280158
32.161545 -24.016165 0.280228
32.523769 -24.286652 0.850262
31.762753 -23.934952 -0.833089
32.064434 -24.162285 -0.280298
32.006462 -24.338278 0.280716
32.469757 -24.690578 0.854451
31.679583 -24.308599 -0.836440
31.788893 -24.392475 -0.279739
32.140747 -24.886026 0.283788
32.743179 -25.352478 0.867435
31.292923 -24.448711 -0.831833
31.228106 -24.398069 -0.276667
31.600384 -24.911734 0.280926
32.740536 -25.810556 0.873299
30.992310 -24.652397 -0.829529
33.605648 -26.731140 -0.899477
31.045309 -24.694553 -0.276947
31.670338 -25.418133 0.283509
32.537441 -26.114058 0.873927
31.226646 -25.286839 -0.841676
33.534264 -27.155512 -0.903875
31.256048 -25.310650 -0.280786
31.323420 -25.592306 0.282392
32.478645 -26.536167 0.878534
31.483093 -25.952660 -0.854660
30.956823 -25.518837 -0.280088
30.960506 -25.749580 0.281135
32.730106 -27.221342 0.891728
31.171171 -26.155718 -0.852356
30.993402 -26.006554 -0.282462
32.096481 -26.932144 -0.292515
32.673187 -27.659893 0.298868
32.376850 -27.409027 0.888587
31.230627 -26.673475 -0.860315
34.104332 -29.127850 -0.939477
32.225220 -27.522938 -0.295866
33.943695 -28.990654 -0.311643
32.362389 -27.885218 0.298239
31.962231 -27.540421 0.883770
33.030163 -28.460609 0.913299
34.150665 -29.686720 -0.947854
32.285690 -28.065521 -0.298658
33.998837 -29.554739 -0.314506
32.456135 -28.463264 0.301381
32.908329 -28.859829 0.916859
34.212280 -30.268471 -0.956859
32.039543 -28.346195 -0.298658
34.159039 -30.221363 -0.318415
31.699205 -28.292622 0.296634
31.991383 -28.553402 0.898220
33.326534 -29.745068 0.935707
34.303471 -30.886984 -0.966912
31.493710 -28.357063 -0.295866
34.228416 -30.819405 -0.321557
31.362278 -28.487488 0.295796
31.511576 -28.623100 0.891728
34.327477 -31.455336 -0.975289
31.141836 -28.536236 -0.294888
34.282562 -31.414179 -0.324629
31.310749 -28.943359 0.297681
31.429453 -29.053087 0.896545
34.402645 -32.080986 -0.985341
34.255772 -31.944025 -0.327002
34.261734 -32.230221 0.328398
34.131260 -32.107483 0.981571
34.469482 -32.710316 -0.995393
34.374653 -32.620327 -0.330842
34.412582 -32.942879 0.332587
32.549805 -31.159658 0.943875
34.225319 -32.763615 0.992461
34.470394 -33.287674 -1.003770
34.462730 -33.280270 -0.334472
34.467609 -33.576859 0.335938
34.260368 -33.374973 1.001885
34.513752 -33.916569 -1.013613
34.513348 -33.916172 -0.337823
34.514168 -34.214283 0.339289
34.422237 -34.123150 1.015288
34.584076 -34.584076 -1.024503
34.548397 -34.548397 -0.341104
34.573322 -34.876354 0.342850
34.461002 -34.763050 1.025341
34.673386 -35.283894 -1.036231
34.666126 -35.276508 -0.345293
34.658409 -35.577850 0.346759
34.574909 -35.492138 1.037906
34.808643 -36.045403 -1.049634
34.773750 -36.009274 -0.349482
34.733856 -36.283459 0.350669
34.651031 -36.196941 1.049634
34.878159 -36.753910 -1.061362
34.816128 -36.688541 -0.353112
34.854408 -37.051327 0.355137
34.751709 -36.942154 1.062409
34.937931 -37.466347 -1.073090
34.903824 -37.429771 -0.357301
34.909870 -37.765285 0.359046
34.855560 -37.706532 1.075603
34.987896 -38.182590 -1.084817
34.927162 -38.116310 -0.360931
34.955498 -38.483002 0.362956
34.901627 -38.423695 1.087330
35.027996 -38.902531 -1.096545
34.967915 -38.835804 -0.364841
35.017864 -39.234200 0.367144
34.991066 -39.204174 1.100734
35.084660 -39.655994 -1.109111
35.025242 -39.588833 -0.369029
35.069748 -39.989384 0.371333
35.043137 -39.959038 1.113299
35.124256 -40.405834 -1.121467
35.039257 -40.308056 -0.372869
35.137199 -40.778728 0.375801
35.084667 -40.717762 1.125865
35.185871 -41.197361 -1.134870
35.101810 -41.098942 -0.377337
35.167671 -41.541733 0.379990
35.141438 -41.510742 1.139268
35.274876 -42.038960 -1.149529
35.230331 -41.985874 -0.382643
35.187469 -42.308334 0.384179
35.180611 -42.300087 1.152461
35.291443 -43.194569 0.389415
35.240284 -43.131954 1.166702
35.338779 -44.031204 0.394162
35.288082 -43.968040 1.180943
35.374165 -44.871918 0.398909
35.323944 -44.808208 1.195184
35.458759 -45.795624 0.404355
35.366158 -45.676025 1.210053
35.466885 -47.495918 1.241676
0.134348 -0.186621 0.004817
0.153865 -0.221796 0.005654
0.133334 -0.199548 0.001676
0.138862 -0.207822 0.005236
0.131587 -0.200704 0.001676
0.126080 -0.192304 0.004817
0.151469 -0.235485 0.001955
0.162257 -0.252256 0.006283
0.128064 -0.202970 0.001676
0.096030 -0.152198 0.003770
0.147336 -0.238093 0.001955
0.136786 -0.221043 0.005445
0.129690 -0.213723 0.001745
0.119292 -0.196587 0.004817
0.117595 -0.197659 0.001606
0.102236 -0.171844 0.004188
0.110806 -0.190002 0.004607