# This PCD file was generated using the MATLAB® pcwrite function
# from Computer Vision System Toolbox®.
# .PCD v.7 - Point Cloud Data file format
VERSION .7
FIELDS x y z
SIZE 4 4 4
TYPE F F F
COUNT 1 1 1
WIDTH 752
HEIGHT 1
VIEWPOINT 0 0 0 1 0 0 0
POINTS 752
DATA ascii
28.875771 30.428713 -0.292864
28.890137 29.916613 -0.290351
28.983250 29.493568 -0.866179
28.932829 29.442261 -0.288186
28.921394 28.921394 -0.856754
28.934105 28.934105 -0.285673
28.987272 28.485712 -0.851309
28.985792 28.484259 -0.283718
28.990229 27.995537 -0.844189
28.938335 27.945425 -0.280856
29.052124 27.569437 -0.838953
28.985254 27.505978 -0.278971
29.050310 27.089851 -0.832042
29.048660 27.088314 -0.277296
28.968645 26.544872 -0.823037
28.996410 26.570314 -0.274573
29.117458 26.217478 -0.820733
29.078548 26.182442 -0.273177
29.075573 25.723894 -0.813194
29.096220 25.742161 -0.271222
29.148037 25.338001 -0.809006
29.138626 25.329823 -0.269546
29.155172 24.900869 -0.803142
29.176065 24.918715 -0.267871
29.126282 24.439852 -0.796440
29.147282 24.457472 -0.265637
29.184156 24.057562 -0.792252
29.205278 24.074974 -0.264241
29.214279 23.657257 -0.787435
29.235519 23.674456 -0.262635
29.255301 23.270718 -0.783037
29.245354 23.262806 -0.260890
29.299692 22.891428 -0.778849
29.289646 22.883579 -0.259493
29.307978 22.488802 -0.773822
29.297825 22.481012 -0.257818
29.311480 22.087784 -0.768796
29.333168 22.104128 -0.256422
29.342377 21.712217 -0.764608
29.332022 21.704554 -0.254746
29.368965 21.337801 -0.760419
29.326151 21.306696 -0.253071
29.358707 20.941362 -0.755393
29.356291 20.939638 -0.251744
29.311022 20.523798 -0.749529
29.300354 20.516329 -0.249720
29.398373 20.204943 -0.747226
29.387623 20.197554 -0.248952
29.399513 19.830223 -0.742828
29.430117 19.850864 -0.247835
29.391735 19.638929 0.246788
29.252998 19.546228 0.736964
29.438051 19.484621 -0.739477
29.435452 19.482901 -0.246438
29.428192 19.293968 0.245671
29.255236 19.180573 0.732775
29.447651 19.123528 -0.735498
29.436619 19.116364 -0.245042
29.435648 18.933645 0.244344
29.261738 18.821783 0.728796
29.478498 18.779875 -0.732147
29.501114 18.794283 -0.244204
29.464439 18.590677 0.243227
29.323408 18.501694 0.726283
29.471687 18.415955 -0.727959
29.460472 18.408947 -0.242529
29.446980 18.222343 0.241761
29.313715 18.139877 0.722095
29.528978 18.095381 -0.725445
29.517683 18.088459 -0.241691
29.468094 17.881678 0.240644
29.334141 17.800394 0.718744
29.505798 17.728872 -0.721048
29.502979 17.727179 -0.240295
29.485516 17.542038 0.239527
29.325108 17.446606 0.714765
29.495712 17.374302 -0.717068
29.518696 17.387840 -0.239178
29.507902 17.208500 0.238480
29.372602 17.129595 0.712252
29.576941 17.076254 -0.715393
29.600027 17.089584 -0.238619
29.518040 16.870951 0.237363
29.382084 16.793245 0.708901
29.585604 16.738729 -0.712042
29.608780 16.751841 -0.237502
29.559444 16.554085 0.236525
29.387943 16.458040 0.705550
29.616873 16.416901 -0.709320
29.613901 16.415255 -0.236385
29.562506 16.218546 0.235408
29.425262 16.143251 0.703037
29.627214 16.086266 -0.706178
29.615416 16.079859 -0.235268
29.597208 15.903153 0.234570
29.424105 15.810142 0.699686
29.625223 15.752010 -0.702828
29.613340 15.745692 -0.234151
29.628664 15.588394 0.233733
29.463625 15.501563 0.697383
29.655136 15.437488 -0.700315
29.678659 15.449732 -0.233593
29.585770 15.237673 0.232336
29.482231 15.184347 0.694660
29.655102 15.110029 -0.697173
29.643064 15.103896 -0.232267
29.646179 14.942904 0.231778
29.470770 14.854491 0.691309
29.669516 14.792674 -0.694451
29.693199 14.804482 -0.231638
29.631954 14.612863 0.230661
29.491674 14.543685 0.688796
29.689642 14.480606 -0.691938
29.677456 14.474663 -0.230521
29.686291 14.318967 0.230102
29.518414 14.237992 0.686493
29.679520 14.156404 -0.688796
29.667255 14.150555 -0.229474
29.665405 13.991114 0.228985
29.523985 13.924415 0.683770
29.729437 13.863064 -0.687121
29.717108 13.857315 -0.228916
29.677395 13.681467 0.228148
29.508181 13.603457 0.680629
29.731012 13.549203 -0.684398
29.755009 13.560139 -0.228287
29.722719 13.389109 0.227589
29.561958 13.316691 0.679163
29.701982 13.224174 -0.681047
29.689505 13.218618 -0.226891
29.719439 13.076866 0.226682
29.558077 13.005865 0.676440
29.742905 12.932583 -0.679372
29.767044 12.943079 -0.226612
29.722172 12.769652 0.225844
29.587774 12.711911 0.674555
29.707380 12.610035 -0.676021
29.703968 12.608586 -0.225285
29.767921 12.482726 0.225355
29.596159 12.410700 0.672252
29.816290 12.350312 -0.676021
29.803627 12.345067 -0.225215
29.764658 12.177043 0.224517
29.555281 12.091385 0.668901
29.820963 12.048451 -0.673718
29.808235 12.043308 -0.224448
29.795485 11.887193 0.223959
29.622526 11.818190 0.668063
29.804041 11.740124 -0.670995
29.837765 11.753407 -0.223889
29.823524 11.597734 0.223400
29.612715 11.515755 0.665550
29.728016 11.411516 -0.667016
29.761818 11.424492 -0.222563
29.773979 11.280352 0.222283
29.637285 11.228562 0.663875
29.817102 11.148157 -0.666807
29.860382 11.164339 -0.222563
29.796230 10.992410 0.221725
29.696623 10.955663 0.663037
29.885067 10.877275 -0.666178
29.881496 10.875976 -0.222004
29.853376 10.718457 0.221446
29.715820 10.669069 0.661362
29.865757 10.576019 -0.663665
29.852728 10.571405 -0.221097
29.879690 10.434455 0.220957
29.703966 10.373089 0.659058
29.881287 10.288952 -0.661990
29.868204 10.284448 -0.220538
29.846510 10.131525 0.220049
29.717617 10.087772 0.657383
29.865644 9.992905 -0.659686
29.871468 9.994853 -0.219910
29.857813 9.845630 0.219491
29.719063 9.799877 0.655498
29.904167 9.716453 -0.658639
29.890978 9.712168 -0.219421
29.866404 9.560311 0.218932
29.765364 9.527967 0.654660
29.873400 9.419046 -0.656126
29.898298 9.426897 -0.218863
29.920046 9.290421 0.218723
29.770990 9.244139 0.652985
29.877970 9.134612 -0.654451
29.902922 9.142241 -0.218304
29.913801 9.003032 0.218095
29.773937 8.960938 0.651309
29.966131 8.876372 -0.654660
29.952799 8.872423 -0.218095
29.991226 8.741646 0.218095
29.851002 8.700773 0.651309
29.955956 8.589732 -0.652775
29.990635 8.599676 -0.217815
29.950876 8.447021 0.217257
29.819946 8.410094 0.649006
30.000872 8.319978 -0.652147
29.987450 8.316256 -0.217257
29.994507 8.177442 0.217047
29.815035 8.128511 0.647330
29.995077 8.037156 -0.650472
30.010584 8.041312 -0.216908
30.026045 7.905198 0.216768
29.836493 7.855293 0.646283
29.976957 7.752568 -0.648587
30.002165 7.759087 -0.216349
30.016350 7.623182 0.216210
29.865145 7.584781 0.645445
30.014366 7.483422 -0.647958
30.000813 7.480043 -0.215861
29.994312 7.339561 0.215581
29.852507 7.304862 0.643770
30.039640 7.211880 -0.647121
30.016329 7.206283 -0.215512
30.028019 7.070660 0.215372
29.876190 7.034909 0.642932
30.062466 6.940467 -0.646283
30.048840 6.937322 -0.215302
30.049564 6.799522 0.215093
29.897438 6.765100 0.642095
30.043800 6.660550 -0.644608
30.059422 6.664013 -0.214953
30.068668 6.528548 0.214813
29.877172 6.486970 0.640419
30.100780 6.398118 -0.644608
30.087088 6.395208 -0.214744
30.046173 6.249613 0.214255
29.932644 6.225999 0.640419
30.067293 6.117260 -0.642723
30.102552 6.124434 -0.214464
30.099567 5.987176 0.214255
29.956419 5.958702 0.639791
30.129345 5.856552 -0.642932
30.115587 5.853878 -0.214185
30.101547 5.714957 0.213906
29.967987 5.689600 0.638953
30.012188 5.562430 -0.639372
30.086866 5.576271 -0.213627
30.081390 5.439601 0.213417
29.927954 5.411856 0.637068
30.069433 5.302052 -0.639582
30.134382 5.313505 -0.213627
30.127714 5.176888 0.213417
29.983894 5.152175 0.637278
30.114555 5.039448 -0.639582
30.130291 5.042081 -0.213278
30.092787 4.900921 0.212859
29.978373 4.882288 0.636231
30.068514 4.762385 -0.637697
30.104008 4.768006 -0.212789
30.094875 4.632044 0.212579
29.980312 4.614411 0.635393
30.118816 4.501287 -0.637906
30.144468 4.505121 -0.212789
30.134150 4.369244 0.212579
30.019438 4.352612 0.635393
30.156950 4.238283 -0.637906
30.172733 4.240501 -0.212719
30.131498 4.100717 0.212300
30.016651 4.085087 0.634555
30.192787 3.974956 -0.637906
30.178846 3.973120 -0.212510
30.126455 3.832569 0.212021
30.021404 3.819205 0.633927
30.176708 3.705234 -0.636859
30.162743 3.703519 -0.212160
30.158754 3.569524 0.212021
30.053589 3.557077 0.633927
30.168159 3.437227 -0.636021
30.193913 3.440162 -0.212160
30.188755 3.306206 0.212021
30.073547 3.293589 0.633718
30.197006 3.173833 -0.636021
30.232729 3.177588 -0.212230
30.176661 3.038630 0.211742
30.061354 3.027019 0.632880
30.223553 2.910197 -0.636021
30.209538 2.908848 -0.211881
30.202028 2.775177 0.211742
30.096581 2.765487 0.633089
30.247797 2.646339 -0.636021
30.233772 2.645112 -0.211881
30.225096 2.511512 0.211742
30.109604 2.501915 0.632880
30.199970 2.376789 -0.634555
30.185921 2.375684 -0.211393
30.205973 2.244691 0.211462
30.090410 2.236104 0.632042
30.249481 2.115250 -0.635184
30.235430 2.114267 -0.211602
30.264324 1.983629 0.211742
30.148684 1.976049 0.632880
30.266788 1.851196 -0.635184
30.252729 1.850336 -0.211602
30.240547 1.717183 0.211462
30.134834 1.711180 0.632252
30.281792 1.587001 -0.635184
30.277710 1.586788 -0.211672
30.254381 1.453222 0.211462
30.148619 1.448142 0.632252
30.294487 1.322686 -0.635184
30.280415 1.322071 -0.211602
30.265909 1.189151 0.211462
30.150118 1.184601 0.632042
30.224943 1.055478 -0.633508
30.210848 1.054986 -0.211043
30.275135 0.924989 0.211462
30.159307 0.921450 0.632042
30.312958 0.793773 -0.635184
30.308872 0.793666 -0.211672
30.322042 0.661629 0.211742
30.206182 0.659101 0.632880
30.318729 0.529215 -0.635184
30.304646 0.528970 -0.211602
30.286667 0.396474 0.211462
30.170795 0.394957 0.632042
30.322193 0.264618 -0.635184
30.308107 0.264495 -0.211602
30.278975 0.132118 0.211393
30.173094 0.131656 0.632042
30.373337 0.000000 -0.636231
30.359261 0.000000 -0.211951
30.328972 -0.132336 0.211742
30.263073 -0.132048 0.633927
30.372181 -0.265054 -0.636231
30.348104 -0.264844 -0.211881
30.366657 -0.397521 0.212021
30.210783 -0.395481 0.632880
30.408697 -0.530786 -0.637068
30.394629 -0.530540 -0.212230
30.362032 -0.662502 0.212021
30.256159 -0.660192 0.633927
30.442884 -0.797175 -0.637906
30.428827 -0.796807 -0.212510
30.355095 -0.927432 0.212021
30.249247 -0.924198 0.633927
30.394802 -1.061410 -0.637068
30.410721 -1.061966 -0.212440
30.345846 -1.192291 0.212021
30.270000 -1.189312 0.634555
30.424335 -1.328355 -0.637906
30.410286 -1.327742 -0.212510
30.414192 -1.460898 0.212579
30.298414 -1.455337 0.635393
30.411585 -1.593804 -0.637906
30.427500 -1.594638 -0.212719
30.360352 -1.723986 0.212300
30.284559 -1.719682 0.635393
30.426456 -1.860962 -0.638534
30.412426 -1.860104 -0.212719
30.423977 -1.994093 0.212859
30.268400 -1.983896 0.635393
30.379137 -2.124316 -0.637906
30.395037 -2.125428 -0.212719
30.455278 -2.263218 0.213208
30.289816 -2.250922 0.636231
30.439178 -2.395615 -0.639582
30.455082 -2.396867 -0.213278
30.424404 -2.528073 0.213138
30.308874 -2.518473 0.637068
30.417114 -2.661153 -0.639582
30.433006 -2.662543 -0.213278
30.441015 -2.797136 0.213417
30.325565 -2.786528 0.637906
30.422588 -2.929362 -0.640210
30.408613 -2.928016 -0.213278
30.495043 -3.070689 0.213976
30.339884 -3.055066 0.638744
30.525126 -3.208320 -0.642932
30.511189 -3.206855 -0.214185
30.467085 -3.336689 0.213976
30.312069 -3.319711 0.638744
30.525766 -3.477972 -0.643561
30.521784 -3.477518 -0.214464
30.516251 -3.611836 0.214534
30.361374 -3.593505 0.640419
30.543871 -3.750316 -0.644608
30.529976 -3.748610 -0.214744
30.483570 -3.878000 0.214534
30.418119 -3.869673 0.642304
30.430681 -4.006275 -0.642932
30.446529 -4.008362 -0.214395
30.527834 -4.154656 0.215093
30.373285 -4.133623 0.642095
30.503468 -4.286983 -0.645236
30.499514 -4.286427 -0.215023
30.490416 -4.420900 0.215093
30.375635 -4.404257 0.642932
30.504448 -4.558920 -0.646074
30.530176 -4.562765 -0.215512
30.529743 -4.698977 0.215651
30.375570 -4.675247 0.643770
30.552376 -4.839021 -0.647958
30.538580 -4.836836 -0.215861
30.566532 -4.978076 0.216210
30.452028 -4.959428 0.646283
30.508984 -5.105453 -0.647958
30.485346 -5.101497 -0.215791
30.521927 -5.244627 0.216210
30.456856 -5.233445 0.647330
30.542036 -5.385385 -0.649634
30.518448 -5.381226 -0.216349
30.553719 -5.525012 0.216768
30.439543 -5.504366 0.647958
30.602013 -5.671748 -0.651938
30.598146 -5.671031 -0.217257
30.582935 -5.806352 0.217327
30.439461 -5.779112 0.649006
30.600424 -5.948120 -0.652985
30.586758 -5.945463 -0.217536
30.609562 -6.088621 0.217885
30.456511 -6.058177 0.650472
30.586540 -6.222902 -0.653822
30.572906 -6.220128 -0.217815
30.584635 -6.361613 0.218095
30.480789 -6.340014 0.652147
30.599525 -6.504130 -0.655288
30.634836 -6.511635 -0.218653
30.615904 -6.647365 0.218723
30.463383 -6.614249 0.652985
30.629450 -6.790386 -0.657173
30.615896 -6.787381 -0.218932
30.595743 -6.923110 0.219002
30.482513 -6.897489 0.654660
30.637218 -7.073159 -0.658639
30.672422 -7.081286 -0.219770
30.650967 -7.217344 0.219840
30.499016 -7.181565 0.656335
30.622934 -7.351916 -0.659686
30.638630 -7.355684 -0.219980
30.625669 -7.494053 0.220119
30.474030 -7.456947 0.657173
30.635220 -7.638218 -0.661362
30.660597 -7.644546 -0.220608
30.675411 -7.790562 0.220957
30.524078 -7.752128 0.659686
30.683550 -7.935306 -0.663875
30.708895 -7.941860 -0.221446
30.683620 -8.078323 0.221515
30.532614 -8.038567 0.661362
30.651762 -8.213115 -0.664712
30.677057 -8.219893 -0.221725
30.640898 -8.353668 0.221725
30.538467 -8.325742 0.663037
30.694532 -8.512347 -0.667225
30.681246 -8.508662 -0.222283
30.643827 -8.642453 0.222283
30.541630 -8.613630 0.664712
30.657522 -8.790903 -0.668063
30.644276 -8.787105 -0.222563
30.682446 -8.943117 0.223121
30.542086 -8.902206 0.666388
30.685089 -9.089337 -0.670367
30.671896 -9.085429 -0.223331
30.689415 -9.236465 0.223749
30.539827 -9.191444 0.668063
30.728893 -9.394766 -0.673089
30.754011 -9.402445 -0.224517
30.722242 -9.539510 0.224587
30.611225 -9.505038 0.671414
30.645741 -9.662565 -0.673089
30.661253 -9.667456 -0.224448
30.704493 -9.828586 0.225076
30.603289 -9.796189 0.673089
30.740913 -9.988328 -0.677068
30.727888 -9.984096 -0.225565
30.703024 -10.124339 0.225704
30.592594 -10.087925 0.674765
30.690504 -10.268899 -0.677906
30.715454 -10.277247 -0.226123
30.736603 -10.433671 0.226612
30.579136 -10.380218 0.676440
30.713161 -10.575390 -0.680419
30.747515 -10.587218 -0.227031
30.710468 -10.724575 0.227100
30.562899 -10.673041 0.678116
30.742222 -10.886392 -0.683142
30.729364 -10.881839 -0.227589
30.766294 -11.046228 0.228217
30.619150 -10.993399 0.681466
30.786974 -11.205542 -0.686283
30.774183 -11.200887 -0.228636
30.743780 -11.341980 0.228776
30.634609 -11.301703 0.683979
30.772297 -11.505291 -0.688168
30.750198 -11.497028 -0.229195
30.727795 -11.641720 0.229404
30.609612 -11.596945 0.685655
30.773396 -11.812800 -0.690472
30.760725 -11.807936 -0.230033
30.764830 -11.963788 0.230451
30.628380 -11.910726 0.688377
30.827276 -12.143187 -0.694032
30.814678 -12.138225 -0.231219
30.807861 -12.291091 0.231568
30.671852 -12.236828 0.691728
30.822102 -12.452937 -0.696335
30.809568 -12.447874 -0.231987
30.773472 -12.589760 0.232127
30.628672 -12.530520 0.693194
30.749205 -12.736737 -0.697173
30.736723 -12.731567 -0.232267
30.809984 -12.919699 0.233244
30.665678 -12.859186 0.696545
30.820946 -13.082716 -0.701362
30.808546 -13.077452 -0.233663
30.815506 -13.239387 0.234151
30.625780 -13.157874 0.698220
30.861473 -13.418950 -0.704922
30.839979 -13.409604 -0.234780
30.872704 -13.584314 0.235478
30.729418 -13.521268 0.703246
30.843664 -13.732484 -0.707226
30.831408 -13.727027 -0.235618
30.825924 -13.886066 0.236036
30.683180 -13.821765 0.704922
30.913702 -14.088186 -0.711623
30.865133 -14.066052 -0.236804
30.839790 -14.217339 0.237084
30.706667 -14.155967 0.708273
30.889256 -14.403897 -0.713927
30.877153 -14.398253 -0.237852
30.859257 -14.554171 0.238201
30.726646 -14.491627 0.711623
30.906767 -14.741772 -0.717278
30.894741 -14.736035 -0.238969
30.839157 -14.875043 0.239038
30.698069 -14.806991 0.713927
30.848833 -15.045980 -0.718953
30.881811 -15.062065 -0.239876
30.923418 -15.249743 0.240714
30.720121 -15.149487 0.717487
30.931095 -15.421676 -0.723979
30.919230 -15.415759 -0.241203
30.896318 -15.573027 0.241552
30.765306 -15.506990 0.721676
30.937870 -15.763632 -0.727330
30.926083 -15.757627 -0.242320
30.945932 -15.938203 0.243018
30.762135 -15.843541 0.724817
30.914415 -16.093027 -0.730053
30.902704 -16.086929 -0.243227
30.947264 -16.282143 0.244135
30.773119 -16.190521 0.728377
30.914043 -16.437288 -0.733404
30.893583 -16.426409 -0.244274
30.980173 -16.646248 0.245531
30.771572 -16.534163 0.731728
31.006655 -16.835239 -0.739058
30.959972 -16.809893 -0.245950
30.938932 -16.973680 0.246369
30.801422 -16.898239 0.735917
30.998468 -17.182732 -0.742409
30.987020 -17.176386 -0.247346
30.964128 -17.340746 0.247765
30.783630 -17.239662 0.739058
30.986568 -17.531357 -0.745760
31.018721 -17.549547 -0.248812
30.950533 -17.689688 0.248882
30.779577 -17.591978 0.742618
30.970934 -17.881077 -0.749110
31.002954 -17.899565 -0.249929
30.993662 -18.074970 0.250488
30.788982 -17.955603 0.746597
31.046305 -18.287670 -0.754765
31.009277 -18.265860 -0.251256
30.972252 -18.426554 0.251605
30.845924 -18.351397 0.751833
30.996943 -18.624842 -0.757487
30.951557 -18.597572 -0.252093
30.972702 -18.794697 0.252931
30.812813 -18.697674 0.754974
31.063393 -19.035671 -0.763142
31.018293 -19.008034 -0.253978
30.994583 -19.180031 0.254467
30.852514 -19.092115 0.760000
31.048710 -19.401388 -0.766911
31.029324 -19.389273 -0.255444
31.028997 -19.577839 0.256142
30.887661 -19.488663 0.765027
31.072159 -19.795149 -0.771728
31.027615 -19.766771 -0.256841
31.058813 -19.977701 0.257818
30.884588 -19.865635 0.769215
31.099470 -20.196232 -0.776754
31.122307 -20.211061 -0.259075
31.042185 -20.352148 0.259144
30.910719 -20.265955 0.774241
31.013750 -20.527554 -0.779058
31.003119 -20.520517 -0.259563
31.062948 -20.755598 0.260820
30.898947 -20.646017 0.778430
31.106956 -20.981907 -0.785969
31.096441 -20.974815 -0.261867
31.079018 -21.160950 0.262495
30.948997 -21.072422 0.784294
31.145138 -21.405460 -0.791623
31.175934 -21.426626 -0.264101
31.131443 -21.596651 0.264520
30.961081 -21.478466 0.789320
31.153709 -21.814062 -0.796650
31.143402 -21.806845 -0.265428
31.096952 -21.977154 0.265846
30.968420 -21.886316 0.794346
31.124950 -22.201210 -0.800838
31.147301 -22.217154 -0.267103
31.163681 -22.434641 0.268080
31.003441 -22.319284 0.800210
31.156500 -22.636522 -0.806702
31.186846 -22.658569 -0.269128
31.192516 -22.871300 0.270035
31.000994 -22.730869 0.805236
31.182806 -23.074062 -0.812566
31.180847 -23.072613 -0.270803
31.184038 -23.286226 0.271711
30.993711 -23.144102 0.810262
31.243753 -23.543858 -0.819477
31.193943 -23.506323 -0.272688
31.202518 -23.726946 0.273665
31.013395 -23.583134 0.816126
31.251266 -23.979940 -0.825131
31.249426 -23.978529 -0.274992
31.215664 -24.169748 0.275620
31.067286 -24.054863 0.823037
31.229895 -24.399469 -0.830158
31.220224 -24.391912 -0.276598
31.223440 -24.614576 0.277575
31.068176 -24.492174 0.828692
31.266163 -24.870230 -0.836859
31.256609 -24.862629 -0.278832
31.218016 -25.055105 0.279460
31.102770 -24.962612 0.835393
31.296574 -25.343466 -0.843561
31.287134 -25.335821 -0.281066
31.284700 -25.560673 0.282043
31.100531 -25.410198 0.841257
31.297943 -25.800034 -0.849634
31.288614 -25.792343 -0.283090
31.306477 -26.037321 0.284277
31.092831 -25.859634 0.847121
31.309029 -26.271395 -0.856126
31.330454 -26.289373 -0.285534
31.322298 -26.516281 0.286511
31.140686 -26.362537 0.854660
31.390276 -26.809830 -0.864713
31.343170 -26.769596 -0.287768
31.332125 -26.997486 0.288745
31.121519 -26.816015 0.860524
31.358850 -27.259834 -0.870367
31.349873 -27.252028 -0.290002
31.335920 -27.480864 0.290979
31.126858 -27.297522 0.867226
31.359386 -27.744442 -0.877069
31.350523 -27.736599 -0.292236
31.356028 -27.986324 0.293422
31.215654 -27.861036 0.876440
31.413273 -28.284637 -0.885446
31.404535 -28.276770 -0.295028
31.377081 -28.500935 0.295936
31.230354 -28.367657 0.883770
31.430611 -28.800848 -0.892985
31.421995 -28.792953 -0.297541
31.420895 -29.045176 0.298728
31.275278 -28.910570 0.892147
31.441313 -29.319498 -0.900524
31.403563 -29.284296 -0.299775
31.399307 -29.537519 0.300962
31.283955 -29.429005 0.899686
31.445335 -29.840508 -0.908063
31.436958 -29.832560 -0.302568
31.458183 -30.114660 0.304034
31.307610 -29.970516 0.907854
31.471405 -30.391584 -0.916440
31.434383 -30.355831 -0.305081
31.452051 -30.639233 0.306547
31.331337 -30.521637 0.916231
31.483101 -30.938356 -0.924608
31.482107 -30.937382 -0.308153
31.467546 -31.194132 0.309340
31.298105 -31.026163 0.923142
31.501768 -31.501768 -0.933194
31.522053 -31.522053 -0.311225
31.475731 -31.751614 0.312132
31.364016 -31.638920 0.933194
31.555021 -32.110622 -0.943037
31.526131 -32.081223 -0.314017
31.504471 -32.340244 0.315204
31.393684 -32.226517 0.942409
31.523628 -32.643673 -0.950576
31.515882 -32.635651 -0.316740
31.552971 -32.960663 0.318555
31.387808 -32.788132 0.950786
31.540371 -33.236618 -0.959791
31.532755 -33.228592 -0.319812
31.538204 -33.526100 0.321347
31.374498 -33.352074 0.959163
31.549143 -33.832314 -0.969006
31.541655 -33.824284 -0.322883
31.597404 -34.181881 0.324978
31.408009 -33.976994 0.969215
31.576916 -34.460155 -0.979058
31.569561 -34.452129 -0.326234
31.566853 -34.752396 0.327770
31.406088 -34.575405 0.978430
31.616177 -35.113323 -0.989739
31.642416 -35.142464 -0.330144
31.635267 -35.444321 0.331680
31.422722 -35.206184 0.988482
31.626543 -35.747303 -0.999791
31.626083 -35.746784 -0.333216
31.614861 -36.049839 0.334751
31.430714 -35.839859 0.998535
31.654465 -36.414295 -1.010681
31.654078 -36.413849 -0.336846
31.664604 -36.748581 0.338661
31.449593 -36.499050 1.009215
31.685799 -37.099304 -0.340616
31.678686 -37.420376 0.342291
31.439957 -37.138378 1.019268
31.695086 -37.772732 -0.344246
31.702614 -38.118248 0.346131
31.498251 -37.872528 1.031833
31.704092 -38.803871 0.349831
31.495489 -38.548553 1.042723
31.708509 -39.507984 0.353671
31.508335 -39.258572 1.054451
31.733982 -40.254364 0.357859
31.554487 -40.026676 1.067645
31.546759 -40.743202 1.079372
28.063313 -38.273529 0.994137
0.163586 -0.227235 0.001955
0.134348 -0.186621 0.004817
27.628948 -38.379032 0.990576
0.170995 -0.246488 0.002094
0.136769 -0.197152 0.005026
0.123814 -0.181845 0.001536
0.129417 -0.190074 0.004817
0.127778 -0.191233 0.001606
0.138862 -0.207822 0.005236
0.120622 -0.183978 0.001536
0.148007 -0.225748 0.005654
0.151469 -0.235485 0.001955
0.146031 -0.227031 0.005654
0.128064 -0.202970 0.001676
0.117369 -0.186019 0.004607
0.147336 -0.238093 0.001955
0.157830 -0.255050 0.006283
0.140065 -0.230821 0.001885
0.140038 -0.230776 0.005654
0.117595 -0.197659 0.001606
0.107348 -0.180436 0.004398
0.115843 -0.198639 0.004817