# This PCD file was generated using the MATLAB® pcwrite function
# from Computer Vision System Toolbox®.
# .PCD v.7 - Point Cloud Data file format
VERSION .7
FIELDS x y z
SIZE 4 4 4
TYPE F F F
COUNT 1 1 1
WIDTH 770
HEIGHT 1
VIEWPOINT 0 0 0 1 0 0 0
POINTS 770
DATA ascii
3.822479 4.320527 -0.120838
3.856355 4.358816 -0.040631
3.860037 4.287005 -0.120838
3.867481 4.295272 -0.040352
3.816247 4.164703 -0.118325
3.884549 4.239242 -0.040142
3.872901 4.153178 -0.118953
3.873656 4.153988 -0.039654
3.798884 4.003188 -0.115602
3.840925 4.047490 -0.038955
3.889234 4.027420 -0.117278
3.889992 4.028205 -0.039095
3.847148 3.914886 -0.114974
3.889952 3.958444 -0.038746
3.845817 3.845817 -0.113927
3.874851 3.874851 -0.038257
3.864969 3.798095 -0.113508
3.929914 3.861916 -0.038467
3.854816 3.722552 -0.112251
3.891533 3.758010 -0.037769
3.858145 3.661243 -0.111414
3.880658 3.682607 -0.037350
3.846077 3.586525 -0.110157
3.868767 3.607683 -0.036931
3.862486 3.539316 -0.109738
3.892730 3.567029 -0.036861
3.863506 3.478716 -0.108901
3.864259 3.479394 -0.036303
3.833812 3.391870 -0.107225
3.916943 3.465418 -0.036512
3.848175 3.345167 -0.106806
3.864019 3.358940 -0.035744
3.862015 3.298472 -0.106387
3.885580 3.318599 -0.035674
3.882993 3.258219 -0.106178
3.891411 3.265281 -0.035465
3.834133 3.160615 -0.104084
3.896609 3.212117 -0.035255
3.877108 3.139620 -0.104503
3.885635 3.146525 -0.034906
3.833939 3.049653 -0.102618
3.905119 3.106272 -0.034836
3.844649 3.003769 -0.102199
3.876918 3.028981 -0.034348
3.807261 2.921414 -0.100524
3.863537 2.964596 -0.033999
3.816641 2.876045 -0.100105
3.865302 2.912714 -0.033789
3.889814 2.878311 -0.101361
3.898611 2.884820 -0.033859
3.866253 2.808997 -0.100105
3.850827 2.797790 -0.033231
3.792946 2.705482 -0.097592
3.866955 2.758272 -0.033161
3.890119 2.723891 -0.099476
3.866303 2.707215 -0.032952
3.878079 2.690319 0.032952
3.885538 2.695493 0.099058
3.757191 2.582246 -0.095497
3.782647 2.599741 -0.032044
3.868346 2.633863 0.032672
3.892384 2.650230 0.098639
3.746428 2.526998 -0.094660
3.755449 2.533082 -0.031625
3.899498 2.605561 0.032742
3.907050 2.610607 0.098429
3.835033 2.538353 -0.096335
3.877475 2.566444 -0.032463
3.880273 2.544019 0.032393
3.879517 2.543523 0.097173
3.882193 2.521126 -0.096963
3.857791 2.505279 -0.032114
3.885505 2.499241 0.032253
3.859522 2.482528 0.096126
3.845021 2.449549 -0.095497
3.854205 2.455399 -0.031904
3.856425 2.433223 0.031835
3.889495 2.454088 0.096335
3.823858 2.389412 -0.094450
3.833084 2.395177 -0.031555
3.894518 2.410001 0.031974
3.893759 2.409531 0.095916
3.861613 2.366399 -0.094869
3.896471 2.387760 -0.031904
3.829912 2.324048 0.031276
3.863354 2.344341 0.094660
3.890686 2.337760 -0.095079
3.874302 2.327915 -0.031555
3.858641 2.295650 0.031346
3.909441 2.325873 0.095288
3.859252 2.273273 -0.093822
3.894469 2.294018 -0.031555
3.869889 2.256852 0.031276
3.834589 2.236266 0.092984
3.861626 2.229511 -0.093403
3.879699 2.239945 -0.031276
3.872072 2.213072 0.031136
3.871317 2.212640 0.093403
3.846128 2.176035 -0.092565
3.925209 2.220776 -0.031485
3.873788 2.169425 0.030997
3.881756 2.173888 0.093194
3.838738 2.127847 -0.091937
3.795757 2.104023 -0.030299
3.866271 2.121109 0.030787
3.918109 2.149548 0.093613
3.865947 2.099038 -0.092147
3.910641 2.123305 -0.031067
3.875825 2.082556 0.030718
3.839841 2.063221 0.091309
3.813497 2.027672 -0.090471
3.858387 2.051541 -0.030508
3.902700 2.053310 0.030787
3.901940 2.052910 0.092356
3.848783 2.003550 -0.090890
3.893883 2.027027 -0.030648
3.876020 1.996282 0.030438
3.884153 2.000470 0.091518
3.777039 1.924498 -0.088796
3.813415 1.943032 -0.029880
3.866505 1.948879 0.030229
3.865751 1.948499 0.090681
3.847374 1.918230 -0.090052
3.874971 1.931989 -0.030229
3.919238 1.932755 0.030508
3.882607 1.914690 0.090681
3.863967 1.884583 -0.090052
3.846745 1.876183 -0.029880
3.899928 1.881102 0.030229
3.908173 1.885079 0.090890
3.826122 1.824967 -0.088796
3.908099 1.864068 -0.030229
3.916195 1.846998 0.030229
3.879261 1.829579 0.089843
3.860024 1.799959 -0.089215
3.815463 1.779180 -0.029391
3.868596 1.783447 0.029740
3.867841 1.783099 0.089215
3.802804 1.733038 -0.087539
3.830844 1.745816 -0.029391
3.911364 1.761941 0.029950
3.874139 1.745172 0.089005
3.854316 1.716052 -0.088377
3.836797 1.708252 -0.029321
3.853367 1.695522 0.029391
3.852616 1.695192 0.088168
3.814133 1.658432 -0.087120
3.851558 1.674705 -0.029321
3.904768 1.677621 0.029670
3.913192 1.681240 0.089215
3.883678 1.648524 -0.088377
3.866026 1.641031 -0.029321
3.882371 1.628013 0.029391
3.844735 1.612231 0.087330
3.740891 1.549528 -0.084817
3.778575 1.565137 -0.028553
3.859410 1.578926 0.029112
3.858657 1.578618 0.087330
3.745001 1.513079 -0.084607
3.782818 1.528358 -0.028484
3.873041 1.545187 0.029112
3.872286 1.544886 0.087330
3.832480 1.509654 -0.086283
3.861139 1.520943 -0.028972
3.923657 1.525827 0.029391
3.922893 1.525530 0.088168
3.770838 1.447489 -0.084607
3.846258 1.476440 -0.028763
3.936823 1.491529 0.029391
3.898659 1.477070 0.087330
3.839514 1.435535 -0.085864
3.896461 1.456827 -0.029042
3.912163 1.443273 0.029112
3.911400 1.442992 0.087330
3.757946 1.367781 -0.083770
3.833853 1.395408 -0.028484
3.886962 1.395562 0.028833
3.886204 1.395290 0.086492
3.826285 1.354959 -0.085026
3.883588 1.375251 -0.028763
3.898993 1.361589 0.028833
3.869916 1.351435 0.085864
3.875776 1.334537 -0.085864
3.895442 1.341308 -0.028763
3.910726 1.327513 0.028833
3.900496 1.324040 0.086283
3.830387 1.281630 -0.084607
3.935447 1.316782 -0.028972
3.922162 1.293335 0.028833
3.892912 1.283690 0.085864
3.831917 1.245065 -0.084398
3.842175 1.248398 -0.028204
3.895204 1.246865 0.028553
3.894444 1.246621 0.085654
3.852171 1.214585 -0.084607
3.900607 1.229857 -0.028553
3.944136 1.224687 0.028833
3.914723 1.215554 0.085864
3.786136 1.157538 -0.082932
3.767749 1.151917 -0.027506
3.878069 1.167166 0.028274
3.886887 1.169820 0.085026
3.805680 1.127294 -0.083141
3.883125 1.150234 -0.028274
3.926508 1.144473 0.028553
3.935341 1.147047 0.085864
3.767319 1.080261 -0.082094
3.883403 1.113548 -0.028204
3.897849 1.099307 0.028274
3.897089 1.099093 0.084817
3.834408 1.063375 -0.083351
3.883336 1.076944 -0.028134
3.907294 1.065251 0.028274
3.877594 1.057154 0.084189
3.882170 1.040224 -0.084189
3.805655 1.019722 -0.027506
3.916441 1.031113 0.028274
3.915677 1.030912 0.084817
3.755589 0.971261 -0.081257
3.872496 1.001496 -0.027925
3.925290 0.996897 0.028274
3.895454 0.989319 0.084189
3.793024 0.945707 -0.081885
3.774359 0.941053 -0.027157
3.885274 0.950720 0.027925
3.933073 0.962417 0.084817
3.869184 0.928909 -0.083351
3.928279 0.943096 -0.028204
3.942090 0.928239 0.028274
3.912127 0.921183 0.084189
3.838176 0.886113 -0.082513
3.897385 0.899782 -0.027925
3.950040 0.893803 0.028274
3.920016 0.887009 0.084189
3.884806 0.861241 -0.083351
3.934377 0.872230 -0.028134
3.957690 0.859299 0.028274
3.917837 0.850646 0.083979
3.862836 0.821071 -0.082723
3.912495 0.831626 -0.027925
3.916086 0.814547 0.027925
3.934900 0.818460 0.084189
3.860057 0.785337 -0.082513
3.909804 0.795459 -0.027855
3.932853 0.782293 0.027995
3.941892 0.784091 0.084189
3.866763 0.751623 -0.082513
3.887149 0.755585 -0.027646
3.929706 0.746078 0.027925
3.899473 0.740338 0.083141
3.873175 0.717851 -0.082513
3.923091 0.727102 -0.027855
3.906546 0.706419 0.027716
3.905785 0.706281 0.083141
3.820216 0.673607 -0.081257
3.899744 0.687630 -0.027646
3.942128 0.677382 0.027925
3.911799 0.672170 0.083141
3.825949 0.640244 -0.081257
3.905596 0.653573 -0.027646
3.918280 0.638132 0.027716
3.927384 0.639615 0.083351
3.811641 0.603705 -0.080838
3.832137 0.606951 -0.027087
3.923700 0.603915 0.027716
3.883409 0.597714 0.082304
3.816764 0.570419 -0.080838
3.886738 0.580877 -0.027436
3.928820 0.569652 0.027716
3.888477 0.563802 0.082304
3.821596 0.537090 -0.080838
3.881756 0.545545 -0.027367
3.933642 0.535345 0.027716
3.893249 0.529848 0.082304
3.786489 0.498501 -0.080000
3.846712 0.506429 -0.027087
3.898484 0.495950 0.027436
3.897724 0.495853 0.082304
3.790695 0.465439 -0.080000
3.890686 0.477716 -0.027367
3.942386 0.466612 0.027716
3.901903 0.461821 0.082304
3.854213 0.439132 -0.081257
3.904642 0.444878 -0.027436
3.906546 0.427836 0.027436
3.905785 0.427753 0.082304
3.887728 0.408617 -0.081885
3.938211 0.413923 -0.027646
3.949929 0.397737 0.027716
3.909369 0.393653 0.082304
3.841387 0.369883 -0.080838
3.891904 0.374748 -0.027297
3.913418 0.359593 0.027436
3.912655 0.359522 0.082304
3.814589 0.333733 -0.080209
3.865141 0.338156 -0.027087
3.906442 0.324600 0.027367
3.915643 0.325365 0.082304
3.787455 0.298079 -0.079581
3.867945 0.304414 -0.027087
3.919098 0.291239 0.027436
3.928304 0.291923 0.082513
3.809859 0.266411 -0.080000
3.870454 0.270649 -0.027087
3.881577 0.254412 0.027157
3.920726 0.256978 0.082304
3.792080 0.231934 -0.079581
3.842725 0.235031 -0.026878
3.883649 0.220530 0.027157
3.882892 0.220487 0.081466
3.783976 0.198310 -0.079372
3.874588 0.203059 -0.027087
3.925379 0.188549 0.027436
3.924613 0.188513 0.082304
3.855480 0.168334 -0.080838
3.916174 0.170984 -0.027367
3.926874 0.154287 0.027436
3.926109 0.154257 0.082304
3.756885 0.131193 -0.078743
3.877542 0.135407 -0.027087
3.918076 0.119708 0.027367
3.917312 0.119685 0.082094
3.797865 0.099451 -0.079581
3.828594 0.100255 -0.026738
3.928969 0.085730 0.027436
3.938199 0.085932 0.082513
3.788592 0.066130 -0.079372
3.879314 0.067714 -0.027087
3.969563 0.051964 0.027716
3.918804 0.051300 0.082094
3.839012 0.033503 -0.080419
3.909756 0.034120 -0.027297
3.929867 0.017147 0.027436
3.899107 0.017013 0.081675
3.839158 0.000000 -0.080419
3.889905 0.000000 -0.027157
3.919867 -0.017104 0.027367
3.879112 -0.016926 0.081257
3.879001 -0.033852 -0.081257
3.929754 -0.034294 -0.027436
3.889572 -0.050917 0.027157
3.938798 -0.051562 0.082513
3.818581 -0.066654 -0.080000
3.839322 -0.067016 -0.026808
3.968959 -0.086603 0.027716
3.928203 -0.085714 0.082304
3.847837 -0.100759 -0.080628
3.928558 -0.102873 -0.027436
3.928071 -0.120013 0.027436
3.927305 -0.119990 0.082304
3.866794 -0.135031 -0.081047
3.917516 -0.136803 -0.027367
3.966843 -0.155858 0.027716
3.916119 -0.153865 0.082094
3.855480 -0.168334 -0.080838
3.916174 -0.170984 -0.027367
3.885426 -0.186630 0.027157
3.894654 -0.187074 0.081675
3.783976 -0.198310 -0.079372
3.874588 -0.203059 -0.027087
3.963518 -0.225065 0.027716
3.922819 -0.222754 0.082304
3.851955 -0.235596 -0.080838
3.902612 -0.238694 -0.027297
3.921490 -0.257028 0.027436
3.920726 -0.256978 0.082304
3.829806 -0.267806 -0.080419
3.850503 -0.269253 -0.026948
3.919098 -0.291239 0.027436
3.918334 -0.291182 0.082304
3.847257 -0.302786 -0.080838
3.947696 -0.310690 -0.027646
3.956269 -0.328741 0.027716
3.965461 -0.329504 0.083351
3.894267 -0.340704 -0.081885
3.944835 -0.345128 -0.027646
3.913418 -0.359593 0.027436
3.912655 -0.359522 0.082304
3.881194 -0.373716 -0.081675
3.891904 -0.374748 -0.027297
3.949929 -0.397737 0.027716
3.949159 -0.397659 0.083141
3.818126 -0.401301 -0.080419
3.898431 -0.409742 -0.027367
3.946307 -0.432191 0.027716
3.935600 -0.431018 0.082932
3.874080 -0.441396 -0.081675
3.904642 -0.444878 -0.027436
3.902664 -0.461911 0.027436
3.951546 -0.467696 0.083351
3.880004 -0.476405 -0.081885
3.890686 -0.477716 -0.027367
3.938164 -0.500998 0.027716
3.897724 -0.495853 0.082304
3.845962 -0.506331 -0.081257
3.876455 -0.510345 -0.027297
3.973275 -0.540739 0.027995
3.982407 -0.541982 0.084189
3.871099 -0.544047 -0.081885
3.921366 -0.551112 -0.027646
3.928820 -0.569652 0.027716
3.888477 -0.563802 0.082304
3.895868 -0.582241 -0.082513
3.916407 -0.585311 -0.027646
3.923700 -0.603915 0.027716
3.972342 -0.611402 0.084189
3.870889 -0.613089 -0.082094
3.842014 -0.608515 -0.027157
3.918280 -0.638132 0.027716
3.907648 -0.636401 0.082932
3.885113 -0.650145 -0.082513
3.895733 -0.651922 -0.027576
3.912562 -0.672301 0.027716
3.911799 -0.672170 0.083141
3.859600 -0.680552 -0.082094
3.899744 -0.687630 -0.027646
3.906546 -0.706419 0.027716
3.935300 -0.711618 0.083770
3.873175 -0.717851 -0.082513
3.923091 -0.727102 -0.027855
3.939530 -0.747943 0.027995
3.948584 -0.749662 0.084189
3.847135 -0.747807 -0.082094
3.926413 -0.763217 -0.027925
3.923046 -0.780342 0.027925
3.932086 -0.782141 0.083979
3.840462 -0.781351 -0.082094
3.958799 -0.805427 -0.028204
3.925877 -0.816584 0.027995
3.934900 -0.818460 0.084189
3.755263 -0.798206 -0.080419
3.834245 -0.814994 -0.027367
3.957690 -0.859299 0.028274
3.956918 -0.859131 0.084817
3.826241 -0.848257 -0.082094
3.914852 -0.867902 -0.027995
3.911027 -0.884975 0.027995
3.920016 -0.887009 0.084189
3.886884 -0.897358 -0.083560
3.936359 -0.908780 -0.028204
3.942090 -0.928239 0.028274
3.941321 -0.928058 0.084817
3.810854 -0.914905 -0.082094
3.889385 -0.933759 -0.027925
3.933840 -0.962604 0.028274
3.903939 -0.955288 0.084189
3.802725 -0.948126 -0.082094
3.822872 -0.953149 -0.027506
3.925290 -0.996897 0.028274
3.924524 -0.996702 0.084817
3.852382 -0.996294 -0.083351
3.833771 -0.991481 -0.027646
3.955122 -1.041297 0.028553
3.915677 -1.030912 0.084817
3.853199 -1.032462 -0.083560
3.902245 -1.045604 -0.028204
3.936236 -1.073141 0.028484
3.945115 -1.075562 0.085654
3.853677 -1.068719 -0.083770
3.892972 -1.079617 -0.028204
3.936346 -1.110164 0.028553
3.897089 -1.099093 0.084817
3.844203 -1.102308 -0.083770
3.893015 -1.116304 -0.028274
3.926508 -1.144473 0.028553
3.925743 -1.144250 0.085654
3.891954 -1.152849 -0.085026
3.950241 -1.170115 -0.028763
3.954673 -1.190222 0.028833
3.925182 -1.181346 0.085864
3.881746 -1.186769 -0.085026
3.872940 -1.184077 -0.028274
3.944136 -1.224687 0.028833
3.943367 -1.224448 0.086492
3.909382 -1.232623 -0.085864
3.957829 -1.247899 -0.028972
3.933299 -1.259059 0.028833
3.932532 -1.258813 0.086492
3.803392 -1.235797 -0.083770
3.851685 -1.251488 -0.028274
3.922162 -1.293335 0.028833
3.921397 -1.293083 0.086492
3.887274 -1.300664 -0.085864
3.944930 -1.319955 -0.029042
3.910726 -1.327513 0.028833
3.919431 -1.330468 0.086702
3.913588 -1.347557 -0.086702
3.838712 -1.321774 -0.028344
3.927315 -1.371480 0.029042
3.898232 -1.361324 0.086492
3.882831 -1.374983 -0.086283
3.921293 -1.388603 -0.029042
3.924608 -1.409078 0.029112
3.895614 -1.398668 0.086702
3.870685 -1.408814 -0.086283
3.946613 -1.436450 -0.029321
3.949689 -1.457117 0.029391
3.911400 -1.442992 0.087330
3.820784 -1.428533 -0.085445
3.858995 -1.442819 -0.028763
3.936823 -1.491529 0.029391
3.936056 -1.491238 0.088168
3.873509 -1.486901 -0.086911
3.920942 -1.505109 -0.029321
3.923657 -1.525827 0.029391
3.913574 -1.521906 0.087958
3.888293 -1.531639 -0.087539
3.879747 -1.528273 -0.029112
3.947344 -1.574831 0.029670
3.955861 -1.578228 0.089215
3.911858 -1.580493 -0.088377
3.866262 -1.562071 -0.029112
3.924196 -1.605431 0.029601
3.941938 -1.612689 0.089215
3.860970 -1.599266 -0.087539
3.963347 -1.641672 -0.029950
3.956146 -1.658950 0.029950
3.918494 -1.643161 0.089005
3.957303 -1.679775 -0.090052
3.902845 -1.656660 -0.029601
3.941518 -1.693410 0.029950
3.940750 -1.693080 0.089843
3.832470 -1.666406 -0.087539
3.934092 -1.710592 -0.029950
3.963202 -1.743851 0.030229
3.934976 -1.731431 0.090052
3.872583 -1.724185 -0.088796
3.845933 -1.712319 -0.029391
3.911364 -1.761941 0.029950
3.919717 -1.765704 0.090052
3.793706 -1.728892 -0.087330
3.903639 -1.778991 -0.029950
3.932164 -1.812752 0.030229
3.895080 -1.795656 0.089843
3.823780 -1.783058 -0.088377
3.878903 -1.808762 -0.029880
3.916195 -1.846998 0.030229
3.915432 -1.846638 0.090681
3.916361 -1.868008 -0.090890
3.962253 -1.889898 -0.030648
3.935955 -1.898479 0.030508
3.899168 -1.880735 0.090681
3.908897 -1.906496 -0.091100
3.954597 -1.928786 -0.030718
3.928207 -1.937177 0.030578
3.927441 -1.936800 0.091728
3.901058 -1.944996 -0.091309
3.946564 -1.967684 -0.030787
3.902223 -1.966882 0.030508
3.937173 -1.984499 0.092356
3.910661 -1.992581 -0.091937
3.866874 -1.970271 -0.030299
3.956030 -2.037489 0.031067
3.955259 -2.037092 0.093194
3.884255 -2.022015 -0.091728
3.947102 -2.054731 -0.031067
3.938099 -2.071934 0.031067
3.937331 -2.071530 0.093194
3.937083 -2.093384 -0.093403
3.955509 -2.103181 -0.031276
3.946294 -2.120420 0.031276
3.963139 -2.129471 0.094241
3.901092 -2.118120 -0.092984
3.963369 -2.151934 -0.031485
3.971475 -2.178826 0.031625
3.935640 -2.159166 0.094031
3.847483 -2.132694 -0.092147
3.953185 -2.191286 -0.031555
3.987210 -2.232945 0.031904
3.986432 -2.232509 0.095707
3.933145 -2.225266 -0.094660
3.933912 -2.225700 -0.031555
3.967572 -2.267654 0.031904
3.975478 -2.272173 0.095916
3.904918 -2.254505 -0.094450
3.983620 -2.299944 -0.032114
3.982185 -2.322341 0.032184
3.972772 -2.316852 0.096335
3.928167 -2.313867 -0.095497
3.894469 -2.294018 -0.031555
3.961767 -2.357004 0.032184
3.935218 -2.341209 0.095916
3.899256 -2.342909 -0.095288
3.857159 -2.317615 -0.031416
3.941048 -2.391486 0.032184
3.940279 -2.391020 0.096545
3.904236 -2.392519 -0.095916
3.964680 -2.429559 -0.032463
3.954041 -2.446835 0.032463
3.953271 -2.446358 0.097382
3.832337 -2.394710 -0.094660
3.841564 -2.400476 -0.031625
3.966367 -2.502591 0.032742
3.931772 -2.480763 0.097382
3.929342 -2.503267 -0.097592
3.921675 -2.498382 -0.032463
3.978018 -2.558747 0.033021
3.977242 -2.558248 0.099058
3.857038 -2.504790 -0.096335
3.924883 -2.548849 -0.032672
3.922086 -2.571433 0.032742
3.963127 -2.598340 0.099267
3.901730 -2.582499 -0.098011
3.977538 -2.632675 -0.033301
3.999271 -2.672228 0.033580
3.965240 -2.649489 0.099895
3.937065 -2.655584 -0.099476
3.946123 -2.661693 -0.033231
3.975800 -2.707026 0.033580
3.950233 -2.689618 0.100105
3.921980 -2.695502 -0.099686
3.963950 -2.724348 -0.033580
3.943809 -2.735918 0.033510
3.951255 -2.741083 0.100733
3.865550 -2.706687 -0.098848
3.931834 -2.753100 -0.033510
3.927950 -2.776001 0.033580
3.927184 -2.775460 0.100733
3.882479 -2.769346 -0.099895
3.980928 -2.839568 -0.034138
3.968500 -2.856911 0.034138
3.935271 -2.832989 0.101571
3.882430 -2.820750 -0.100524
3.947907 -2.868322 -0.034069
3.943418 -2.891434 0.034138
3.942649 -2.890870 0.102408
3.897851 -2.884258 -0.101571
3.930764 -2.908612 -0.034138
3.950085 -2.949668 0.034418
3.917272 -2.925166 0.102408
3.888502 -2.930196 -0.101990
3.841343 -2.894660 -0.033580
3.924194 -2.984027 0.034418
3.939346 -2.995548 0.103665
3.886579 -2.982277 -0.102618
3.903203 -2.995033 -0.034348
3.929631 -3.042646 0.034697
3.928865 -3.042053 0.104084
3.931311 -3.071477 -0.104503
3.939958 -3.078232 -0.034906
3.934342 -3.101585 0.034976
3.941426 -3.107170 0.105131
3.896534 -3.099443 -0.104293
3.873816 -3.081372 -0.034557
3.907126 -3.135800 0.034976
3.906364 -3.135189 0.104922
3.939266 -3.189955 -0.106178
3.978890 -3.222042 -0.035744
3.949306 -3.226718 0.035604
3.948536 -3.226089 0.106806
3.918993 -3.230569 -0.106387
3.958338 -3.263002 -0.035814
3.944062 -3.280242 0.035814
3.920233 -3.260424 0.106806
3.860017 -3.238939 -0.105550
3.952693 -3.316703 -0.036023
3.953448 -3.346841 0.036163
3.945046 -3.339728 0.108272
3.922834 -3.350417 -0.108063
3.946411 -3.370553 -0.036233
3.946817 -3.400795 0.036372
3.953622 -3.406659 0.109319
3.916084 -3.404200 -0.108691
3.894207 -3.385182 -0.036023
3.886917 -3.408735 0.036093
3.923743 -3.441030 0.109319
3.923667 -3.471368 -0.109738
3.961879 -3.505175 -0.036931
3.946547 -3.522428 0.036931
3.915942 -3.495112 0.109948
3.908084 -3.518855 -0.110157
3.923709 -3.532923 -0.036861
3.915658 -3.556734 0.036931
3.929696 -3.569485 0.111204
3.891971 -3.566334 -0.110576
3.944338 -3.614320 -0.037350
3.943216 -3.645071 0.037489
3.942447 -3.644361 0.112461
3.941132 -3.675165 -0.112880
3.876080 -3.614503 -0.037001
3.962241 -3.727305 0.037978
3.997880 -3.760830 0.114974
3.901658 -3.702535 -0.112670
3.967701 -3.765208 -0.038187
3.900670 -3.734080 0.037699
3.936020 -3.767920 0.114136
3.955501 -3.819783 -0.115183
3.898727 -3.764957 -0.037838
3.961053 -3.858687 0.038606
3.960281 -3.857935 0.115812
3.936279 -3.868170 -0.115602
3.944179 -3.875934 -0.038606
3.955636 -3.921267 0.038886
3.954865 -3.920502 0.116649
3.930651 -3.930651 -0.116440
3.987985 -3.987985 -0.039374
3.949426 -3.984043 0.039165
3.948656 -3.983266 0.117487
3.938246 -4.007588 -0.117696
4.002094 -4.072561 -0.039863
3.963353 -4.068496 0.039654
3.941651 -4.046218 0.118325
3.937849 -4.077762 -0.118744
3.973349 -4.114523 -0.039933
3.962273 -4.139045 0.040003
3.968414 -4.145460 0.120209
3.908997 -4.119223 -0.118953
3.937292 -4.149040 -0.039933
3.980816 -4.231732 0.040561
3.952639 -4.201779 0.120838
3.947905 -4.233609 -0.121257
3.935035 -4.219808 -0.040282
3.923373 -4.244281 0.040352
3.942967 -4.265478 0.121675
3.944582 -4.304755 -0.122304
3.992641 -4.357203 -0.041259
3.960144 -4.359778 0.041120
3.959372 -4.358929 0.123351
3.953695 -4.391023 -0.123770
3.961157 -4.399310 -0.041329
3.975217 -4.453854 0.041678
3.974442 -4.452986 0.125026
3.948349 -4.462797 -0.124817
3.982249 -4.501114 -0.041957
3.962572 -4.518447 0.041957
3.935431 -4.487499 0.125026
3.961727 -4.557446 -0.126492
3.988742 -4.588522 -0.042446
3.949100 -4.583157 0.042237
3.948330 -4.582263 0.126702
3.902327 -4.569037 -0.125864
3.968031 -4.645967 -0.042656
3.960644 -4.678501 0.042795
3.959871 -4.677589 0.128377
3.932997 -4.687164 -0.128168
3.959475 -4.718719 -0.043005
3.970819 -4.774392 0.043354
3.950866 -4.750401 0.129424
3.954312 -4.839836 0.043633
3.928238 -4.807924 0.130052
3.943222 -4.913153 0.043982
3.942453 -4.912195 0.131937
3.943532 -5.002347 0.044471
3.918005 -4.969966 0.132566
3.954827 -5.107730 0.045099
3.935694 -5.083019 0.134660
3.946421 -5.189806 0.045518
3.939600 -5.180837 0.136335
3.948846 -5.288146 0.046076
3.948076 -5.287116 0.138220
3.925435 -5.353618 0.139058
3.949431 -5.486106 0.047193
0.151872 -0.210963 0.005445
3.954503 -5.493151 0.141780
0.131071 -0.188937 0.004817
0.140670 -0.206602 0.005236
0.155556 -0.232806 0.001955
0.138862 -0.207822 0.005236
0.126080 -0.192304 0.004817
0.129831 -0.201844 0.001676
0.140623 -0.218622 0.005445
0.128064 -0.202970 0.001676
0.117369 -0.186019 0.004607
0.126288 -0.204080 0.001676
0.136786 -0.221043 0.005445
0.150441 -0.247918 0.002025
0.140038 -0.230776 0.005654
0.138046 -0.232034 0.001885
0.127795 -0.214804 0.005236
0.135989 -0.233184 0.005654