# This PCD file was generated using the MATLAB® pcwrite function
# from Computer Vision System Toolbox®.
# .PCD v.7 - Point Cloud Data file format
VERSION .7
FIELDS x y z
SIZE 4 4 4
TYPE F F F
COUNT 1 1 1
WIDTH 748
HEIGHT 1
VIEWPOINT 0 0 0 1 0 0 0
POINTS 748
DATA ascii
30.701828 30.701828 -0.303126
30.677305 30.146503 -0.900943
30.683287 30.152382 -0.300334
30.629963 29.579012 -0.891938
30.664709 29.612564 -0.297611
30.625841 29.062838 -0.884398
30.639067 29.075388 -0.294888
30.636999 28.569464 -0.877487
30.628347 28.561396 -0.292375
30.531330 27.976809 -0.867435
30.544655 27.989019 -0.289234
30.536554 27.495237 -0.860733
30.557371 27.513981 -0.287069
30.535715 27.015718 -0.854032
30.526691 27.007734 -0.284556
30.476034 26.492413 -0.845864
30.519712 26.530380 -0.282322
30.462784 26.017675 -0.839163
30.567575 26.107176 -0.280647
30.443588 25.545204 -0.832461
30.495485 25.588751 -0.277924
30.418484 25.075064 -0.825760
30.439848 25.092674 -0.275411
30.418592 24.632490 -0.819896
30.440065 24.649879 -0.273456
30.382010 24.166943 -0.813194
30.434889 24.209003 -0.271501
30.308125 23.679302 -0.805655
30.361315 23.720858 -0.268988
30.354973 23.292191 -0.801466
30.376759 23.308907 -0.267312
30.301571 22.833872 -0.794765
30.355396 22.874432 -0.265358
30.306793 22.425848 -0.789739
30.360933 22.465910 -0.263682
30.307219 22.019484 -0.784712
30.329308 22.035532 -0.261727
30.237759 21.568384 -0.778011
30.259937 21.584204 -0.259493
30.261030 21.189001 -0.773822
30.283314 21.204603 -0.258097
30.247038 20.788212 -0.768796
30.269417 20.803595 -0.256422
30.261524 20.411655 -0.764608
30.292295 20.432411 -0.255095
30.205057 19.992290 -0.758744
30.227625 20.007229 -0.253071
30.297909 19.864180 0.252931
30.210674 19.619041 -0.754555
30.241724 19.639206 -0.251744
30.259846 19.463787 0.251186
30.287580 19.481627 0.754346
30.178360 19.225735 -0.749529
30.201111 19.240231 -0.249999
30.259403 19.092262 0.249789
30.287327 19.109880 0.750157
30.183891 18.860989 -0.745550
30.206738 18.875265 -0.248672
30.229284 18.706450 0.248184
30.299906 18.750151 0.746388
30.134220 18.466274 -0.740315
30.199780 18.506449 -0.247276
30.220398 18.338188 0.246788
30.248695 18.355360 0.741152
30.122822 18.099617 -0.736126
30.188696 18.139198 -0.245880
30.215994 17.976627 0.245461
30.244471 17.993570 0.737173
30.072878 17.714279 -0.731100
30.139053 17.753260 -0.244204
30.224867 17.626621 0.244274
30.262157 17.648369 0.733822
30.096441 17.376188 -0.727959
30.145609 17.404575 -0.243018
30.203901 17.262951 0.242878
30.206692 17.264547 0.728796
30.072895 17.014425 -0.723770
30.165792 17.066984 -0.241970
30.144003 16.881453 0.241203
30.181742 16.902588 0.724608
30.071575 16.668945 -0.720210
30.094931 16.681892 -0.240225
30.114830 16.521561 0.239806
30.152786 16.542385 0.720419
30.040167 16.310480 -0.716021
30.107540 16.347061 -0.239178
30.125729 16.187138 0.238759
30.190311 16.221840 0.717906
30.048944 15.977307 -0.712880
30.143097 16.027369 -0.238340
30.115395 15.844476 0.237572
30.153765 15.864663 0.713718
30.036469 15.635996 -0.709320
30.068935 15.652897 -0.236665
30.074717 15.489497 0.236176
30.157736 15.532255 0.710576
30.002518 15.287046 -0.705341
30.026188 15.299107 -0.235268
30.110516 15.176950 0.235408
30.113573 15.178491 0.706388
30.027411 14.971114 -0.702828
30.051163 14.982958 -0.234431
30.098316 14.842847 0.234291
30.137281 14.862062 0.703875
29.977194 14.620854 -0.698639
30.036964 14.650006 -0.233314
30.037554 14.488397 0.232825
30.121748 14.529007 0.700524
29.959259 14.289834 -0.695288
30.028280 14.322755 -0.232267
30.027180 14.161737 0.231778
30.030367 14.163241 0.695498
29.974087 13.977146 -0.692775
30.070560 14.022132 -0.231638
30.040644 13.848927 0.230940
30.080185 13.867155 0.693822
29.949356 13.648707 -0.689424
30.009792 13.676250 -0.230242
30.014475 13.520535 0.229823
30.054201 13.538431 0.690472
29.921186 13.321770 -0.686074
29.981831 13.348771 -0.229125
29.984873 13.193660 0.228706
30.024784 13.211221 0.687121
29.962950 13.028261 -0.684398
29.987133 13.038776 -0.228287
29.979427 12.880178 0.227799
30.028698 12.901346 0.684608
29.891441 12.688164 -0.680210
29.915678 12.698452 -0.226891
29.989244 12.575534 0.227031
30.020279 12.588548 0.681885
29.890184 12.380920 -0.677697
29.951445 12.406295 -0.226332
29.949760 12.252770 0.225914
29.980936 12.265525 0.678534
29.922932 12.089649 -0.676021
29.956581 12.103244 -0.225565
29.944090 11.946481 0.225076
29.984682 11.962675 0.676231
29.878458 11.769438 -0.672671
29.902891 11.779062 -0.224378
29.972643 11.655724 0.224517
29.976118 11.657075 0.673718
29.830687 11.450928 -0.669320
29.929859 11.488997 -0.223819
29.998407 11.365379 0.223959
30.039305 11.380875 0.672880
29.901384 11.179669 -0.668691
29.888481 11.174845 -0.222772
29.908812 11.033943 0.222563
29.987398 11.062936 0.669529
29.838093 10.860177 -0.665131
29.909687 10.886236 -0.222214
29.891022 10.731974 0.221725
29.932243 10.746774 0.666178
29.818636 10.559333 -0.662618
29.843302 10.568068 -0.221027
29.908010 10.444345 0.221166
29.949375 10.458790 0.664503
29.834023 10.272677 -0.660943
29.858749 10.281192 -0.220468
29.846510 10.131525 0.220049
29.935364 10.161687 0.662199
29.818237 9.977043 -0.658639
29.833534 9.982162 -0.219630
29.857813 9.845630 0.219491
29.937447 9.871889 0.660315
29.828100 9.691737 -0.656964
29.843426 9.696717 -0.219072
29.866404 9.560311 0.218932
29.898670 9.570640 0.657592
29.758978 9.382970 -0.653613
29.860149 9.414869 -0.218583
29.834097 9.263733 0.218095
29.837828 9.264892 0.654451
29.763239 9.099535 -0.651938
29.797729 9.110081 -0.217536
29.798895 8.968450 0.217257
29.879248 8.992633 0.653613
29.736065 8.808224 -0.649634
29.837744 8.838342 -0.217257
29.799221 8.685681 0.216698
29.889397 8.711965 0.652147
29.686861 8.512570 -0.646911
29.721487 8.522499 -0.215861
29.806513 8.406306 0.216210
29.839191 8.415523 0.649424
29.769651 8.255855 -0.647121
29.746548 8.249448 -0.215512
29.791906 8.122206 0.215581
29.872910 8.144290 0.648587
29.705362 7.959528 -0.644189
29.788427 7.981785 -0.215302
29.784288 7.841549 0.215023
29.826824 7.852747 0.646074
29.744652 7.692490 -0.643561
29.769814 7.698997 -0.214674
29.774048 7.561645 0.214464
29.826385 7.574937 0.644608
29.645735 7.391512 -0.640000
29.719435 7.409887 -0.213836
29.761196 7.282518 0.213906
29.852507 7.304862 0.643770
29.689665 7.127858 -0.639582
29.734348 7.138585 -0.213487
29.794413 7.015653 0.213696
29.876190 7.034909 0.642932
29.672804 6.850506 -0.637906
29.688332 6.854092 -0.212719
29.766722 6.735522 0.213068
29.809675 6.745241 0.640210
29.731455 6.591305 -0.637906
29.747015 6.594754 -0.212719
29.707102 6.450044 0.212230
29.789242 6.467878 0.638534
29.699827 6.312893 -0.636021
29.725182 6.318282 -0.212160
29.723097 6.182413 0.211951
29.776031 6.193423 0.637068
29.685207 6.039524 -0.634555
29.739990 6.050669 -0.211881
29.736685 5.914994 0.211672
29.789722 5.925544 0.636231
29.658268 5.764983 -0.632880
29.673866 5.768015 -0.211043
29.718401 5.642215 0.211183
29.751896 5.648574 0.634346
29.589481 5.484087 -0.630367
29.654245 5.496089 -0.210555
29.638584 5.359529 0.210276
29.681997 5.367379 0.631833
29.596828 5.218719 -0.629529
29.651838 5.228419 -0.210206
29.644804 5.093909 0.209996
29.688292 5.101381 0.630995
29.641243 4.960243 -0.629529
29.656885 4.962861 -0.209927
29.648649 4.828589 0.209717
29.741547 4.843719 0.631205
29.604403 4.688877 -0.627854
29.629929 4.692920 -0.209438
29.620472 4.559027 0.209228
29.703630 4.571826 0.629529
29.555201 4.417054 -0.625969
29.630194 4.428262 -0.209159
29.609648 4.293195 0.208879
29.663242 4.300965 0.627854
29.553019 4.153406 -0.625131
29.618196 4.162566 -0.208809
29.616261 4.030596 0.208670
29.660019 4.036551 0.627016
29.588139 3.895352 -0.625131
29.613737 3.898722 -0.208530
29.600706 3.765686 0.208321
29.614771 3.767475 0.625341
29.541618 3.627255 -0.623456
29.616856 3.636492 -0.208321
29.592718 3.502529 0.208042
29.646521 3.508897 0.625341
29.532413 3.364794 -0.622618
29.607719 3.373374 -0.208042
29.592337 3.240888 0.207832
29.626320 3.244610 0.624294
29.491051 3.099634 -0.621152
29.506746 3.101284 -0.207134
29.579693 2.978518 0.207553
29.613716 2.981945 0.623456
29.437363 2.834496 -0.619477
29.502825 2.840799 -0.206925
29.554770 2.715702 0.207204
29.608744 2.720661 0.622828
29.460976 2.577502 -0.619477
29.516529 2.582362 -0.206855
29.547447 2.455204 0.206994
29.591503 2.458864 0.621990
29.482347 2.320311 -0.619477
29.537941 2.324686 -0.206855
29.527859 2.194299 0.206715
29.571953 2.197576 0.621152
29.421686 2.057365 -0.617801
29.447372 2.059161 -0.206087
29.495991 1.933269 0.206366
29.590004 1.939431 0.621152
29.428539 1.799927 -0.617592
29.504147 1.804551 -0.206366
29.481787 1.674097 0.206157
29.565876 1.678872 0.620314
29.373238 1.539386 -0.616126
29.438881 1.542826 -0.205808
29.495274 1.416760 0.206157
29.579401 1.420800 0.620314
29.425507 1.284745 -0.616964
29.481195 1.287177 -0.206017
29.466547 1.157744 0.205877
29.550713 1.161051 0.619477
29.425606 1.027565 -0.616754
29.461323 1.028812 -0.205808
29.475527 0.900559 0.205877
29.519747 0.901910 0.618639
29.393475 0.769695 -0.615917
29.469179 0.771678 -0.205808
29.442274 0.642433 0.205598
29.566475 0.645143 0.619477
29.409067 0.513337 -0.616126
29.424801 0.513612 -0.205458
29.446760 0.385479 0.205598
29.491003 0.386058 0.617801
29.362440 0.256242 -0.615079
29.438162 0.256903 -0.205528
29.409004 0.128322 0.205319
29.493250 0.128689 0.617801
29.363558 0.000000 -0.615079
29.429283 0.000000 -0.205458
29.409004 -0.128322 0.205319
29.493250 -0.128689 0.617801
29.362440 -0.256242 -0.615079
29.388165 -0.256467 -0.205179
29.406763 -0.384956 0.205319
29.451015 -0.385535 0.616964
29.329098 -0.511941 -0.614451
29.384808 -0.512914 -0.205179
29.402285 -0.641560 0.205319
29.486511 -0.643398 0.617801
29.323513 -0.767863 -0.614451
29.379213 -0.769322 -0.205179
29.395567 -0.898116 0.205319
29.399830 -0.898246 0.616126
29.315697 -1.023727 -0.614451
29.341400 -1.024624 -0.204970
29.386610 -1.154603 0.205319
29.390871 -1.154770 0.616126
29.335611 -1.280820 -0.615079
29.361311 -1.281943 -0.205179
29.375416 -1.411002 0.205319
29.419621 -1.413126 0.616964
29.293365 -1.535200 -0.614451
29.349007 -1.538116 -0.205179
29.361984 -1.667294 0.205319
29.406168 -1.669803 0.616964
29.278852 -1.790771 -0.614451
29.304523 -1.792341 -0.204970
29.346315 -1.923459 0.205319
29.390476 -1.926354 0.616964
29.262110 -2.046206 -0.614451
29.317694 -2.050093 -0.205179
29.328413 -2.179478 0.205319
29.322695 -2.179053 0.615917
29.273041 -2.303838 -0.615079
29.348532 -2.309779 -0.205528
29.308277 -2.435330 0.205319
29.392235 -2.442306 0.617801
29.301620 -2.563560 -0.616126
29.317295 -2.564931 -0.205458
29.285910 -2.690997 0.205319
29.290155 -2.691387 0.616126
29.278133 -2.819164 -0.616126
29.293797 -2.820672 -0.205458
29.291159 -2.949465 0.205528
29.345135 -2.954900 0.617801
29.202702 -3.069328 -0.615079
29.238232 -3.073062 -0.205249
29.314007 -3.210406 0.205877
29.357985 -3.215222 0.618639
29.254274 -3.333103 -0.616754
29.289785 -3.337149 -0.205808
29.245153 -3.461392 0.205598
29.328808 -3.471293 0.618639
29.233997 -3.589483 -0.616964
29.259548 -3.592621 -0.205808
29.253513 -3.721517 0.205877
29.337070 -3.732147 0.619477
29.191648 -3.843153 -0.616754
29.227083 -3.847818 -0.205808
29.259558 -3.982051 0.206157
29.293478 -3.986667 0.619267
29.156998 -4.097749 -0.616754
29.222099 -4.106898 -0.206017
29.263279 -4.242973 0.206436
29.307045 -4.249319 0.620314
29.159681 -4.357944 -0.617592
29.185146 -4.361750 -0.206017
29.225138 -4.498179 0.206436
29.268847 -4.504907 0.620314
29.160040 -4.618496 -0.618430
29.195356 -4.624090 -0.206366
29.214380 -4.757864 0.206645
29.228420 -4.760150 0.620314
29.118626 -4.872787 -0.618430
29.153893 -4.878688 -0.206366
29.221025 -5.021091 0.206994
29.225182 -5.021805 0.621152
29.074995 -5.126706 -0.618430
29.110209 -5.132915 -0.206366
29.176096 -5.275898 0.206994
29.219599 -5.283764 0.621990
29.107792 -5.394811 -0.620105
29.182295 -5.408618 -0.207204
29.158417 -5.535899 0.207204
29.211666 -5.546008 0.622828
29.069420 -5.650523 -0.620314
29.094721 -5.655441 -0.206925
29.158035 -5.799894 0.207553
29.201380 -5.808516 0.623665
29.097382 -5.919929 -0.621990
29.161848 -5.933045 -0.207762
29.184635 -6.070413 0.208111
29.178946 -6.069229 0.624294
29.113068 -6.188174 -0.623456
29.099182 -6.185222 -0.207692
29.120777 -6.322741 0.208042
29.173721 -6.334236 0.625341
29.106762 -6.452814 -0.624503
29.131964 -6.458401 -0.208321
29.152271 -6.596486 0.208670
29.156340 -6.597406 0.626178
29.049343 -6.706569 -0.624503
29.113468 -6.721374 -0.208600
29.093597 -6.850633 0.208670
29.136583 -6.860754 0.627016
29.067484 -6.978486 -0.626178
29.082876 -6.982181 -0.208809
29.061846 -7.111389 0.208879
29.114449 -7.124260 0.627854
29.034582 -7.239134 -0.626807
29.069351 -7.247803 -0.209159
29.085911 -7.386880 0.209508
29.128691 -7.397745 0.629529
29.018700 -7.504746 -0.627854
29.043722 -7.511217 -0.209438
29.059023 -7.650602 0.209787
29.101700 -7.661838 0.630367
28.990734 -7.768044 -0.628691
29.015705 -7.774734 -0.209717
29.068335 -7.924937 0.210345
29.110895 -7.936541 0.632042
28.989281 -8.039439 -0.630157
29.062386 -8.059713 -0.210555
29.075064 -8.200016 0.210904
29.079018 -8.201132 0.632880
29.004515 -8.316911 -0.632042
29.029396 -8.324045 -0.210834
29.002399 -8.453428 0.210904
29.035139 -8.462971 0.633508
28.959591 -8.578222 -0.632671
29.032354 -8.599775 -0.211393
28.994555 -8.726371 0.211393
29.046343 -8.741957 0.635393
28.921875 -8.842304 -0.633508
28.956202 -8.852799 -0.211393
28.955500 -8.990921 0.211672
29.007143 -9.006957 0.636231
28.958031 -9.130432 -0.636021
28.982752 -9.138227 -0.212160
28.999746 -9.282891 0.212579
29.079788 -9.308514 0.639582
28.962828 -9.410593 -0.637906
28.977985 -9.415519 -0.212719
28.984112 -9.557527 0.213068
29.025934 -9.571318 0.640210
28.908047 -9.672497 -0.638534
28.942133 -9.683902 -0.213068
29.013231 -9.848665 0.213906
29.017044 -9.849958 0.641885
28.822538 -9.924396 -0.638534
28.922709 -9.958887 -0.213557
29.048912 -10.144334 0.214813
29.043247 -10.142356 0.644398
28.857351 -10.218925 -0.641257
28.881832 -10.227592 -0.213906
28.949869 -10.394065 0.214744
28.953634 -10.395417 0.644398
28.870420 -10.507974 -0.643561
28.894844 -10.516863 -0.214674
28.942497 -10.677451 0.215372
28.936855 -10.675369 0.646074
28.889999 -10.801528 -0.646074
28.914366 -10.810638 -0.215512
28.876272 -10.940241 0.215581
29.001532 -10.987698 0.649634
28.831974 -11.067558 -0.646911
28.856268 -11.076883 -0.215791
28.928820 -11.249803 0.216698
28.979088 -11.269351 0.651309
28.855223 -11.366375 -0.649634
28.907370 -11.386915 -0.216908
28.903849 -11.531466 0.217257
28.991076 -11.566266 0.653822
28.792015 -11.632729 -0.650472
28.853258 -11.657474 -0.217257
28.922436 -11.832481 0.218164
28.916798 -11.830174 0.654451
28.827957 -11.940930 -0.653613
28.861294 -11.954739 -0.218095
28.882631 -12.111492 0.218653
28.932320 -12.132329 0.657173
28.833092 -12.238921 -0.656126
28.857124 -12.249123 -0.218863
28.858528 -12.398602 0.219281
28.935575 -12.431705 0.659686
28.798540 -12.521961 -0.657801
28.822496 -12.532378 -0.219421
28.895679 -12.714403 0.220398
28.935801 -12.732058 0.662199
28.770370 -12.809394 -0.659686
28.867332 -12.852565 -0.220608
28.856565 -12.998935 0.220957
28.923864 -13.029251 0.664503
28.803055 -13.126308 -0.663037
28.826870 -13.137162 -0.221166
28.841925 -13.296309 0.221725
28.854460 -13.302089 0.665550
28.759901 -13.410962 -0.664712
28.810822 -13.434707 -0.221934
28.797150 -13.581617 0.222283
28.872919 -13.617352 0.668691
28.741037 -13.708771 -0.667016
28.764692 -13.720055 -0.222493
28.785614 -13.884532 0.223121
28.825027 -13.903543 0.670367
28.692200 -13.994121 -0.668691
28.787672 -14.040686 -0.223610
28.770977 -14.188275 0.223959
28.846067 -14.225307 0.673718
28.640566 -14.279659 -0.670367
28.699846 -14.309216 -0.223889
28.788940 -14.510820 0.225076
28.801184 -14.516992 0.675602
28.701935 -14.624366 -0.674765
28.787720 -14.668076 -0.225565
28.732334 -14.798124 0.225634
28.806726 -14.836439 0.678744
28.670771 -14.925058 -0.677068
28.694101 -14.937203 -0.225844
28.779097 -15.141416 0.227031
28.817726 -15.161739 0.682095
28.636538 -15.226317 -0.679372
28.739244 -15.280927 -0.227240
28.751574 -15.448777 0.227868
28.790003 -15.469426 0.684608
28.687086 -15.575817 -0.683770
28.745407 -15.607483 -0.228357
28.685801 -15.737569 0.228427
28.724035 -15.758545 0.686283
28.689980 -15.903115 -0.687121
28.678082 -15.896520 -0.228916
28.686970 -16.065475 0.229544
28.759884 -16.106310 0.690472
28.619720 -16.192259 -0.688796
28.677521 -16.224960 -0.230033
28.684589 -16.394594 0.230661
28.757118 -16.436047 0.693822
28.615862 -16.521376 -0.692147
28.673403 -16.554596 -0.231150
28.678640 -16.724888 0.231778
28.716230 -16.746811 0.696335
28.608429 -16.851652 -0.695498
28.665703 -16.885389 -0.232267
28.600348 -17.015419 0.232336
28.706470 -17.078556 0.699686
28.563120 -17.162455 -0.698011
28.628691 -17.201853 -0.233174
28.655947 -17.388855 0.234012
28.727285 -17.432146 0.703875
28.480461 -17.452848 -0.699686
28.537170 -17.487600 -0.233663
28.639166 -17.722452 0.235129
28.642084 -17.724258 0.705550
28.522081 -17.822575 -0.704503
28.620926 -17.884338 -0.235618
28.584904 -18.035730 0.235967
28.655430 -18.080231 0.709739
28.475082 -18.140629 -0.707226
28.531237 -18.176403 -0.236176
28.594629 -18.392683 0.237363
28.664732 -18.437775 0.713927
28.516930 -18.519112 -0.712252
28.572809 -18.555399 -0.237852
28.566839 -18.729240 0.238480
28.603075 -18.752998 0.716440
28.445944 -18.827959 -0.714555
28.476507 -18.848188 -0.238410
28.568600 -19.088928 0.239876
28.604595 -19.112980 0.720629
28.388309 -19.148157 -0.717278
28.468456 -19.202217 -0.239736
28.566246 -19.450064 0.241272
28.601997 -19.474407 0.724817
28.442596 -19.548056 -0.722932
28.497589 -19.585850 -0.241412
28.526886 -19.789804 0.242389
28.595257 -19.837236 0.729006
28.442911 -19.915941 -0.727330
28.456648 -19.925560 -0.242529
28.549093 -20.176504 0.244065
28.551691 -20.178341 0.732356
28.390121 -20.250477 -0.730472
28.485209 -20.318302 -0.244274
28.501783 -20.518349 0.245182
28.504341 -20.520189 0.735707
28.414534 -20.644367 -0.735707
28.468615 -20.683659 -0.245671
28.482929 -20.884548 0.246578
28.517691 -20.910036 0.740733
28.385998 -21.004534 -0.739686
28.439762 -21.044317 -0.246997
28.451830 -21.245989 0.247905
28.494347 -21.277739 0.744922
28.329374 -21.347713 -0.743037
28.414759 -21.412056 -0.248393
28.424540 -21.614521 0.249301
28.498581 -21.670824 0.749948
28.332367 -21.740189 -0.748063
28.361691 -21.762691 -0.249580
28.400877 -21.990309 0.250767
28.466488 -22.041109 0.754137
28.330652 -22.134331 -0.753089
28.383455 -22.175587 -0.251465
28.388515 -22.379702 0.252373
28.422237 -22.406286 0.758116
28.292904 -22.505192 -0.757278
28.314074 -22.522030 -0.252582
28.379305 -22.776800 0.254048
28.451744 -22.834938 0.764189
28.243061 -22.870779 -0.761257
28.302967 -22.919291 -0.254258
28.342079 -23.156450 0.255514
28.398493 -23.202541 0.768168
28.266125 -23.300795 -0.767330
28.287067 -23.318060 -0.255933
28.377260 -23.601118 0.257678
28.417849 -23.634874 0.774241
28.207230 -23.668676 -0.771309
28.296991 -23.743996 -0.257888
28.322866 -23.977077 0.259075
28.386021 -24.030540 0.779058
28.189669 -24.076252 -0.776545
28.240789 -24.119913 -0.259284
28.294363 -24.379982 0.260750
28.326717 -24.407860 0.783247
28.189766 -24.504990 -0.782409
28.240543 -24.549131 -0.261239
28.291042 -24.810579 0.262705
28.323111 -24.838701 0.789110
28.154558 -24.909050 -0.787435
28.204985 -24.953663 -0.262914
28.252504 -25.216324 0.264380
28.291750 -25.251352 0.794346
28.054995 -25.260830 -0.790786
28.134777 -25.332668 -0.264311
28.238634 -25.650169 0.266335
28.270130 -25.678780 0.800000
28.098848 -25.747850 -0.798325
28.178053 -25.820429 -0.266824
28.219326 -26.085676 0.268290
28.279900 -26.141670 0.806702
28.077824 -26.182993 -0.804189
28.127178 -26.229017 -0.268499
28.194553 -26.522787 0.270245
28.254595 -26.579269 0.812566
28.080336 -26.647243 -0.810890
28.129333 -26.693741 -0.270733
28.193178 -26.989098 0.272479
28.187681 -26.983835 0.817383
28.076866 -27.113516 -0.817592
28.096727 -27.132694 -0.272688
28.128492 -27.401564 0.274154
28.187462 -27.459009 0.824294
27.974678 -27.490641 -0.821571
28.051456 -27.566090 -0.274573
28.143961 -27.899424 0.276667
28.166876 -27.922138 0.830786
28.016497 -28.016497 -0.829948
28.064384 -28.064384 -0.277086
28.068382 -28.314402 0.278343
28.175529 -28.422485 0.838325
27.974161 -28.466713 -0.836021
28.021669 -28.515059 -0.279111
28.071426 -28.816126 0.280856
28.100836 -28.846313 0.843561
27.912197 -28.903927 -0.841676
28.021835 -29.017460 -0.281624
28.040171 -29.291145 0.283090
28.124582 -29.379322 0.851938
27.906656 -29.407480 -0.849215
27.953398 -29.456736 -0.283509
27.975340 -29.738663 0.285045
28.058941 -29.827532 0.857801
27.867161 -29.883871 -0.855917
27.947611 -29.970144 -0.286092
27.986273 -30.275379 0.287837
28.014750 -30.306185 0.864503
27.794439 -30.332308 -0.861781
27.894440 -30.441439 -0.288256
27.936159 -30.755314 0.290071
28.018103 -30.845526 0.872880
27.796280 -30.870895 -0.870158
27.841846 -30.921503 -0.290490
27.906420 -31.266502 0.292585
27.960896 -31.327538 0.879582
27.790815 -31.411802 -0.878534
27.835989 -31.462864 -0.293283
27.869869 -31.779493 0.295098
27.943539 -31.863501 0.887749
27.751770 -31.924759 -0.886074
27.770302 -31.946077 -0.295517
27.878689 -32.354813 0.298170
27.951569 -32.439392 0.896964
27.692884 -32.424202 -0.893194
27.828171 -32.582603 -0.299147
27.827881 -32.871620 0.300683
27.893515 -32.949150 0.904294
27.742037 -33.061672 -0.301311
27.814919 -33.443806 0.303685
27.892605 -33.537212 0.913718
27.775087 -33.995010 0.306477
27.794975 -34.019352 0.920210
27.708958 -34.524643 0.309060
27.822454 -34.666061 0.931100
27.697588 -35.134224 0.312342
27.791222 -35.252998 0.940315
27.689913 -35.762016 0.315762
27.782448 -35.881527 0.950576
23.182196 -30.486134 0.267382
21.922079 -29.357224 0.255793
22.815096 -30.553118 0.798744
21.659145 -29.539347 0.255724
22.317043 -30.436607 0.790576
21.464809 -29.816502 0.256492
0.128507 -0.178507 0.004607
22.027224 -30.597742 0.789739
0.205194 -0.295786 0.002513
0.176660 -0.254655 0.006492
0.155556 -0.232806 0.001955
0.166635 -0.249386 0.006283
0.131587 -0.200704 0.001676
0.169934 -0.259192 0.006492
0.129831 -0.201844 0.001676
0.118988 -0.184988 0.004607
0.149408 -0.236798 0.001955
0.138709 -0.219841 0.005445
0.147336 -0.238093 0.001955
0.136786 -0.221043 0.005445
0.145253 -0.239369 0.001955
0.140038 -0.230776 0.005654
0.138046 -0.232034 0.001885
0.127795 -0.214804 0.005236
0.130953 -0.224548 0.005445