# This PCD file was generated using the MATLAB® pcwrite function
# from Computer Vision System Toolbox®.
# .PCD v.7 - Point Cloud Data file format
VERSION .7
FIELDS x y z
SIZE 4 4 4
TYPE F F F
COUNT 1 1 1
WIDTH 876
HEIGHT 1
VIEWPOINT 0 0 0 1 0 0 0
POINTS 876
DATA ascii
25.341108 28.144152 -0.793299
25.620386 28.454323 -0.267312
25.660044 28.003023 -0.795603
25.813673 28.170681 -0.266754
27.445560 28.921585 -0.835184
27.402727 28.876450 -0.277924
27.689955 28.673788 -0.834974
27.820391 28.808857 -0.279599
27.827003 28.316963 -0.831623
27.965599 28.458000 -0.278552
28.864838 28.864838 -0.855079
28.467424 28.467424 -0.281066
28.951618 28.450676 -0.850262
28.800352 28.302027 -0.281903
29.054955 28.058043 -0.846074
28.664993 27.681461 -0.278203
29.153654 27.665785 -0.841885
28.506517 27.051676 -0.274364
29.276979 27.301226 -0.838534
29.194929 27.224710 -0.278692
29.713131 27.227068 -0.844189
31.946592 29.273659 -0.907644
29.593592 27.117531 -0.280228
29.384932 26.458311 -0.828273
29.286623 26.369795 -0.275131
29.434992 26.041882 -0.823247
29.335880 25.954195 -0.273456
29.540400 25.679077 -0.819896
29.410316 25.565998 -0.272060
29.550497 25.238510 -0.814032
29.480221 25.178488 -0.270663
29.616442 24.851145 -0.809843
29.545614 24.791714 -0.269267
29.616171 24.413687 -0.803980
29.544785 24.354841 -0.267312
29.703773 24.053642 -0.800629
29.631853 23.995401 -0.266195
29.756062 23.669039 -0.796440
29.714907 23.636305 -0.265078
29.803909 23.285366 -0.792252
29.730921 23.228342 -0.263403
29.847340 22.902668 -0.788063
29.773825 22.846260 -0.262007
29.918310 22.545063 -0.784712
29.844282 22.489279 -0.260890
29.953175 22.164183 -0.780524
29.910786 22.132816 -0.259773
30.016037 21.807926 -0.777173
29.973349 21.776913 -0.258656
30.042414 21.429045 -0.772985
29.966862 21.375154 -0.256980
30.097235 21.074310 -0.769634
29.996616 21.003857 -0.255654
30.148165 20.720259 -0.766283
30.137560 20.712971 -0.255305
30.360987 20.478745 -0.767121
30.250843 20.404451 -0.254746
30.205057 19.992290 -0.758744
30.135899 19.946516 -0.252303
30.097206 19.732592 0.251256
30.024450 19.684893 0.752042
30.252598 19.646267 -0.755603
30.208178 19.617420 -0.251465
30.167334 19.404282 0.250418
30.085775 19.351822 0.749320
30.287977 19.295568 -0.752252
30.209545 19.245604 -0.250069
30.200205 19.054911 0.249301
30.126673 19.008516 0.746178
30.285635 18.924564 -0.748063
30.172815 18.854069 -0.248393
30.195272 18.685402 0.247905
30.129873 18.644932 0.742199
30.347332 18.596869 -0.745550
30.302094 18.569147 -0.248114
30.220398 18.338188 0.246788
30.154676 18.298307 0.738849
30.371347 18.248947 -0.742199
30.325840 18.221603 -0.246997
30.276150 18.012417 0.245950
30.175734 17.952675 0.735498
30.426067 17.922323 -0.739686
30.345840 17.875065 -0.245880
30.293972 17.666924 0.244833
30.227612 17.628222 0.732985
30.442776 17.576145 -0.736335
30.396751 17.549572 -0.245042
30.342810 17.342344 0.243995
30.284813 17.309196 0.730681
30.525381 17.270430 -0.734660
30.444300 17.224556 -0.244204
30.318497 16.979174 0.242599
30.251526 16.941668 0.726283
30.456324 16.882215 -0.729424
30.383549 16.841875 -0.242529
30.325239 16.636995 0.241482
30.257971 16.600090 0.722932
30.540983 16.582401 -0.727959
30.459059 16.537920 -0.241970
30.398798 16.333864 0.240923
30.340031 16.302286 0.721466
30.578596 16.258928 -0.725445
30.531584 16.233931 -0.241412
30.433983 16.012093 0.240086
30.366114 15.976386 0.718744
30.612898 15.936067 -0.722932
30.565649 15.911469 -0.240574
30.439205 15.677220 0.239038
30.371054 15.642120 0.715603
30.643902 15.613848 -0.720419
30.596418 15.589654 -0.239736
30.467699 15.356984 0.238201
30.434977 15.340490 0.713927
30.671621 15.292307 -0.717906
30.588112 15.250669 -0.238619
30.492929 15.037449 0.237363
30.424217 15.003564 0.710576
30.696072 14.971474 -0.715393
30.612179 14.930557 -0.237782
26.434849 12.750658 0.204900
30.505905 14.714302 0.236455
30.409908 14.667998 0.707226
30.717264 14.651383 -0.712880
30.669100 14.628410 -0.237223
26.545111 12.519487 0.204900
30.596972 14.430469 0.236176
26.503767 12.499988 0.613822
30.464411 14.367949 0.705550
30.771461 14.348969 -0.711205
30.659645 14.296827 -0.236176
27.080170 12.484129 0.208181
31.611694 14.573191 0.243018
26.539204 12.234740 0.612147
31.578293 14.557793 0.728377
31.204826 14.220859 -0.718325
31.693178 14.443414 -0.243157
31.765015 14.309096 0.243227
26.480879 11.928766 0.608377
31.912277 14.208261 -0.731728
31.891094 14.198831 -0.243716
26.827126 11.804217 0.204621
31.906981 14.039408 0.243367
26.840199 11.809970 0.614241
32.062557 13.941196 -0.732356
32.050468 13.935941 -0.243995
34.802963 14.952533 0.264450
26.574800 11.417436 0.605864
27.870012 11.973902 0.635393
32.238213 13.684310 -0.733613
35.045135 14.875778 -0.797487
34.959923 14.839606 -0.265148
27.914343 11.705456 0.211323
34.922901 14.644387 0.264380
26.636543 11.169629 0.605026
27.918121 11.707040 0.634136
30.804625 12.759693 -0.698430
35.173618 14.569389 -0.797487
29.360176 12.161383 -0.221864
31.198652 12.922905 -0.235757
26.904806 11.007047 0.202945
29.098284 11.904423 0.219491
28.074739 11.485680 0.635393
30.747944 12.422976 -0.694660
35.178909 14.213202 -0.794765
29.279753 11.829788 -0.220468
30.865198 12.470349 -0.232406
29.182486 11.642631 0.219351
29.204655 11.651476 0.658639
29.980782 11.809744 -0.674974
35.282997 13.898343 -0.794346
29.177183 11.493198 -0.218932
35.196838 13.864404 -0.264101
28.938139 11.253427 0.216768
27.982058 10.881627 0.628901
29.942692 11.493922 -0.671833
35.318935 13.557669 -0.792461
29.014973 11.137804 -0.216978
28.997837 10.986298 0.216489
27.730028 10.505967 0.621152
35.295433 13.196422 -0.789320
28.352377 10.600519 -0.211323
28.867443 10.649762 0.214813
28.242746 10.419299 0.630576
30.082359 10.949083 -0.670576
35.428036 12.894751 -0.789739
28.631737 10.421100 -0.212719
30.370125 11.053822 -0.225634
28.855753 10.360274 0.214045
28.850128 10.358254 0.642095
29.865757 10.576019 -0.663665
29.409698 10.414520 -0.217815
29.199963 10.197083 0.215930
29.165953 10.185206 0.647121
29.758396 10.246637 -0.659267
27.324821 9.408690 -0.201758
29.716925 10.232358 -0.219421
27.734907 9.414733 0.204481
28.770895 9.766403 0.636440
29.097670 9.735944 -0.642723
27.529165 9.211130 -0.202666
29.871468 9.994853 -0.219910
35.760414 11.965267 -0.263263
27.778023 9.159818 0.204202
28.285332 9.327104 0.623875
27.954929 9.083107 -0.615707
28.217159 9.168311 -0.207134
30.195309 9.811050 -0.221655
28.609272 9.157901 0.209717
28.575130 9.146971 0.628482
28.538488 8.998151 -0.626807
28.467756 8.975849 -0.208391
28.659451 8.898995 0.209508
28.892565 8.971380 0.633718
29.552896 9.035228 -0.647330
28.841448 8.817716 -0.210555
29.032856 8.737898 0.211672
28.701693 8.638229 0.627854
29.726479 8.805385 -0.649424
28.994001 8.588415 -0.211113
29.204004 8.512191 0.212370
28.516825 8.311896 0.622199
29.244778 8.385805 -0.637278
29.163969 8.362634 -0.211811
27.573671 7.776579 0.200013
29.046190 8.191874 0.210694
27.298866 7.699077 0.594136
29.059774 8.195704 0.632461
29.278307 8.119593 -0.636440
28.089144 7.789809 -0.203504
27.601892 7.525140 0.199734
27.258909 7.431632 0.591833
29.705362 7.959528 -0.644189
28.667980 7.681562 -0.207204
28.517490 7.508029 0.205877
27.893156 7.343655 0.604189
29.676897 7.674967 -0.642095
29.353521 7.591337 -0.211672
29.231293 7.423802 0.210555
28.615112 7.267313 0.618430
29.073385 7.248809 -0.627644
29.020838 7.235708 -0.208809
30.592678 7.627612 -0.220119
29.013281 7.099504 0.208530
28.978491 7.090991 0.624922
28.668900 6.882794 -0.617592
28.664766 6.881802 -0.205808
28.889193 6.802502 0.207204
28.153687 6.629313 0.605864
29.098051 6.717814 -0.625550
28.538603 6.588656 -0.204481
28.147694 6.369173 0.201479
28.210464 6.383377 0.605864
29.048197 6.439830 -0.623246
28.975760 6.423771 -0.207204
27.801548 6.036308 0.198617
27.991531 6.077557 0.600000
28.868584 6.136207 -0.618220
28.678589 6.095822 -0.204691
28.460157 5.919722 0.202945
28.552492 5.938927 0.610890
28.783875 5.856145 -0.615288
28.240742 5.745644 -0.201200
28.736309 5.716007 0.204551
29.113129 5.790961 0.621780
28.431503 5.526524 -0.606702
28.584288 5.556222 -0.203294
29.128944 5.530303 0.206994
28.916996 5.490063 0.616545
28.950506 5.365659 -0.616754
29.142965 5.401330 -0.206925
30.002670 5.425366 0.212859
28.196421 5.098743 0.600210
28.602390 5.043373 -0.608377
28.440556 5.014837 -0.201619
28.127085 4.833117 0.199245
28.200428 4.845720 0.599372
27.964926 4.679724 -0.593927
28.088730 4.700441 -0.198826
28.197800 4.592303 0.199455
28.458733 4.634799 0.603979
28.656429 4.538733 -0.607749
28.523745 4.517717 -0.201619
28.029249 4.314114 0.197989
30.233242 4.653341 0.213557
27.845919 4.285897 0.590157
28.447746 4.251544 -0.602513
28.482964 4.256807 -0.201060
28.323132 4.106659 0.199804
27.872366 4.041301 0.589948
28.285753 3.975303 -0.598325
28.330879 3.981645 -0.199734
28.823587 3.922718 0.203085
28.817966 3.921953 0.609215
28.844717 3.797479 -0.609424
28.552916 3.759063 -0.201060
28.846802 3.669777 0.203015
28.841177 3.669061 0.609006
28.896605 3.548057 -0.609843
28.941940 3.553623 -0.203574
29.185570 3.454340 0.205179
28.812527 3.410187 0.607749
28.956268 3.299150 -0.610472
28.932108 3.296397 -0.203294
28.558542 3.127669 0.200572
28.552975 3.127059 0.601676
29.083385 3.056787 -0.612566
28.880213 3.035433 -0.202736
27.748995 2.794177 0.194707
28.012169 2.820677 0.589739
28.601412 2.754003 -0.601885
28.258610 2.720995 -0.198198
27.692659 2.544598 0.194149
28.075541 2.579780 0.590576
28.982908 2.535676 -0.609424
28.530321 2.496080 -0.199943
28.501080 2.368257 0.199664
28.625048 2.378558 0.601676
29.452446 2.317958 -0.618849
29.547909 2.325471 -0.206925
29.866915 2.219495 0.209089
28.535040 2.120520 0.599372
28.803331 2.014125 -0.604817
29.008455 2.028469 -0.203015
28.747616 1.884218 0.201130
29.011374 1.901506 0.609006
28.829790 1.763306 -0.605026
28.665733 1.753271 -0.200502
28.643160 1.626476 0.200292
29.066790 1.650532 0.609843
30.042173 1.574444 -0.630157
28.430290 1.489968 -0.198756
28.606321 1.374060 0.199943
28.610729 1.374272 0.600000
29.175798 1.273843 -0.611728
30.933737 1.350596 -0.648587
37.476067 1.636240 -0.785760
28.961702 1.264495 -0.202387
28.747118 1.129477 0.200851
28.731524 1.128865 0.602304
29.775314 1.039777 -0.624084
37.448952 1.307746 -0.784922
29.221476 1.020436 -0.204132
29.225651 0.892924 0.204132
29.299898 0.895193 0.614032
29.693306 0.777547 -0.622199
29.479176 0.771939 -0.205877
30.022121 0.655085 0.209647
28.157120 0.614391 0.589948
29.668972 0.517874 -0.621571
29.394806 0.513088 -0.205249
28.496864 0.373044 0.198966
28.111423 0.367999 0.588901
28.322708 0.247169 -0.593299
30.732088 0.268195 -0.643770
28.558216 0.249224 -0.199385
28.889021 0.126053 0.201689
28.443489 0.124109 0.595812
28.803682 0.000000 -0.603351
28.759298 0.000000 -0.200781
28.689028 -0.125180 0.200292
28.973368 -0.126421 0.606911
29.752340 -0.259645 -0.623246
29.638149 -0.258648 -0.206925
29.016808 -0.379851 0.202596
29.191095 -0.382132 0.611519
29.589001 -0.516478 -0.619896
29.804733 -0.520244 -0.208111
29.842169 -0.651158 0.208391
31.371767 -0.684534 0.219072
29.686420 -0.647760 0.621990
29.753271 -0.779117 -0.623456
29.769070 -0.779531 -0.207902
30.035252 -0.917660 0.209787
29.719610 -0.908016 0.622828
33.472252 -1.168877 -0.701571
37.788673 -1.319610 -0.792042
30.320778 -1.058825 -0.211811
37.646133 -1.314632 -0.262984
30.106037 -1.182869 0.210345
29.940327 -1.176359 0.627644
31.343258 -1.368476 -0.657173
37.815670 -1.651068 -0.792880
37.713150 -1.646592 -0.263543
29.814898 -1.432112 0.208391
29.050127 -1.395378 0.609215
31.320137 -1.641419 -0.656964
37.869713 -1.984667 -0.794346
29.678547 -1.555387 -0.207483
37.807194 -1.981391 -0.264311
29.531706 -1.676932 0.206506
28.966972 -1.644864 0.607749
31.274685 -1.912842 -0.656335
37.880886 -2.316894 -0.794974
29.793598 -1.822255 -0.208391
37.868313 -2.316125 -0.264869
30.304237 -1.986245 0.212021
29.370523 -1.925046 0.616545
31.815313 -2.224743 -0.668063
37.909092 -2.650862 -0.796021
30.325209 -2.120545 -0.212230
37.876583 -2.648589 -0.265078
30.844196 -2.292120 0.215930
37.814804 -2.810125 0.264729
29.811241 -2.215358 0.626178
31.735512 -2.358356 0.666597
37.757584 -2.805873 0.793089
32.332905 -2.544655 -0.679372
37.954285 -2.987067 -0.797487
31.741074 -2.498077 -0.222283
37.911842 -2.983727 -0.265497
37.828705 -3.143323 0.265009
30.318838 -2.519301 0.637278
31.771641 -2.779658 -0.668063
37.996494 -3.324262 -0.798953
37.924210 -3.317938 -0.265777
30.869200 -2.836481 0.216419
37.919327 -3.484297 0.265846
29.817816 -2.739872 0.627225
31.537188 -3.036686 -0.663665
33.517590 -3.227377 -0.705341
33.882462 -3.262510 -0.237642
37.993347 -3.658343 -0.266475
30.912918 -3.112767 0.216908
33.857952 -3.409317 0.237572
37.907375 -3.817072 0.265986
30.140934 -3.035033 0.634555
37.840302 -3.810318 0.796650
31.469715 -3.307600 -0.662828
31.326675 -3.292566 -0.219910
33.793030 -3.551791 -0.237223
38.039536 -3.998116 -0.267033
37.942207 -4.155347 0.266475
37.815548 -4.141476 0.796859
31.270782 -3.562856 -0.659267
33.770683 -3.847683 -0.237293
38.052876 -4.335577 -0.267382
34.041557 -4.029084 0.239318
38.043526 -4.502748 0.267452
37.897110 -4.485418 0.799372
31.615585 -3.881906 -0.667225
38.293957 -4.701907 -0.808168
32.167637 -3.949689 -0.226263
33.577019 -4.122739 -0.236176
38.162468 -4.685762 -0.268429
33.806705 -4.300756 0.237921
38.072224 -4.843399 0.267941
33.730690 -4.291086 0.712252
37.965622 -4.829837 0.801676
31.976997 -4.209851 -0.675602
33.652172 -4.430392 -0.710995
32.032803 -4.217198 -0.225565
33.668648 -4.432561 -0.237084
38.229183 -5.032967 -0.269197
30.706186 -4.178928 0.216349
31.924921 -4.344791 0.224936
38.107773 -5.186240 0.268499
33.682053 -4.583926 0.712042
38.050812 -5.178488 0.804398
32.166752 -4.520742 -0.680419
38.344669 -5.388992 -0.811100
32.074001 -4.507707 -0.226123
38.233318 -5.373343 -0.269546
30.995127 -4.494080 0.218653
38.169926 -5.534376 0.269267
31.117710 -4.511853 0.658639
33.413197 -4.844683 0.707226
38.014069 -5.511777 0.804608
30.899967 -4.618031 -0.654451
38.355511 -5.732270 -0.812356
31.212580 -4.664752 -0.220329
30.846010 -4.747655 0.217885
31.284662 -4.815170 0.663037
30.690620 -4.860917 -0.650890
31.091671 -4.924437 -0.219770
38.321373 -6.069510 -0.270873
31.158716 -5.074519 0.220398
31.211849 -5.083172 0.662409
30.459681 -5.097202 -0.646911
32.421959 -5.425575 -0.688587
38.496143 -6.442045 -0.817592
31.165865 -5.215377 -0.220608
38.424751 -6.430098 -0.271990
31.192089 -5.359781 0.220957
34.000854 -5.842415 0.240853
31.609705 -5.431540 0.671833
38.201630 -6.564240 0.811938
30.542036 -5.385385 -0.649634
32.353687 -5.704828 -0.688168
31.000992 -5.466311 -0.219770
31.449175 -5.686937 0.223121
38.386494 -6.941409 0.272339
31.511911 -5.698282 0.670786
34.276459 -6.198194 0.729634
38.251110 -6.916928 0.814241
30.749468 -5.699077 -0.655079
30.863619 -5.720234 -0.219142
31.565363 -5.992871 0.224308
31.549385 -5.989838 0.672671
33.101318 -6.284482 0.705760
30.826147 -5.991996 -0.657801
30.626022 -5.953095 -0.217815
31.031290 -6.172507 0.220887
38.445847 -7.647354 0.273665
30.554567 -6.077681 0.652566
33.947338 -6.752546 0.725027
38.350101 -7.628309 0.819058
28.940628 -5.888037 -0.618639
30.733496 -6.252800 -0.656964
30.670897 -6.240064 -0.218513
34.296528 -6.977708 -0.244344
38.598293 -7.852911 -0.274992
30.418201 -6.326995 0.216908
34.334290 -7.141542 0.244833
38.514709 -8.011071 0.274643
30.637402 -6.372589 0.655498
30.599525 -6.504130 -0.655288
32.072678 -6.817258 -0.228916
34.488644 -7.330788 -0.246159
38.694576 -8.224786 -0.276179
30.537727 -6.630391 0.218164
30.580626 -6.639705 0.655498
30.580647 -6.779566 -0.656126
30.635422 -6.791709 -0.219072
32.373188 -7.176963 -0.231499
38.631092 -8.564307 -0.276248
30.517717 -6.905455 0.218444
30.609282 -6.926173 0.657383
38.449314 -8.700191 0.825760
30.520319 -7.046171 -0.656126
38.839615 -8.966831 -0.834974
30.545757 -7.052044 -0.218863
32.825729 -7.578416 -0.235199
38.710781 -8.937088 -0.277365
30.378426 -7.153170 0.217885
30.732574 -7.236561 0.661362
38.517902 -9.069762 0.828901
30.107693 -7.228217 -0.648587
30.726141 -7.376694 -0.220608
33.069496 -7.939283 -0.237433
30.742228 -7.522575 0.220957
30.483740 -7.459324 0.657383
29.539024 -7.364906 -0.637697
30.660597 -7.644546 -0.220608
38.781776 -9.669382 -0.279041
30.675411 -7.790562 0.220957
30.572529 -7.764433 0.660733
32.849720 -8.342767 0.709948
29.328440 -7.584850 -0.634555
31.390142 -8.118043 -0.679163
30.631445 -7.921830 -0.220887
32.887173 -8.505201 -0.237153
38.850819 -10.047504 -0.280158
30.548237 -8.042680 0.220538
30.194221 -7.949475 0.654032
32.959366 -8.677477 0.713927
38.663685 -10.179299 0.837487
29.135592 -7.806858 -0.631833
29.440702 -7.888612 -0.212789
29.994507 -8.177442 0.217047
29.998304 -8.178476 0.651309
29.018183 -8.047455 -0.630786
30.713800 -8.517691 -0.667644
29.447828 -8.166606 -0.213347
29.421539 -8.297732 0.213417
29.386936 -8.287973 0.639582
28.841137 -8.270062 -0.628482
30.753628 -8.818460 -0.670157
29.529240 -8.467373 -0.214464
33.124271 -9.498232 -0.240574
29.645617 -8.640909 0.215581
29.428673 -8.577676 0.642095
29.026693 -8.598099 -0.634136
31.480734 -9.325018 -0.687749
33.155178 -9.821012 -0.241412
29.540356 -8.890638 0.215372
29.467583 -8.868735 0.644608
38.897591 -11.706846 0.850891
30.269968 -9.254458 -0.663037
30.065489 -9.191942 -0.219491
33.249905 -10.165517 -0.242738
39.040264 -12.122324 0.285394
29.350874 -9.113688 0.643770
30.493179 -9.614463 -0.669739
32.152283 -10.137576 -0.706178
33.360207 -10.518433 -0.244204
36.097305 -11.381437 -0.264241
39.130054 -12.337658 -0.286441
32.647331 -10.450494 0.239318
39.113941 -12.520472 0.286720
38.973011 -12.475359 0.857173
28.221167 -9.169613 -0.621571
32.576050 -10.584600 -0.717487
39.308052 -12.771961 -0.865760
32.173458 -10.453790 -0.236176
33.409801 -10.855502 -0.245252
39.201595 -12.737370 -0.287768
32.659355 -10.769441 0.240086
39.126652 -12.902035 0.287628
39.014580 -12.865079 0.860524
30.434513 -10.183246 -0.672252
30.592176 -10.235999 -0.225215
33.019825 -11.048279 -0.243087
32.611481 -11.070106 0.240435
39.154606 -13.291198 0.288675
32.529385 -11.042237 0.719582
39.090172 -13.269324 0.864713
32.528160 -11.200343 -0.720629
39.457291 -13.586234 -0.874137
32.421043 -11.163460 -0.239387
32.485313 -11.344378 0.240225
32.252445 -11.263059 0.715603
39.114468 -13.659384 0.867854
33.249100 -11.774123 -0.738849
39.469166 -13.976766 -0.877069
32.708862 -11.582816 -0.242250
39.373177 -13.942773 -0.291607
32.676834 -11.732183 0.242389
39.321377 -14.117816 0.291677
32.444633 -11.648813 0.722095
39.191383 -14.071145 0.872252
33.079319 -12.039888 -0.737383
33.743538 -12.281644 -0.250697
39.362766 -14.326875 -0.292445
33.764683 -12.456450 0.251256
39.318642 -14.505412 0.292585
39.217178 -14.467980 0.875603
33.366310 -12.475152 -0.746178
39.584450 -14.800019 -0.885236
33.429016 -12.498597 -0.249161
39.423573 -14.739869 -0.293841
33.785610 -12.800223 0.252233
39.396286 -14.925918 0.294120
39.313812 -14.894670 0.880629
33.414848 -12.826758 -0.749739
39.687134 -15.234464 -0.890472
33.047943 -12.685916 -0.247137
39.536167 -15.176513 -0.295656
39.441612 -15.338004 0.295447
39.331425 -15.295155 0.883980
33.683033 -13.268099 -0.758325
39.692211 -15.635178 -0.893613
33.680294 -13.267021 -0.252722
39.569695 -15.586917 -0.296913
39.492020 -15.755718 0.296843
39.391460 -15.715599 0.888377
40.008480 -16.164474 -0.903875
39.645416 -16.017788 -0.298519
39.649189 -16.220911 0.299077
39.724739 -16.251820 0.899058
39.727345 -16.455605 -0.900733
39.679661 -16.435852 -0.299845
39.543015 -16.581762 0.299356
39.470764 -16.551466 0.896545
39.812305 -16.899321 -0.905969
39.718815 -16.859638 -0.301241
39.617313 -17.020941 0.301032
39.545288 -16.989996 0.901571
39.837521 -17.321848 -0.909948
39.753586 -17.285351 -0.302638
39.650326 -17.446562 0.302428
39.578541 -17.414974 0.905760
39.904049 -17.766426 -0.914974
39.820477 -17.729218 -0.304313
39.715385 -17.890478 0.304104
39.570911 -17.825396 0.909110
39.920345 -18.192749 -0.918953
39.846233 -18.158974 -0.305709
39.739376 -18.320105 0.305500
39.631756 -18.270489 0.914137
39.950348 -18.629152 -0.923351
39.867508 -18.590525 -0.307106
39.758881 -18.751505 0.306896
39.615490 -18.683878 0.917487
40.047951 -19.101892 -0.929425
39.956478 -19.058262 -0.309060
39.809891 -19.202013 0.308572
39.703075 -19.150490 0.923351
40.122353 -19.568979 -0.935079
40.004349 -19.511425 -0.310736
39.891926 -19.672522 0.310526
39.686882 -19.571404 0.926912
40.084267 -19.985277 -0.938220
40.047337 -19.966866 -0.312411
39.861610 -20.091906 0.311643
39.755630 -20.038488 0.932566
40.157764 -20.461403 -0.944084
40.040859 -20.401836 -0.313738
39.969238 -20.585510 0.313877
39.801456 -20.499098 0.937802
40.092964 -20.871077 -0.946807
40.012085 -20.828972 -0.314925
39.965069 -21.026640 0.315274
39.859951 -20.971334 0.943456
40.262409 -21.407902 -0.955184
40.181965 -21.365129 -0.317717
40.061935 -21.526054 0.317508
39.957249 -21.469803 0.950158
40.284927 -21.872931 -0.960210
40.196114 -21.824709 -0.319323
40.118038 -22.009510 0.319462
40.013798 -21.952322 0.956021
40.363590 -22.373903 -0.966702
40.249020 -22.310394 -0.321278
40.168736 -22.495573 0.321417
40.064953 -22.437452 0.961885
40.445259 -22.882828 -0.973404
40.305191 -22.803579 -0.323302
40.170582 -22.959377 0.323023
40.075947 -22.905291 0.966912
40.417198 -23.334881 -0.977592
40.347141 -23.294432 -0.325257
40.253754 -23.475296 0.325327
40.185452 -23.435463 0.974451
40.530762 -23.874443 -0.985341
40.409424 -23.802969 -0.327421
40.322365 -23.989286 0.327561
40.219990 -23.928381 0.980315
40.552261 -24.366257 -0.990995
40.414452 -24.283453 -0.329166
40.350857 -24.485500 0.329515
40.248970 -24.423676 0.986179
40.644966 -24.907269 -0.998535
40.567631 -24.859877 -0.332168
40.441765 -25.026125 0.332029
40.306358 -24.942331 0.992880
40.663467 -25.409353 -1.004398
40.552673 -25.340122 -0.333844
40.517834 -25.564848 0.334472
40.349281 -25.458500 0.999372
40.743736 -25.956623 -1.011938
40.599876 -25.864973 -0.336078
40.528683 -26.068924 0.336427
40.436695 -26.009756 1.007121
40.851070 -26.528994 -1.020315
40.741623 -26.457920 -0.339150
40.642517 -26.646402 0.339289
40.500816 -26.553499 1.014451
40.918140 -27.083126 -1.027854
40.776024 -26.989061 -0.341384
40.666187 -27.172277 0.341453
40.575130 -27.111435 1.022200
41.011784 -27.662796 -1.036231
40.837395 -27.545172 -0.343897
40.766415 -27.756863 0.344316
40.626240 -27.661423 1.029529
41.024242 -28.195181 -1.042723
40.892143 -28.104393 -0.346410
40.744480 -28.265451 0.346201
40.687248 -28.225748 1.037278
41.046898 -28.741346 -1.049634
40.940220 -28.666651 -0.348923
40.863747 -28.879641 0.349342
40.733311 -28.787458 1.044817
41.185211 -29.377125 -1.059686
41.079269 -29.301558 -0.352274
40.959141 -29.486362 0.352344
40.796989 -29.369631 1.052985
41.283173 -29.993980 -1.068901
41.145603 -29.894030 -0.355067
41.022839 -30.079189 0.355137
40.829399 -29.937353 1.060524
41.309181 -30.567186 -1.076440
41.172546 -30.466082 -0.357580
41.079281 -30.675354 0.357929
40.919067 -30.555717 1.069739
41.392185 -31.191248 -1.085655
41.224560 -31.064934 -0.360373
41.096581 -31.250566 0.360442
40.969196 -31.153700 1.078116
41.467415 -31.819067 -1.094870
41.300968 -31.691347 -0.363444
41.201828 -31.901865 0.363793
41.011978 -31.754866 1.086493
41.534817 -32.450554 -1.104084
41.369556 -32.321442 -0.366516
41.267399 -32.532593 0.366865
41.110176 -32.408649 1.096545
41.563026 -33.060726 -1.112461
41.430267 -32.955120 -0.369588
41.325073 -33.166878 0.369937
41.176666 -33.047768 1.105969
41.607040 -33.692715 -1.121467
41.483040 -33.592304 -0.372660
41.405766 -33.829929 0.373288
41.250591 -33.703148 1.115812
41.712589 -34.385208 -1.132357
30.817934 -25.404345 -0.278832
41.589550 -34.283779 -0.376290
41.508759 -34.522469 0.376918
41.285439 -34.336735 1.124817
41.778561 -35.056374 -1.142409
41.641163 -34.941082 -0.379501
41.572258 -35.193516 0.380269
41.350498 -35.005779 1.134870
41.896782 -35.783234 -1.154137
30.407894 -25.970795 -0.279181
41.730061 -35.640839 -0.383132
41.627182 -35.868275 0.383620
41.460011 -35.724232 1.146388
41.914921 -36.436085 -1.163351
30.693291 -26.681271 -0.283928
41.726875 -36.272621 -0.385994
41.696018 -36.566429 0.387181
41.507488 -36.401093 1.156440
30.498276 -26.982595 -0.852985
41.888073 -37.059437 -0.390462
41.583576 -37.114761 1.167540
31.160658 -28.057182 -0.878325
41.956184 -37.777519 -1.182618
41.823170 -37.657753 -0.392905
30.696098 -27.882372 0.289513
41.613338 -37.798893 1.177592
30.818806 -28.240232 -0.875603
30.883795 -28.299784 -0.292445
41.789276 -38.629608 0.397304
30.556568 -28.494461 -0.875184
41.949425 -39.118473 -0.400445
29.783838 -28.017838 0.856545
41.605602 -39.482243 -1.201467
41.454136 -39.338505 -0.398979
30.822519 -29.506144 0.297890
30.664846 -29.355206 0.889215
29.155640 -28.155273 -0.849006
40.857506 -39.455635 -0.396536
40.204948 -39.509293 -0.393534
38.969017 -39.655159 -1.164608
38.829426 -39.513111 -0.386762
38.447853 -39.813919 -1.159372
38.316422 -39.677818 -0.385086
37.858082 -39.894093 -1.152043
37.238789 -39.585999 0.379431
37.087673 -39.425354 1.133823
33.614880 -36.047546 -0.344106
33.409760 -36.142471 0.343618
36.477539 -39.461178 1.125655
36.602203 -39.944298 -1.134870
36.440449 -39.767769 -0.376569
35.997643 -39.630314 0.373777
36.078300 -40.069012 -1.129425
35.877911 -39.846455 -0.374335
35.444016 -39.711666 0.371612
35.303959 -39.554745 1.110577
35.442398 -40.060345 -1.120420
35.310162 -39.910877 -0.372031
34.832390 -39.718731 0.368820
34.720127 -39.590717 1.103037
34.822536 -40.058743 -1.111833
34.671875 -39.885429 -0.368960
34.249470 -39.748466 0.366307
34.112270 -39.589237 1.094660
34.166630 -40.003983 -0.367284
33.746235 -39.862659 0.364631
33.629837 -39.725166 1.090262
33.674683 -40.131924 -1.097383
33.604118 -40.047829 -0.364980
33.115738 -39.817348 0.361559
33.064533 -39.755779 1.083142
33.108536 -40.522823 1.096126
0.151872 -0.210963 0.005445
0.199494 -0.287569 0.002443
0.153865 -0.221796 0.005654
0.140670 -0.206602 0.005236
0.177778 -0.266064 0.002234
0.166635 -0.249386 0.006283
0.148007 -0.225748 0.005654
0.173108 -0.269126 0.002234
0.162257 -0.252256 0.006283
0.149408 -0.236798 0.001955
0.117369 -0.186019 0.004607
0.126288 -0.204080 0.001676
0.115742 -0.187036 0.004607
0.129690 -0.213723 0.001745
0.140038 -0.230776 0.005654
0.117595 -0.197659 0.001606
0.102236 -0.171844 0.004188
0.130953 -0.224548 0.005445