# This PCD file was generated using the MATLAB® pcwrite function
# from Computer Vision System Toolbox®.
# .PCD v.7 - Point Cloud Data file format
VERSION .7
FIELDS x y z
SIZE 4 4 4
TYPE F F F
COUNT 1 1 1
WIDTH 836
HEIGHT 1
VIEWPOINT 0 0 0 1 0 0 0
POINTS 836
DATA ascii
25.729118 28.575081 -0.805445
25.876184 28.238899 -0.802304
26.080715 27.968143 -0.801048
27.595463 29.079550 -0.279879
27.849691 28.839199 -0.839791
28.153818 29.154131 -0.282950
27.995184 28.488106 -0.836650
28.435196 28.935865 -0.283230
28.341694 28.341694 -0.839582
28.707836 28.707836 -0.283439
28.894569 28.394615 -0.848587
28.828880 28.330063 -0.282183
28.990229 27.995537 -0.844189
28.413229 27.438337 -0.275760
28.602491 27.142750 -0.825969
28.506517 27.051676 -0.274364
29.021063 27.062578 -0.831205
28.653740 26.720045 -0.273526
29.683647 27.200050 -0.843351
29.446138 26.982416 -0.278832
29.384932 26.458311 -0.828273
29.227173 26.316265 -0.274573
29.434992 26.041882 -0.823247
29.395796 26.007202 -0.274014
29.510218 25.652842 -0.819058
29.440504 25.592239 -0.272339
29.580908 25.264481 -0.814870
29.541052 25.230442 -0.271222
29.647078 24.876852 -0.810681
29.576256 24.817425 -0.269546
29.677887 24.464563 -0.805655
29.606514 24.405727 -0.267871
29.703773 24.053642 -0.800629
29.694023 24.045746 -0.266754
29.724764 23.644144 -0.795603
29.652300 23.586504 -0.264520
29.835423 23.309986 -0.793089
29.730921 23.228342 -0.263403
29.879066 22.927013 -0.788901
29.837292 22.894958 -0.262565
29.918310 22.545063 -0.784712
29.844282 22.489279 -0.260890
29.953175 22.164183 -0.780524
29.910786 22.132816 -0.259773
29.983683 21.784420 -0.776335
29.949080 21.759279 -0.258446
30.009855 21.405823 -0.772147
29.901733 21.328699 -0.256422
30.097235 21.074310 -0.769634
29.996616 21.003857 -0.255654
30.115206 20.697607 -0.765445
30.203489 20.758284 -0.255863
30.360987 20.478745 -0.767121
30.093330 20.298208 -0.253420
30.205057 19.992290 -0.758744
30.169254 19.968594 -0.252582
30.097206 19.732592 0.251256
30.007727 19.673927 0.751623
30.286137 19.668047 -0.756440
30.208178 19.617420 -0.251465
30.167334 19.404282 0.250418
30.052141 19.330187 0.748482
30.287977 19.295568 -0.752252
30.243280 19.267094 -0.250348
30.234034 19.076254 0.249580
30.168951 19.035191 0.747226
30.277155 18.919268 -0.747854
30.206738 18.875265 -0.248672
30.229284 18.706450 0.248184
30.163879 18.665976 0.743037
30.381432 18.617765 -0.746388
30.336197 18.590046 -0.248393
30.220398 18.338188 0.246788
30.154676 18.298307 0.738849
30.439905 18.290140 -0.743875
30.360126 18.242205 -0.247276
30.241776 17.991964 0.245671
30.184326 17.957787 0.735707
30.460526 17.942621 -0.740524
30.345840 17.875065 -0.245880
30.328526 17.687073 0.245112
30.227612 17.628222 0.732985
30.512041 17.616137 -0.738011
30.431391 17.569572 -0.245321
30.412264 17.382040 0.244554
30.284813 17.309196 0.730681
30.525381 17.270430 -0.734660
30.479115 17.244253 -0.244484
30.388296 17.018263 0.243157
30.286417 16.961208 0.727121
30.491301 16.901604 -0.730262
30.453516 16.880659 -0.243087
30.404142 16.680285 0.242110
30.336859 16.643370 0.724817
30.576128 16.601482 -0.728796
30.529362 16.576092 -0.242529
30.398798 16.333864 0.240923
30.331223 16.297554 0.721257
30.578596 16.258928 -0.725445
30.496267 16.215153 -0.241133
30.433983 16.012093 0.240086
30.366114 15.976386 0.718744
30.648371 15.954533 -0.723770
30.530169 15.893000 -0.240295
30.465876 15.690957 0.239248
30.371054 15.642120 0.715603
30.643902 15.613848 -0.720419
30.596418 15.589654 -0.239736
30.503418 15.374988 0.238480
30.434977 15.340490 0.713927
30.671621 15.292307 -0.717906
30.588112 15.250669 -0.238619
30.564678 15.072831 0.237921
30.495953 15.038939 0.712252
30.696072 14.971474 -0.715393
30.648130 14.948092 -0.238061
30.586967 14.753402 0.237084
30.517969 14.720120 0.709739
30.744337 14.664296 -0.713508
26.589514 12.682548 -0.205668
30.696177 14.641326 -0.237433
30.569839 14.417672 0.235967
31.477179 14.845601 0.729006
30.735218 14.332067 -0.710367
27.007315 12.593718 -0.208042
30.750275 14.339088 -0.236874
31.611694 14.573191 0.243018
31.605532 14.570350 0.729006
31.823463 14.502789 -0.732566
26.688513 12.162657 -0.204760
27.816837 12.676864 -0.213417
31.793272 14.489029 -0.243925
26.677507 12.017341 0.204272
31.874424 14.358381 0.244065
31.840864 14.343263 0.731519
34.666706 15.616212 0.796440
32.012745 14.252993 -0.734032
26.738825 11.904891 -0.204341
31.973312 14.235435 -0.244344
26.680679 11.739779 0.203504
32.025967 14.091763 0.244274
28.679571 12.619313 0.656335
32.135906 13.973089 -0.734032
26.749990 11.631227 -0.203643
32.188023 13.995751 -0.245042
26.708611 11.474924 0.202945
28.715115 12.336987 0.654660
35.081951 14.891404 -0.798325
26.804447 11.377813 -0.203294
34.996742 14.855235 -0.265428
26.733955 11.210478 0.202387
29.159285 12.227503 0.220747
28.747919 12.055003 0.652985
29.465294 12.204925 -0.668063
31.284937 12.958645 -0.709320
35.090485 14.534955 -0.795603
26.865763 11.128163 -0.203015
28.999872 12.012140 -0.219142
27.848835 11.393259 0.210066
29.518267 12.076241 0.668063
34.829704 14.249208 0.788273
29.524328 11.928603 -0.667016
31.100197 12.565295 -0.702618
28.667826 11.582554 -0.215861
29.349667 11.709330 0.220608
29.232512 11.662590 0.659267
29.031963 11.435995 -0.653613
29.177183 11.493198 -0.218932
28.975418 11.267924 0.217047
28.913862 11.243986 0.649843
28.962646 11.117719 -0.649843
28.230783 10.836782 -0.211113
28.221693 10.692243 0.210694
29.001532 10.987698 0.649634
28.543507 10.671980 -0.638325
29.120428 10.887682 -0.217047
28.313925 10.445559 0.210694
28.796158 10.623464 0.642932
28.832842 10.494296 -0.642723
29.204935 10.629727 -0.216978
28.582819 10.262280 0.212021
28.436102 10.209603 0.632880
30.797935 11.057589 0.685445
29.413389 10.415827 -0.653613
29.202322 10.341084 -0.216279
29.011148 10.131146 0.214534
28.222071 9.855588 0.626178
27.432932 9.445916 -0.607749
35.751671 12.310287 -0.792042
29.452187 10.141201 -0.217466
29.486685 10.009381 0.217396
28.240730 9.586436 0.624712
27.647053 9.250574 -0.610681
28.069696 9.391989 -0.206645
28.537764 9.410343 0.209787
28.209373 9.302056 0.622199
28.059523 9.117091 -0.618011
30.332048 9.855480 -0.668063
28.388346 9.223932 -0.208391
28.999746 9.282891 0.212579
27.689596 8.863509 0.609006
30.346197 9.713894 0.667435
28.757795 9.067298 -0.631623
28.725254 9.057038 -0.210276
29.270647 9.088778 0.213976
28.844826 8.956556 0.632671
28.874069 8.827689 -0.632461
28.908388 8.838181 -0.211043
29.214790 8.792654 0.212998
28.471926 8.569077 0.622828
28.834972 8.541307 -0.629948
28.955650 8.577054 -0.210834
28.282379 8.243562 0.205668
28.228874 8.227966 0.615917
29.244778 8.385805 -0.637278
29.510015 8.461861 -0.214325
28.276245 7.974726 0.205109
28.309223 7.984026 0.616126
27.996960 7.764244 -0.608587
27.462799 7.616108 -0.198966
27.775551 7.572484 0.200990
28.657545 7.812943 0.622199
28.334047 7.592085 -0.614451
27.740713 7.433102 -0.200502
28.091999 7.396007 0.202806
28.685961 7.552383 0.621362
29.405874 7.604877 -0.636231
28.646791 7.408564 -0.206575
28.659460 7.278575 0.206436
29.109310 7.392823 0.629110
29.102488 7.256065 -0.628273
28.914108 7.209097 -0.208042
28.877296 7.066229 0.207553
27.958805 6.841476 0.602932
28.805002 6.915469 -0.620524
28.937023 6.947165 -0.207762
28.538784 6.719992 0.204691
27.316763 6.432244 0.587854
28.883560 6.801176 0.621571
28.786322 6.645846 -0.618849
28.489887 6.577408 -0.204132
28.430536 6.433174 0.203504
27.791161 6.288497 0.596859
29.448877 6.663601 0.632461
28.511353 6.320815 -0.611728
27.931149 6.192186 -0.199734
28.202202 6.123298 0.201479
28.939238 6.283324 0.620314
28.956598 6.154915 -0.620105
28.091715 5.971078 -0.200502
28.607012 5.950267 0.203992
29.130003 6.059050 0.623246
28.548744 5.808308 -0.610262
28.760090 5.851306 -0.204900
29.158035 5.799894 0.207553
28.779736 5.724645 0.614660
28.686670 5.576124 -0.612147
29.133986 5.663073 -0.207204
28.814568 5.470617 0.204760
28.838417 5.475145 0.614869
29.471518 5.462223 -0.627854
29.575586 5.481511 -0.209996
28.280640 5.113973 0.200641
28.924452 5.230393 0.615707
28.563007 5.036429 -0.607540
28.401163 5.007891 -0.201340
28.324190 4.866986 0.200641
28.229988 4.850799 0.600000
28.201582 4.719326 -0.598953
28.335295 4.741702 -0.200572
28.582718 4.654991 0.202177
28.241640 4.599443 0.599372
28.340439 4.488685 -0.601047
28.010159 4.436373 -0.197989
28.236801 4.346059 0.199455
28.596909 4.401485 0.606074
28.961922 4.328388 -0.613403
27.859898 4.163690 -0.196662
28.352821 4.110963 0.200013
28.822222 4.179023 0.610053
28.612471 4.021221 -0.605236
28.439806 3.996954 -0.200502
28.783953 3.917324 0.202806
27.748066 3.776346 0.586597
28.874454 3.801394 -0.610053
28.840427 3.796914 -0.203085
29.015438 3.691230 0.204202
27.908897 3.550460 0.589320
29.273689 3.594357 -0.617801
28.872463 3.545093 -0.203085
28.927380 3.423781 0.203364
28.782742 3.406662 0.607121
29.035736 3.308204 -0.612147
29.240107 3.331489 -0.205458
28.995916 3.175569 0.203643
28.871004 3.161889 0.608377
28.486803 2.994084 -0.600000
28.054779 2.948676 -0.196941
28.505154 2.870318 0.200013
28.599072 2.879775 0.602095
28.034161 2.699383 -0.589948
27.989859 2.695117 -0.196313
28.568947 2.625118 0.200292
28.792362 2.645646 0.605655
28.455040 2.489493 -0.598325
28.211546 2.468190 -0.197709
28.939556 2.404692 0.202736
28.395887 2.359516 0.596859
29.641819 2.332862 -0.622828
29.109276 2.290950 -0.203853
28.730078 2.135014 0.201130
28.485189 2.116815 0.598325
29.282057 2.047601 -0.614869
29.197989 2.041722 -0.204341
28.887312 1.893374 0.202107
28.781916 1.886467 0.604189
28.779894 1.760254 -0.603979
29.104902 1.780132 -0.203574
29.102407 1.652555 0.203504
28.717428 1.630694 0.602513
28.514605 1.494387 -0.598116
28.919607 1.515612 -0.202177
28.816074 1.384135 0.201409
28.640690 1.375711 0.600629
28.986021 1.265557 -0.607749
28.691965 1.252718 -0.200502
29.136808 1.144788 0.203574
29.111149 1.143780 0.610262
29.255745 1.021633 -0.613194
29.181501 1.019040 -0.203853
29.665434 0.906361 0.207204
28.800240 0.879927 0.603561
29.723289 0.778332 -0.622828
29.669106 0.776913 -0.207204
28.622490 0.624545 0.199873
28.626905 0.624641 0.599791
29.489038 0.514733 -0.617801
28.175022 0.491797 -0.196732
30.244656 0.527922 -0.211183
28.566856 0.373961 0.199455
28.521299 0.373364 0.597487
29.002533 0.253101 -0.607540
28.558216 0.249224 -0.199385
28.759026 0.125486 0.200781
29.113337 0.127032 0.609843
29.013636 0.000000 -0.607749
28.809298 0.000000 -0.201130
29.409004 -0.128322 0.205319
28.713428 -0.125287 0.601466
29.242472 -0.255195 -0.612566
28.818201 -0.251493 -0.201200
30.036694 -0.393202 0.209717
28.371346 -0.371401 0.594346
30.510693 -0.399407 0.639163
29.908882 -0.522061 -0.626597
29.714750 -0.518673 -0.207483
29.942142 -0.653340 0.209089
30.106228 -0.656920 0.630786
29.983143 -0.785136 -0.628273
30.118940 -0.788692 -0.210345
29.635448 -0.905445 0.206994
29.709616 -0.907711 0.622618
30.434769 -1.062806 -0.637906
37.848621 -1.321703 -0.793299
30.110912 -1.051496 -0.210345
29.676378 -1.165988 0.207343
29.540722 -1.160658 0.619267
30.024803 -1.310911 -0.629529
37.905563 -1.654993 -0.794765
30.270424 -1.321635 -0.211532
29.375416 -1.411002 0.205319
29.729195 -1.427996 0.623456
29.832506 -1.563455 -0.625759
29.279104 -1.534453 -0.204691
29.202244 -1.658224 0.204202
30.025036 -1.704945 0.629948
30.137060 -1.843262 -0.632461
29.045015 -1.776469 -0.203155
30.761765 -1.881470 -0.215162
29.705536 -1.947004 0.207832
30.118753 -1.974087 0.632252
30.438978 -2.128501 -0.639163
30.165602 -2.109384 -0.211113
30.614834 -2.275075 0.214325
37.914528 -2.817536 0.265428
30.090410 -2.236104 0.632042
38.043987 -2.994127 -0.799372
37.951717 -2.986865 -0.265777
30.195198 -2.509027 0.211532
29.950190 -2.488669 0.629529
38.145889 -3.337333 -0.802095
30.482815 -2.666901 -0.213627
38.033787 -3.327525 -0.266545
30.092491 -2.765111 0.210974
30.206095 -2.775550 0.635393
37.882069 -3.480873 0.796859
34.035084 -3.277206 -0.716231
38.095409 -3.668171 -0.801676
30.299122 -2.917474 -0.212510
29.957771 -3.016589 0.210206
37.967072 -3.823083 0.266405
29.852457 -3.005984 0.628482
33.895817 -3.562594 -0.713927
38.131550 -4.007787 -0.803142
38.059425 -4.000207 -0.267173
38.061489 -4.168411 0.267312
30.272316 -3.315358 0.637906
34.022373 -3.876360 -0.717278
38.263992 -4.359632 -0.806702
34.237652 -3.900888 -0.240574
38.172100 -4.349162 -0.268220
38.053455 -4.503923 0.267522
29.735878 -3.519473 0.627225
33.878094 -4.159707 -0.714974
34.112980 -4.188547 -0.239946
38.261723 -4.697949 -0.269128
33.846386 -4.305804 0.238201
38.101982 -4.847184 0.268150
29.664360 -3.773783 0.626388
32.254539 -4.246391 -0.681466
38.360500 -5.050256 -0.810472
30.833183 -4.059266 -0.217117
38.219269 -5.031662 -0.269128
33.866970 -4.609092 0.238619
38.206860 -5.199725 0.269197
29.917587 -4.071605 0.632461
38.090439 -5.183881 0.805236
31.681629 -4.452562 -0.670157
38.384274 -5.394558 -0.811938
31.093660 -4.369929 -0.219212
31.697762 -4.595957 0.223610
33.597847 -4.871456 0.237014
38.189716 -5.537245 0.269407
30.642782 -4.442992 0.648587
38.152588 -5.531862 0.807540
31.414143 -4.694875 -0.665341
31.341148 -4.683966 -0.221236
33.437813 -4.997314 -0.236036
31.280880 -4.814588 0.220957
33.662773 -5.181196 0.237782
38.209126 -5.880947 0.269896
30.415094 -4.681331 0.644608
38.162151 -5.873717 0.808796
31.194231 -4.940681 -0.661571
31.239820 -4.947902 -0.220817
31.484417 -5.127563 0.222702
38.217987 -6.224194 0.811100
31.297840 -5.237462 -0.664712
38.584892 -6.456896 -0.819477
31.392706 -5.253337 -0.222214
33.379971 -5.735728 0.236455
38.396328 -6.597696 0.271990
38.319870 -6.584558 0.814451
31.201714 -5.501704 -0.663665
31.621407 -5.575707 -0.224168
34.122757 -6.016763 -0.241901
33.968258 -6.142461 0.240993
38.406174 -6.944967 0.272479
33.794384 -6.111020 0.719372
38.300304 -6.925823 0.815288
30.995228 -5.744626 -0.660315
38.643272 -7.162107 -0.823247
31.768192 -5.887887 -0.225565
38.581982 -7.150748 -0.273945
33.373028 -6.336067 0.237153
33.680836 -6.394506 0.718116
38.366096 -7.284031 0.818011
31.287411 -6.081656 -0.667644
31.745050 -6.170612 -0.225774
33.502121 -6.512152 -0.238270
30.786100 -6.123736 0.219142
33.689152 -6.701189 0.239806
34.221901 -6.807159 0.730890
38.359905 -7.630260 0.819267
32.310829 -6.573712 -0.690681
34.309437 -6.980334 -0.733404
38.786709 -7.891245 -0.829110
34.100548 -6.937835 -0.242948
30.946873 -6.436959 0.220678
33.717503 -7.013251 0.240435
38.544083 -8.017180 0.274852
32.644005 -6.789963 0.698430
34.601665 -7.197157 0.740315
38.487625 -8.005438 0.823456
32.242455 -6.853345 -0.690472
30.664181 -6.517873 -0.218863
33.305115 -7.079221 -0.237712
34.557114 -7.345341 -0.246648
30.889523 -6.706773 0.220678
33.032936 -7.172154 0.708063
38.514000 -8.362209 0.825550
30.766102 -6.820681 -0.660105
38.838299 -8.610244 -0.833299
30.645185 -6.793874 -0.219142
30.868832 -6.984904 0.220957
30.472763 -6.895282 0.654451
38.517570 -8.715637 0.827226
30.705408 -7.088902 -0.660105
33.228474 -7.671398 -0.714346
38.946774 -8.991570 -0.837278
31.023188 -7.162267 -0.222283
38.788727 -8.955083 -0.277924
30.845636 -7.263184 0.221236
38.671417 -9.105909 0.277365
30.450357 -7.170107 0.655288
32.961124 -7.761315 0.709320
38.605488 -9.090385 0.830786
30.963190 -7.433604 -0.667016
33.315807 -7.998418 -0.717697
30.687246 -7.367356 -0.220329
38.884125 -9.335253 -0.279181
30.781080 -7.532083 0.221236
30.464317 -7.454571 0.656964
32.901852 -8.051032 0.709529
30.926243 -7.710779 -0.667644
30.990490 -7.726797 -0.222981
30.694796 -7.795485 0.221097
33.098431 -8.405931 0.238410
38.787674 -9.850815 0.279390
33.392372 -8.480582 0.721676
38.712284 -9.831667 0.836650
30.567396 -7.905266 -0.661362
32.677498 -8.450975 -0.707016
31.125189 -8.049520 -0.224448
33.178539 -8.735180 0.239527
38.816277 -10.219473 0.280228
33.413776 -8.797113 0.723770
38.750702 -10.202209 0.839372
30.439304 -8.156187 -0.660105
30.232742 -8.100839 -0.218513
29.984859 -8.174811 0.216978
38.841393 -10.589378 0.281066
38.785591 -10.574165 0.842095
29.837090 -8.274557 -0.648587
33.372837 -9.255107 -0.725445
29.698366 -8.236086 -0.215162
29.575529 -8.341162 0.214534
38.845795 -10.955647 0.845446
30.253881 -8.675161 -0.659267
29.721487 -8.522499 -0.215861
29.501614 -8.598936 0.214534
29.419075 -8.574879 0.641885
38.883091 -11.333387 0.848377
29.994890 -8.884892 -0.655288
33.397953 -9.892924 -0.729634
29.703512 -8.798581 -0.216279
29.655262 -8.925220 0.216210
39.134987 -11.778295 0.285324
29.228243 -8.796702 0.639372
38.983753 -11.732779 0.852775
29.849287 -9.125843 -0.653822
29.549097 -9.034065 -0.215721
39.226665 -11.992795 -0.286371
29.490297 -9.156981 0.215581
39.173962 -12.163839 0.286371
29.331778 -9.107759 0.643351
39.042202 -12.122926 0.856336
29.749443 -9.379963 -0.653404
36.185619 -11.409283 -0.794765
39.313126 -12.395381 -0.863456
32.749844 -10.325986 -0.239736
39.196812 -12.358707 -0.286930
39.199657 -12.547909 0.287349
29.298792 -9.378617 0.644398
39.096794 -12.514983 0.859896
32.718678 -10.630942 -0.720629
39.384121 -12.796677 -0.867435
39.296696 -12.768271 -0.288466
39.250107 -12.942744 0.288535
29.481691 -9.721603 0.650262
39.071548 -12.883864 0.861781
32.586735 -10.903369 -0.719791
39.441612 -13.196979 -0.871205
32.640503 -10.921360 -0.240295
39.392406 -13.180514 -0.290002
32.649357 -11.082963 0.240714
39.296642 -13.339413 0.289722
32.766064 -11.122580 0.724817
39.156441 -13.291821 0.866179
32.745579 -11.275208 -0.725445
39.495102 -13.599255 -0.874974
32.581776 -11.218805 -0.240574
32.626923 -11.393831 0.241272
39.310909 -13.727983 0.290700
32.630001 -11.394906 0.723979
39.189980 -13.685754 0.869529
32.645939 -11.560534 -0.725445
39.506866 -13.990114 -0.877906
32.690010 -11.576139 -0.242110
39.377846 -14.138091 0.292096
39.266663 -14.098172 0.873927
33.934254 -12.351058 -0.756440
39.608753 -14.416407 -0.882932
33.969059 -12.363727 -0.252373
39.513111 -14.381597 -0.293562
39.440601 -14.550406 0.293492
39.292217 -14.495664 0.877278
34.078026 -12.741252 -0.762095
39.706192 -14.845536 -0.887959
34.084671 -12.743736 -0.254048
39.573437 -14.795901 -0.294958
39.499149 -14.964889 0.294888
39.388607 -14.923008 0.882304
33.638859 -12.912748 -0.754765
39.724468 -15.248795 -0.891309
39.620190 -15.208765 -0.296285
39.562771 -15.385119 0.296355
39.443241 -15.338637 0.886493
33.859772 -13.337719 -0.762304
39.813137 -15.682813 -0.896336
39.709255 -15.641891 -0.297960
39.603474 -15.800184 0.297681
39.493607 -15.756351 0.890681
40.054829 -16.183201 -0.904922
39.673229 -16.029026 -0.298728
39.871315 -16.311785 0.300753
39.641460 -16.217749 0.897173
39.875134 -16.516821 -0.904084
39.790524 -16.481773 -0.300683
39.690563 -16.643635 0.300473
39.581406 -16.597860 0.899058
39.913540 -16.942293 -0.908273
39.829273 -16.906525 -0.302079
39.764313 -17.084097 0.302149
39.618774 -17.021568 0.903247
39.975052 -17.381647 -0.913090
39.900311 -17.349150 -0.303755
39.714397 -17.474752 0.302917
39.651749 -17.447187 0.907435
40.004517 -17.811157 -0.917278
39.930099 -17.778025 -0.305151
39.824795 -17.939762 0.304941
39.716759 -17.891096 0.912461
40.111393 -18.279816 -0.923351
39.955425 -18.208736 -0.306547
39.812027 -18.353596 0.306058
39.704391 -18.303974 0.915812
40.131569 -18.713657 -0.927540
39.985325 -18.645464 -0.308013
39.903587 -18.819754 0.308013
39.760170 -18.752113 0.920838
40.183308 -19.166454 -0.932566
40.028683 -19.092701 -0.309619
39.917973 -19.254145 0.309409
39.811134 -19.202612 0.925864
40.230183 -19.621572 -0.937592
40.076248 -19.546494 -0.311294
39.936771 -19.694635 0.310876
39.857250 -19.655420 0.930891
40.155846 -20.020966 -0.939896
40.056286 -19.971327 -0.312481
40.004482 -20.163919 0.312760
39.898476 -20.110487 0.935917
40.211212 -20.488636 -0.945341
40.156685 -20.460854 -0.314645
40.040356 -20.622139 0.314436
39.934780 -20.567762 0.940943
40.332405 -20.995722 -0.952461
40.224960 -20.939789 -0.316600
40.142059 -21.119761 0.316670
40.036907 -21.064436 0.947644
40.394821 -21.478308 -0.958325
40.314404 -21.435549 -0.318764
40.202873 -21.601784 0.318625
40.133389 -21.564447 0.954346
40.451866 -21.963572 -0.964189
40.336723 -21.901052 -0.320440
40.293381 -22.105705 0.320859
40.145279 -22.024454 0.959163
40.512245 -22.456303 -0.970262
40.432682 -22.412203 -0.322744
40.308334 -22.573751 0.322534
40.204521 -22.515614 0.965236
40.584488 -22.961597 -0.976754
40.435741 -22.877441 -0.324349
40.387623 -23.083429 0.324768
40.249550 -23.004513 0.971100
40.625000 -23.454855 -0.982618
40.520340 -23.394430 -0.326653
40.383327 -23.550859 0.326374
40.289089 -23.495901 0.976964
40.694435 -23.970854 -0.989320
40.547279 -23.884172 -0.328538
40.459869 -24.071093 0.328678
40.357468 -24.010170 0.983665
40.757935 -24.489840 -0.996022
40.654453 -24.427660 -0.331121
40.521835 -24.589252 0.330912
40.419914 -24.527407 0.990367
40.815456 -25.011745 -1.002723
40.669945 -24.922575 -0.333006
40.603329 -25.126102 0.333355
40.442383 -25.026506 0.996231
40.866955 -25.536507 -1.009425
40.756199 -25.467299 -0.335519
40.661602 -25.655561 0.335659
40.518391 -25.565199 1.003561
40.946106 -26.085546 -1.016964
40.844452 -26.020786 -0.338102
40.730526 -26.198755 0.338102
40.604866 -26.117928 1.011310
41.018764 -26.637897 -1.024503
40.875809 -26.545059 -0.340267
40.801407 -26.750574 0.340616
40.634594 -26.641207 1.017802
41.051533 -27.171417 -1.031205
40.942795 -27.099445 -0.342780
40.832478 -27.283390 0.342850
40.708138 -27.200308 1.025550
41.144398 -27.752249 -1.039582
41.036362 -27.679375 -0.345572
40.898663 -27.846909 0.345433
40.791523 -27.773958 1.033718
41.230228 -28.336752 -1.047959
41.089931 -28.240326 -0.348086
40.974533 -28.425045 0.348155
40.843327 -28.334024 1.041257
41.276207 -28.901913 -1.055498
41.136814 -28.804306 -0.350599
41.059738 -29.018152 0.351018
40.929264 -28.925943 1.049844
41.282883 -29.446795 -1.062200
41.144394 -29.348013 -0.352833
41.088989 -29.579840 0.353461
40.967384 -29.492296 1.057383
41.339790 -30.035116 -1.070367
41.242680 -29.964561 -0.355905
41.184124 -30.197449 0.356533
41.030964 -30.085148 1.065760
41.494026 -30.703964 -1.081257
41.365467 -30.608835 -0.359256
41.271580 -30.818949 0.359605
41.111328 -30.699284 1.074765
41.583817 -31.335653 -1.090681
41.448174 -31.233438 -0.362327
41.327415 -31.426098 0.362467
41.192028 -31.323145 1.083980
41.562599 -31.892103 -1.097383
41.459637 -31.813097 -0.364841
41.359962 -32.024307 0.365190
41.241230 -31.932371 1.092566
41.629356 -32.524418 -1.106597
41.464115 -32.395317 -0.367354
41.487282 -32.705936 0.368820
41.298611 -32.557201 1.101571
41.750813 -33.210094 -1.117488
41.610260 -33.098297 -0.371194
41.543434 -33.342133 0.371892
41.356003 -33.191700 1.110786
41.824593 -33.868889 -1.127330
41.669552 -33.743336 -0.374335
41.591614 -33.981773 0.374963
41.436405 -33.854961 1.120838
41.897739 -34.537830 -1.137383
41.767021 -34.430077 -0.377896
41.693275 -34.675934 0.378594
41.500668 -34.515739 1.130681
42.023640 -35.262020 -1.149111
41.832668 -35.101776 -0.381247
41.755432 -35.348583 0.381945
41.587048 -35.206036 1.141362
42.109650 -35.965038 -1.160001
41.958179 -35.835670 -0.385226
41.831718 -36.044514 0.385505
41.679657 -35.913490 1.152461
42.216740 -36.698452 -1.171728
41.998566 -36.508797 -0.388507
41.914047 -36.757633 0.389205
41.725475 -36.592258 1.162514
30.925087 -27.360207 -0.864922
42.254303 -37.383450 -1.181781
42.120243 -37.264843 -0.392626
30.871101 -27.553513 0.288885
41.784969 -37.294510 1.173194
30.980953 -27.895374 -0.291049
41.887924 -38.048309 0.395070
41.702145 -37.879559 1.180105
42.207241 -38.675812 -1.199163
42.090137 -38.568504 -0.398560
41.832413 -39.009354 -0.399328
31.351057 -29.751041 -0.905341
31.052521 -29.467741 -0.298868
40.631283 -38.895992 1.178221
40.813580 -39.413216 -1.188482
40.656094 -39.261135 -0.394581
40.176395 -39.138115 0.391579
40.125801 -39.431515 -1.178430
39.990978 -39.299026 -0.391439
39.553947 -39.553947 -1.171728
38.648972 -38.987728 1.149948
38.661213 -39.341934 -0.385086
38.077049 -39.087185 1.143037
38.114975 -39.469212 -0.383062
37.665798 -39.346207 0.380269
37.485615 -39.157986 1.135498
37.507526 -39.524685 -0.380409
37.074348 -39.411194 0.377756
37.051662 -39.733044 -1.138011
36.888393 -39.557957 -0.377616
36.440098 -39.767387 -1.129844
36.325600 -39.642437 -0.375382
35.890064 -39.511879 0.372660
32.091751 -35.330265 0.999791
35.755348 -39.363567 1.113927
35.850845 -39.816399 -1.122304
35.710629 -39.660671 -0.372590
35.284210 -39.532616 0.369937
35.164154 -39.398109 1.106179
35.230408 -39.820728 -1.113718
35.098129 -39.671219 -0.369797
34.674152 -39.538292 0.367144
34.645439 -39.855019 -1.106179
34.488182 -39.674114 -0.367005
34.145031 -39.627258 0.365190
34.060059 -39.528645 1.092985
34.172955 -40.011391 -1.102200
34.036743 -39.851906 -0.365888
33.399513 -40.878963 1.105760
0.128507 -0.178507 0.004607
0.182395 -0.262921 0.002234
0.153865 -0.221796 0.005654
0.155556 -0.232806 0.001955
0.138862 -0.207822 0.005236
0.120622 -0.183978 0.001536
0.148007 -0.225748 0.005654
0.151469 -0.235485 0.001955
0.162257 -0.252256 0.006283
0.149408 -0.236798 0.001955
0.117369 -0.186019 0.004607
0.147336 -0.238093 0.001955
0.136786 -0.221043 0.005445
0.145253 -0.239369 0.001955
0.119292 -0.196587 0.004817
0.138046 -0.232034 0.001885
0.148242 -0.249173 0.006073
0.151099 -0.259094 0.006283