# This PCD file was generated using the MATLAB® pcwrite function
# from Computer Vision System Toolbox®.
# .PCD v.7 - Point Cloud Data file format
VERSION .7
FIELDS x y z
SIZE 4 4 4
TYPE F F F
COUNT 1 1 1
WIDTH 887
HEIGHT 1
VIEWPOINT 0 0 0 1 0 0 0
POINTS 887
DATA ascii
28.571198 31.179991 -0.885864
28.509212 31.112345 -0.294609
28.624012 30.695496 -0.879163
28.595495 30.664913 -0.292724
28.670563 30.212469 -0.872461
28.155273 29.155640 -0.849006
28.216335 29.218870 -0.283579
28.646887 29.151283 -0.856126
28.582384 29.085644 -0.284696
29.126410 29.126410 -0.862828
28.962387 28.962387 -0.285952
29.764544 29.249537 -0.874137
28.671968 28.175865 -0.280647
29.905863 29.388409 -0.292724
30.371058 29.328989 -0.884398
29.348349 28.341372 -0.284835
30.506458 29.459743 -0.296075
30.981197 29.400059 -0.894660
29.144833 27.657413 -0.280507
31.059774 29.474625 -0.298938
31.646046 29.510416 -0.906388
31.666843 29.529810 -0.302289
28.976015 26.551626 -0.823247
28.907940 26.489246 -0.273735
29.028301 26.137199 -0.818220
28.959648 26.075384 -0.272060
29.135475 25.776892 -0.814870
29.036306 25.689154 -0.270663
29.117855 25.311766 -0.808168
29.017876 25.224855 -0.268429
29.215992 24.952814 -0.804817
29.145651 24.892736 -0.267592
29.248821 24.542675 -0.799791
29.208563 24.508894 -0.266195
29.307589 24.159311 -0.795603
29.267008 24.125858 -0.264799
29.392984 23.801970 -0.792252
29.289917 23.718508 -0.263124
29.380491 23.370298 -0.786388
29.339264 23.337505 -0.261727
29.457260 23.014534 -0.783037
29.384205 22.957457 -0.260331
29.561794 22.683563 -0.780524
29.488226 22.627111 -0.259493
29.566986 22.280323 -0.775498
29.524836 22.248560 -0.258097
29.631702 21.926306 -0.772147
29.524942 21.847309 -0.256422
29.692501 21.572865 -0.768796
29.585030 21.494783 -0.255305
29.684280 21.173592 -0.763770
29.608660 21.119652 -0.253908
29.736887 20.821993 -0.760419
29.759069 20.837524 -0.253629
30.016333 20.629654 -0.762932
29.906811 20.554382 -0.253350
29.863672 20.143301 -0.754555
29.761724 20.074535 -0.250627
29.879913 19.777082 -0.750576
29.768999 19.703671 -0.249231
29.787786 19.529730 0.248672
29.656565 19.443695 0.742828
29.917204 19.428459 -0.747226
29.839172 19.377785 -0.248393
29.797287 19.166258 0.247346
29.682165 19.092211 0.739267
29.984423 19.102184 -0.744712
29.905931 19.052179 -0.247555
29.828093 18.820126 0.246229
29.754635 18.773777 0.736964
29.980404 18.733835 -0.740524
29.935368 18.705694 -0.246438
29.855139 18.474920 0.245112
29.789806 18.434492 0.733822
30.040449 18.408812 -0.738011
29.995150 18.381052 -0.245601
29.946833 18.172184 0.244554
29.846975 18.111589 0.731309
30.097113 18.084169 -0.735498
29.982981 18.015593 -0.244204
29.932396 17.807903 0.243157
29.900784 17.789097 0.728796
30.115950 17.739649 -0.732147
30.035660 17.692356 -0.243367
29.983000 17.485569 0.242320
29.925335 17.451941 0.725655
30.165709 17.416180 -0.729634
30.050348 17.349577 -0.242250
29.995539 17.143862 0.241203
29.928930 17.105793 0.722095
30.142509 17.053812 -0.725445
30.096167 17.027592 -0.241412
30.004406 16.803274 0.240086
29.937496 16.765802 0.718744
30.255205 16.770735 -0.724608
30.138660 16.706133 -0.240574
30.079762 16.502323 0.239527
30.012541 16.465443 0.717068
30.224678 16.410662 -0.720419
30.212996 16.404318 -0.240016
30.125729 16.187138 0.238759
30.058207 16.150858 0.714765
30.225494 16.071180 -0.717068
30.178413 16.046146 -0.238619
30.195042 15.886380 0.238201
30.091829 15.832077 0.712252
30.293644 15.769874 -0.715393
30.246332 15.745244 -0.238061
30.190287 15.549019 0.237084
30.086630 15.495633 0.708901
30.323210 15.450447 -0.712880
30.275663 15.426221 -0.237223
30.181953 15.212956 0.235967
30.077862 15.160491 0.705550
30.313726 15.113867 -0.709529
30.230146 15.072195 -0.235827
30.205938 14.895920 0.235129
30.173149 14.879750 0.704712
30.372576 14.813695 -0.707854
30.324572 14.790282 -0.235548
30.262724 14.597005 0.234570
30.193789 14.563755 0.702199
30.428501 14.513650 -0.706178
30.344177 14.473431 -0.234710
30.759769 14.507249 0.237433
31.233028 14.730453 0.723351
30.481508 14.213760 -0.704503
30.922468 14.419384 -0.238201
31.357420 14.455969 0.241063
31.423943 14.486635 0.724817
31.568731 14.386700 -0.726702
31.547588 14.377065 -0.242040
31.537081 14.206419 0.241482
34.564056 15.569972 0.264660
31.549164 14.211862 0.724817
31.720476 14.122866 -0.727330
31.708389 14.117485 -0.242320
34.561317 15.207344 0.263612
34.490524 15.176193 0.789320
31.870016 13.857478 -0.727959
34.719048 15.096272 -0.264311
34.545708 14.842008 0.262495
30.175673 12.964492 0.687958
34.557346 14.847007 0.787854
34.907093 14.817182 -0.794346
34.821850 14.780998 -0.264101
34.673912 14.539978 0.262495
30.398298 12.747065 0.690472
34.602612 14.510079 0.785969
34.914986 14.462261 -0.791623
34.801693 14.415334 -0.262984
34.725433 14.206550 0.261937
29.397972 12.027028 0.665341
34.644638 14.173495 0.784084
35.012054 14.145788 -0.790995
34.889080 14.096103 -0.262705
34.810932 13.888154 0.261658
29.529667 11.781142 0.665969
34.664856 13.829875 0.781781
35.022537 13.795745 -0.788482
34.936329 13.761786 -0.262146
28.863581 11.224433 0.216210
29.789757 11.584602 0.669529
34.774906 13.523221 0.781571
30.670725 11.773388 -0.688168
35.104259 13.475263 -0.787644
34.980408 13.427720 -0.261588
29.072645 11.014640 0.217047
34.917099 13.228905 0.260680
29.749475 11.271069 0.666388
29.021105 10.850547 -0.649006
30.650557 11.459774 -0.685445
35.068153 13.111444 -0.261378
29.308384 10.812433 0.218095
35.200081 12.985995 0.261937
29.396467 10.844930 0.656335
29.020739 10.562685 -0.646911
30.664841 11.161089 -0.683561
29.355282 10.684449 -0.218095
35.275200 12.839124 -0.262076
29.975725 10.762385 0.222353
29.160648 10.469743 0.649006
28.131678 9.961949 -0.625131
32.636517 11.557197 -0.725236
29.437977 10.424534 -0.218025
28.605200 9.989383 0.211532
27.363138 9.555635 0.607121
27.981213 9.634704 -0.619896
28.516146 9.818896 -0.210555
35.474991 12.215019 -0.261937
28.530310 9.684735 0.210345
27.928312 9.480385 0.617801
28.140074 9.415537 -0.621571
28.401602 9.503043 -0.209089
28.927130 9.538737 0.212649
28.959471 9.549401 0.638744
28.534946 9.271566 -0.628482
34.420696 11.183962 -0.758116
28.569042 9.282644 -0.209717
28.018801 8.968889 0.205389
29.203573 9.348138 0.642304
27.918709 8.802734 -0.613194
28.229334 8.900675 -0.206645
28.048252 8.709214 0.205040
28.730247 8.920979 0.630157
28.156998 8.608459 -0.616754
28.611940 8.747548 -0.208879
28.726440 8.645678 0.209438
28.807003 8.669924 0.630157
29.755238 8.813903 -0.650053
29.185762 8.645216 -0.212510
28.656790 8.352693 0.208391
28.910360 8.426601 0.630786
28.523991 8.179123 -0.621571
28.990946 8.313020 -0.210555
28.959572 8.167444 0.210066
29.309958 8.266263 0.637906
28.623182 7.937911 -0.622199
28.407133 7.877995 -0.205808
28.228989 7.696106 0.204272
29.081959 7.928652 0.631414
29.705362 7.959528 -0.644189
28.397528 7.609095 -0.205249
29.894676 8.010254 -0.216070
27.705191 7.294168 0.200013
28.067186 7.389473 0.607958
27.731346 7.171814 -0.600000
29.492989 7.627406 -0.638116
28.036873 7.250828 -0.202177
28.252392 7.175194 0.203504
28.198433 7.161490 0.609424
28.122704 7.011777 -0.607121
29.626333 7.386674 -0.639582
36.116188 9.004777 -0.779686
28.225214 7.037336 -0.203085
28.683033 7.018693 0.206157
28.881378 7.067228 0.622828
28.678621 6.885128 -0.617801
32.265881 7.746352 -0.695079
28.898130 6.937827 -0.207483
27.545961 6.486213 0.197570
28.533220 6.718682 0.614032
28.679163 6.621107 -0.616545
28.372965 6.550415 -0.203294
27.864851 6.305172 0.199455
28.327480 6.409854 0.608377
29.009153 6.431175 -0.622409
28.272842 6.267939 -0.202177
28.358555 6.157246 0.202596
28.460499 6.179380 0.610053
29.465124 6.263005 -0.630995
28.874214 6.137403 -0.206087
29.047571 6.041903 0.207134
28.092443 5.843236 0.601047
29.254135 5.951821 -0.625341
28.740492 5.847319 -0.204760
28.540155 5.676990 0.203155
28.897404 5.748051 0.617173
28.107637 5.463571 -0.599791
28.083670 5.458912 -0.199734
28.215288 5.356840 0.200502
27.836538 5.284932 0.593508
27.554590 5.106942 -0.587016
28.061411 5.200875 -0.199245
28.625046 5.176251 0.203085
27.419199 4.958199 0.583665
27.745796 4.892333 -0.590157
28.282990 4.987054 -0.200502
28.452311 4.889001 0.201549
28.279255 4.859265 0.601047
28.990437 4.851336 -0.615707
28.404333 4.753255 -0.201060
28.276756 4.605162 0.200013
28.705427 4.674976 0.609215
29.239038 4.631009 -0.620105
36.605576 5.797754 -0.776335
28.326212 4.486431 -0.200223
28.276333 4.352144 0.199734
27.934853 4.299585 0.592042
30.494560 4.557443 -0.645864
28.156595 4.208031 -0.198756
30.648855 4.580502 -0.216349
28.234066 4.093745 0.199175
28.634230 4.151766 0.606074
30.374762 4.268894 -0.642513
28.637856 4.024788 -0.201898
28.992029 3.945642 0.204272
28.441521 3.870721 0.601257
36.734890 4.836240 -0.776126
29.425365 3.873923 -0.207204
29.114635 3.703850 0.204900
28.384954 3.611022 0.599372
36.736000 4.510613 -0.775288
29.319099 3.599933 -0.206226
36.723312 4.509056 -0.258307
29.344458 3.473145 0.206296
28.564314 3.380809 0.602513
28.966202 3.300282 -0.610681
36.823631 4.195523 -0.776335
29.309656 3.339413 -0.205947
28.608244 3.133112 0.200921
28.364145 3.106379 0.597697
28.914354 3.039021 -0.609006
29.089056 3.057383 -0.204202
28.704142 2.890355 0.201409
28.420015 2.861745 0.598325
36.871342 3.550306 -0.775917
28.925508 2.785210 -0.202875
29.076796 2.671782 0.203853
28.921789 2.657539 0.608377
36.861080 3.224927 -0.775079
28.988560 2.536170 -0.203155
36.808498 3.220326 -0.257958
29.049177 2.413800 0.203504
28.575230 2.374418 0.600629
28.605253 2.251282 -0.601047
37.007423 2.912547 -0.777592
28.630768 2.253290 -0.200502
29.009300 2.155763 0.203085
28.654684 2.129411 0.601885
29.212242 2.042719 -0.613403
37.091270 2.593674 -0.778849
28.619415 2.001265 -0.200292
29.216597 1.914957 0.204411
29.839415 1.955779 0.626388
37.102512 2.269287 -0.778639
29.344448 1.794783 -0.205249
37.019917 2.264235 -0.258935
36.909641 2.095881 0.258097
30.104889 1.709479 0.631623
37.110920 1.944901 -0.778430
37.018295 1.940047 -0.258795
36.966476 1.775627 0.258376
29.419621 1.413126 0.616964
36.879379 1.771444 0.773404
37.176418 1.623158 -0.779477
37.073776 1.618676 -0.259075
28.787086 1.131048 0.201130
29.270990 1.150060 0.613613
37.229134 1.300070 -0.780315
28.382008 0.991122 -0.198268
37.116470 1.296136 -0.259284
28.705906 0.877045 0.200502
29.110027 0.889392 0.610053
34.780445 0.910758 -0.728796
37.289036 0.976448 -0.781362
28.459551 0.745240 -0.198756
37.186348 0.973759 -0.259703
29.772188 0.649631 0.207902
28.576927 0.623551 0.598744
34.717094 0.605989 -0.727330
37.276142 0.650658 -0.780943
34.923828 0.609598 -0.243855
37.233421 0.649912 -0.259982
37.085918 0.485481 0.258935
28.581282 0.374149 0.598744
31.360434 0.410531 0.656964
34.771049 0.303442 -0.728377
34.857822 0.304200 -0.243367
37.227676 0.324881 -0.259912
37.208740 0.162355 0.259773
29.333286 0.127991 0.614451
34.762375 0.000000 -0.728168
34.899151 0.000000 -0.243646
37.299091 0.000000 -0.260401
28.729027 -0.125355 0.200572
37.238739 -0.162486 0.259982
29.043352 -0.126726 0.608377
33.461384 -0.292013 -0.700943
34.761051 -0.303355 -0.728168
34.897820 -0.304549 -0.243646
37.347668 -0.325928 -0.260750
28.576855 -0.374092 0.199524
29.071131 -0.380562 0.609006
33.187664 -0.579293 -0.695288
32.224304 -0.562477 -0.225006
37.393391 -0.652704 -0.261099
28.702469 -0.626290 0.200432
32.851379 -0.716820 0.229404
37.350201 -0.814984 0.260820
30.586008 -0.667389 0.640838
37.242962 -0.812644 0.780315
30.812675 -0.806858 -0.645655
33.001446 -0.864173 -0.691519
34.880390 -0.913375 -0.730890
30.698729 -0.803874 -0.214395
32.743923 -1.000417 0.228706
37.371651 -1.141807 0.261029
37.274426 -1.138837 0.781152
31.024279 -1.083392 -0.650262
33.092564 -1.155618 -0.693613
30.780487 -1.074878 -0.215023
32.619320 -1.139092 -0.227868
37.466248 -1.308350 -0.261727
31.155203 -1.224091 0.217676
37.420216 -1.470244 0.261448
30.779495 -1.209330 0.645236
37.293037 -1.465248 0.781781
32.092381 -1.401184 -0.672880
34.869125 -1.522419 -0.731100
32.348392 -1.412361 -0.226053
35.025776 -1.529258 -0.244763
37.533325 -1.638740 -0.262286
32.242039 -1.548696 0.225355
37.475880 -1.800096 0.261937
30.817701 -1.480280 0.646283
37.258862 -1.789671 0.781362
32.108883 -1.682755 -0.673508
34.894447 -1.828740 -0.731938
32.264935 -1.690934 -0.225565
31.897837 -1.811290 0.223051
35.072643 -1.991569 0.245252
37.498676 -2.129329 0.262216
30.803610 -1.749156 0.646283
37.381569 -2.122679 0.784294
31.793600 -1.944580 -0.667225
32.219006 -1.970599 -0.225355
35.083584 -2.145804 -0.245391
31.621378 -2.072575 0.221236
37.508602 -2.458444 0.262426
31.764860 -2.081979 0.666807
37.401527 -2.451426 0.785131
31.236855 -2.184294 -0.655917
30.823978 -2.155422 -0.215721
30.963863 -2.301013 0.216768
35.331715 -2.625600 0.247346
37.595417 -2.793822 0.263194
31.605898 -2.348724 0.663875
37.488384 -2.785868 0.787435
31.186703 -2.454447 -0.655288
30.784058 -2.422758 -0.215581
31.151878 -2.588521 0.218234
31.185659 -2.591328 0.655498
31.014700 -2.713435 -0.652147
30.881283 -2.701762 -0.216419
31.526415 -2.896871 0.221027
31.062300 -2.854224 0.653404
33.033562 -3.035358 0.694870
31.537188 -3.036686 -0.663665
30.856529 -2.971146 -0.216419
35.076908 -3.377522 -0.246020
31.171604 -3.138815 0.218723
31.066051 -3.128187 0.654032
31.509487 -3.311780 -0.663665
31.187447 -3.277933 -0.218932
30.069471 -3.293143 0.211183
30.908371 -3.385017 0.651309
31.846928 -3.628499 -0.671414
37.965988 -4.325678 -0.800419
29.796494 -3.394882 -0.209368
37.854164 -4.312937 -0.265986
29.106127 -3.444937 0.204621
32.115051 -3.801067 0.225774
37.825054 -4.476891 0.265916
31.294653 -3.703966 0.660105
30.365252 -3.728384 -0.640838
30.033714 -3.687676 -0.211253
37.983814 -4.663826 -0.267173
29.313032 -3.729089 0.206296
33.122238 -4.213681 0.233104
31.876047 -4.055145 0.673089
37.757347 -4.803341 0.797278
30.093664 -3.961906 -0.635812
38.092869 -5.015021 -0.804817
29.583994 -3.894807 -0.208321
29.527084 -4.018460 0.208042
31.756477 -4.321867 0.223749
31.046926 -4.225301 0.656335
37.852684 -5.151524 0.800210
29.285706 -4.115838 -0.619477
32.582573 -4.579182 -0.689215
30.420294 -4.275293 -0.214464
31.984753 -4.637568 0.225634
37.981895 -5.507113 0.267941
30.088697 -4.362654 0.636859
29.911169 -4.470254 -0.633508
32.729244 -4.891418 -0.693194
38.226967 -5.713058 -0.809634
31.034561 -4.638146 -0.219072
32.468601 -4.852465 -0.229195
38.086071 -5.692002 -0.268848
30.401258 -4.679201 0.214744
30.988218 -4.769543 0.656754
37.944759 -5.840257 0.804189
29.811771 -4.721721 -0.632252
29.511408 -4.674148 -0.208600
29.836172 -4.859129 0.211043
31.889076 -5.193466 0.225565
30.728327 -5.004426 0.652147
29.167931 -4.881037 -0.619477
29.577984 -4.949657 -0.209368
33.384953 -5.586725 -0.236316
30.935850 -5.315752 0.219142
38.110523 -6.548586 0.269965
30.407589 -5.224979 0.646283
29.350681 -5.175317 -0.624294
29.691231 -5.235365 -0.210485
33.403866 -5.890003 -0.236804
38.249001 -6.744331 -0.271152
30.671801 -5.546365 0.217606
38.170010 -6.902262 0.270803
30.655983 -5.543505 0.652566
38.074024 -6.884905 0.810472
29.972868 -5.555142 -0.638534
38.436836 -7.123847 -0.818849
29.457600 -5.459643 -0.209159
38.316509 -7.101545 -0.272060
30.612408 -5.811947 0.217536
38.177094 -7.248147 0.271292
30.036745 -5.702654 0.640419
29.520870 -5.738276 -0.629948
33.152092 -6.444114 -0.707435
38.422276 -7.468534 -0.819896
28.466496 -5.533326 -0.202457
28.716694 -5.712105 0.204411
30.236874 -6.014488 0.215232
38.259502 -7.610288 0.272339
28.426729 -5.654428 0.607121
30.172144 -6.001613 0.644398
28.754482 -5.850165 -0.614660
38.453609 -7.823475 -0.821990
28.475918 -5.793491 -0.202875
28.244774 -5.874921 0.201409
30.656979 -6.376661 0.655917
29.113068 -6.188174 -0.623456
38.530563 -8.189924 -0.825131
28.805744 -6.122850 -0.205598
28.534452 -6.195437 0.203853
30.430235 -6.607052 0.217396
38.335842 -8.323527 0.273875
28.714523 -6.234534 0.615498
30.131197 -6.542124 0.645864
31.244997 -6.783954 0.669739
28.550396 -6.329470 -0.612566
28.487623 -6.315554 -0.203713
38.484650 -8.531841 -0.275201
28.537821 -6.457449 0.204272
38.408043 -8.690853 0.274922
29.614651 -6.701111 0.636021
28.270018 -6.526648 -0.607749
28.285275 -6.530170 -0.202666
38.496422 -8.887600 -0.275830
29.132532 -6.859800 0.208949
29.399338 -6.922625 0.632671
28.425861 -6.824445 -0.612356
30.438225 -7.307571 -0.655707
28.470297 -6.835114 -0.204411
28.683033 -7.018693 0.206157
28.988201 -7.093368 0.625131
28.384626 -7.077082 -0.612775
28.448378 -7.092977 -0.204691
28.862993 -7.330266 0.207902
32.419983 -8.233627 0.233523
38.516296 -9.781894 0.277435
29.215902 -7.419894 0.631414
28.428261 -7.352048 -0.615079
28.888821 -7.471157 -0.208321
28.391777 -7.474931 0.204970
30.760983 -8.098691 0.222074
28.637619 -7.539656 0.620314
28.256792 -7.571384 -0.612775
28.610025 -7.666033 -0.206785
28.431589 -7.751341 0.205738
30.110279 -8.209004 0.217885
28.580379 -7.791905 0.620524
30.422718 -8.294185 0.660524
28.295620 -7.847070 -0.615079
28.628763 -7.939459 -0.207413
30.239607 -8.528451 0.219351
28.366957 -8.000310 0.617383
30.262579 -8.534930 0.658639
29.071789 -8.336202 -0.633508
28.750637 -8.244112 -0.208809
31.288305 -8.971777 -0.227240
28.877596 -8.417051 0.209996
31.047256 -9.049450 0.225774
29.860601 -8.703571 0.651519
28.537804 -8.453282 -0.623456
28.226965 -8.361208 -0.205528
27.663563 -8.325788 0.201689
29.754791 -8.955175 0.650890
35.250046 -10.609059 0.771100
28.128315 -8.599689 -0.616126
27.713036 -8.472726 -0.202317
27.790403 -8.629149 0.203155
30.038338 -9.327152 0.658849
31.709257 -9.845985 0.695498
28.452673 -8.971093 -0.624922
27.742950 -8.747318 -0.203085
27.704519 -8.868286 0.203085
27.775293 -8.890942 0.610890
31.764956 -10.168042 0.698639
28.829710 -9.367340 -0.634974
31.796354 -10.331262 -0.700315
39.127392 -12.713261 -0.861781
28.226669 -9.171401 -0.207204
27.958462 -9.219317 0.205528
29.867310 -9.848762 0.219561
30.022900 -9.900068 0.662199
28.860641 -9.656635 -0.637487
32.093716 -10.738407 -0.708901
39.119251 -13.089119 -0.864084
30.042162 -10.051967 -0.221166
32.251701 -10.791268 -0.237433
31.579350 -10.719745 0.232825
33.047054 -11.217964 0.243646
39.003101 -13.239769 0.287558
32.112827 -10.900835 0.710367
32.877922 -11.320777 -0.728377
39.277679 -13.524390 -0.870158
30.151852 -10.382115 -0.222632
32.468315 -11.179738 -0.239736
39.124607 -13.471682 -0.288885
30.115705 -10.516875 0.222702
32.702446 -11.420206 0.241831
39.056011 -13.638969 0.288815
32.592243 -11.381721 0.723142
38.925694 -13.593460 0.863665
32.457455 -11.493787 -0.721257
32.567471 -11.532746 -0.241203
32.761539 -11.762594 0.243018
39.170792 -14.063751 0.290560
32.698692 -11.740030 0.727749
32.703526 -11.903111 -0.729006
32.587746 -11.860970 -0.242110
39.250004 -14.285833 -0.291607
33.314362 -12.290318 0.247905
39.168533 -14.450035 0.291468
32.885773 -12.132203 0.734241
33.047913 -12.356108 -0.739058
33.082455 -12.369023 -0.246578
39.273708 -14.683838 -0.292724
33.149734 -12.559311 0.247486
39.218616 -14.858604 0.292794
32.787998 -12.422261 0.734451
30.045362 -11.533335 -0.674137
33.237507 -12.758684 -0.745760
39.379120 -15.116228 -0.883561
33.514721 -12.865096 -0.250627
39.302776 -15.086923 -0.293911
32.982956 -12.826369 0.247067
39.292496 -15.280015 0.294330
33.339928 -12.965189 0.749320
39.210289 -15.248048 0.881257
30.017990 -11.824401 -0.675812
30.507648 -12.017282 -0.228916
32.694077 -12.878539 -0.245321
33.501343 -13.365681 0.251814
39.631336 -15.811300 0.297890
33.522671 -13.374189 0.756021
39.419319 -15.726713 0.889006
29.774614 -12.029725 -0.672671
39.554256 -15.980958 -0.893613
32.886410 -13.286972 -0.247625
39.441441 -15.935376 -0.296983
39.436321 -16.133825 0.297471
39.289829 -16.073895 0.889215
31.164860 -12.908907 -0.706597
30.893778 -12.796622 -0.233453
33.194183 -13.749480 -0.250837
39.476410 -16.351665 -0.298309
39.432354 -16.535358 0.298519
39.332466 -16.493471 0.893404
30.176735 -12.809264 -0.686702
31.778061 -13.488987 -0.723142
32.106426 -13.628369 -0.243506
39.543926 -16.785400 -0.299915
31.816965 -13.669646 0.241761
39.461121 -16.953835 0.299845
39.361568 -16.911064 0.897383
39.718330 -17.270021 -0.907226
31.436052 -13.668785 -0.239318
39.652710 -17.241489 -0.301870
31.550018 -13.882340 0.240644
39.494728 -17.378096 0.301241
39.395515 -17.334442 0.901571
30.843664 -13.732484 -0.707226
32.396351 -14.423784 -0.742828
39.730511 -17.689163 -0.910995
39.628635 -17.643806 -0.302847
31.473259 -14.177670 0.240993
39.560390 -17.820656 0.302917
39.425060 -17.759695 0.905760
39.811172 -18.142996 -0.916440
39.700642 -18.092625 -0.304592
39.594078 -18.253120 0.304383
39.486485 -18.203518 0.910786
39.805370 -18.561548 -0.920000
39.722504 -18.522907 -0.305989
39.650349 -18.700317 0.306058
39.506977 -18.632700 0.914974
39.885521 -19.024418 -0.925655
39.775963 -18.972162 -0.307664
39.701813 -19.149879 0.307734
39.631035 -19.115742 0.921676
39.834801 -19.428730 -0.928377
39.752693 -19.388683 -0.308781
39.712559 -19.584066 0.309130
39.642048 -19.549295 0.925864
40.012688 -19.949591 -0.936545
39.904152 -19.895475 -0.311294
39.718735 -20.019890 0.310526
39.612785 -19.966488 0.929215
40.015236 -20.388781 -0.940733
39.942848 -20.351898 -0.312970
39.720318 -20.457308 0.311923
39.685909 -20.439587 0.935079
40.128437 -20.889542 -0.947644
39.967735 -20.805885 -0.314576
39.894272 -20.989391 0.314715
39.789165 -20.934093 0.941781
40.191788 -21.370352 -0.953508
40.040699 -21.290016 -0.316600
39.885761 -21.431393 0.316111
39.781109 -21.375160 0.945969
40.205853 -21.829996 -0.958325
40.134598 -21.791309 -0.318834
40.012833 -21.951792 0.318625
39.873554 -21.875380 0.952671
40.258659 -22.315741 -0.964189
40.179050 -22.271610 -0.320719
40.055317 -22.432055 0.320510
39.960278 -22.378830 0.959372
40.236420 -22.764671 -0.968377
40.165936 -22.724794 -0.322185
40.109806 -22.924644 0.322534
40.006508 -22.865602 0.965236
40.382565 -23.314886 -0.976754
40.277859 -23.254433 -0.324698
40.150097 -23.414845 0.324489
40.012722 -23.334730 0.970262
40.487690 -23.849072 -0.984294
40.340496 -23.762367 -0.326863
40.219238 -23.927933 0.326723
40.082516 -23.846592 0.976964
40.526550 -24.350809 -0.990367
40.405880 -24.278303 -0.329097
40.282467 -24.444000 0.328957
40.172047 -24.376995 0.984294
40.610870 -24.886372 -0.997697
40.473843 -24.802402 -0.331400
40.373741 -24.984028 0.331470
40.195835 -24.873938 0.990158
40.629551 -25.388163 -1.003561
40.484829 -25.297729 -0.333285
40.382519 -25.479473 0.333355
40.281635 -25.415821 0.997697
40.710011 -25.935135 -1.011100
40.608307 -25.870346 -0.336148
40.469810 -26.031057 0.335938
40.327385 -25.939445 1.004398
40.817528 -26.507214 -1.019477
40.708076 -26.436134 -0.338870
40.575615 -26.602539 0.338731
40.408844 -26.493200 1.012147
40.851444 -27.038980 -1.026179
40.709312 -26.944906 -0.340825
40.607986 -27.133389 0.340965
40.500317 -27.061445 1.020315
40.912319 -27.595709 -1.033718
40.771072 -27.500437 -0.343338
40.658958 -27.683701 0.343408
40.568390 -27.622034 1.028063
40.966568 -28.155542 -1.041257
40.859180 -28.081738 -0.346131
40.752693 -28.271151 0.346271
40.613316 -28.174459 1.035393
41.046898 -28.741346 -1.049634
40.940220 -28.666651 -0.348923
40.822918 -28.850784 0.348993
40.725147 -28.781689 1.044608
41.120094 -29.330679 -1.058011
40.981575 -29.231874 -0.351437
40.894215 -29.439623 0.351786
40.764534 -29.346266 1.052147
41.186111 -29.923460 -1.066388
41.016163 -29.799986 -0.353950
40.990582 -30.055536 0.354857
40.829399 -29.937353 1.060524
41.309181 -30.567186 -1.076440
41.108238 -30.418495 -0.357022
41.047234 -30.651423 0.357650
40.887024 -30.531790 1.068901
41.360245 -31.167181 -1.084817
41.216576 -31.058916 -0.360303
41.096581 -31.250566 0.360442
40.945320 -31.135546 1.077487
41.435688 -31.794722 -1.094032
41.269234 -31.666998 -0.363165
41.170204 -31.877377 0.363514
41.011978 -31.754866 1.086493
41.495422 -32.419777 -1.103037
41.338036 -32.296814 -0.366237
41.235989 -32.507832 0.366586
41.078770 -32.383892 1.095707
41.563026 -33.060726 -1.112461
41.367661 -32.905323 -0.369029
41.325073 -33.166878 0.369937
41.137680 -33.016479 1.104922
41.638119 -33.717884 -1.122304
41.451954 -33.567131 -0.372380
30.580021 -24.984924 0.275690
41.398022 -33.823601 0.373218
41.211880 -33.671516 1.114765
41.712589 -34.385208 -1.132357
30.879663 -25.455231 -0.279390
41.520107 -34.226536 -0.375662
41.478004 -34.496895 0.376639
41.285439 -34.336735 1.124817
41.786217 -35.062801 -1.142618
30.679333 -25.743017 -0.279599
41.679462 -34.973221 -0.379850
41.564629 -35.187054 0.380199
41.411541 -35.057457 1.136545
41.866371 -35.757259 -1.153299
41.745270 -35.653828 -0.383271
41.649906 -35.887856 0.383830
41.460011 -35.724232 1.146388
41.914921 -36.436085 -1.163351
41.757065 -36.298862 -0.386273
29.794685 -26.129238 0.276667
29.909145 -26.229616 0.833299
30.558180 -27.035593 -0.854660
30.571627 -27.047491 -0.284975
41.740894 -37.255173 0.390602
41.546284 -37.081474 1.166493
30.194782 -27.187504 -0.851100
30.289845 -27.273098 -0.284556
30.429626 -27.640326 0.287000
41.613338 -37.798893 1.177592
29.904781 -27.402683 -0.849634
30.050692 -27.536386 -0.284556
30.069775 -27.796213 0.285883
29.401283 -27.417139 -0.842095
30.101786 -28.070368 -0.287349
29.578424 -27.824604 0.283509
29.305950 -27.810308 -0.846283
29.645329 -28.132366 -0.285324
29.263517 -28.259451 -0.852147
29.319576 -28.313585 -0.284556
29.229725 -28.723970 -0.858430
29.485056 -28.974882 -0.288605
28.871908 -28.871908 -0.855288
38.656010 -38.994827 1.150158
28.808060 -29.315296 -0.860943
38.654205 -39.334805 -0.385017
38.156162 -39.511860 -1.150577
27.111855 -28.075148 -0.272479
38.156654 -39.512371 -0.383481
37.714203 -39.396770 0.380758
37.562153 -39.582249 -1.143037
37.562595 -39.582714 -0.380967
37.067497 -39.403908 0.377686
36.915295 -39.586807 -1.133823
36.335022 -39.307003 1.121257
35.755348 -39.363567 1.113927
30.009777 -33.329235 -0.313110
35.790924 -39.749847 -0.373428
35.337479 -39.592300 0.370495
35.164154 -39.398109 1.106179
35.151138 -39.731133 -0.370356
34.555328 -39.402798 1.097802
34.125446 -39.604530 0.364980
33.981747 -39.437756 1.090472
34.075710 -39.897530 -0.366307
33.617012 -39.710018 0.363235
33.461884 -39.526772 1.084817
29.611698 -35.604198 0.323302
32.930279 -39.594357 1.078744
0.151872 -0.210963 0.005445
0.153865 -0.221796 0.005654
0.140670 -0.206602 0.005236
0.155556 -0.232806 0.001955
0.166635 -0.249386 0.006283
0.159001 -0.242517 0.002025
0.148007 -0.225748 0.005654
0.151469 -0.235485 0.001955
0.162257 -0.252256 0.006283
0.149408 -0.236798 0.001955
0.117369 -0.186019 0.004607
0.147336 -0.238093 0.001955
0.157830 -0.255050 0.006283
0.129690 -0.213723 0.001745
0.140038 -0.230776 0.005654
0.117595 -0.197659 0.001606
0.107348 -0.180436 0.004398
0.110806 -0.190002 0.004607