# This PCD file was generated using the MATLAB® pcwrite function
# from Computer Vision System Toolbox®.
# .PCD v.7 - Point Cloud Data file format
VERSION .7
FIELDS x y z
SIZE 4 4 4
TYPE F F F
COUNT 1 1 1
WIDTH 1119
HEIGHT 1
VIEWPOINT 0 0 0 1 0 0 0
POINTS 1119
DATA ascii
30.597525 33.391338 -0.948692
30.488644 33.272514 -0.315064
30.587736 32.801331 -0.939477
30.586882 32.800415 -0.313110
30.576887 32.221313 -0.930472
30.541548 32.184078 -0.309759
30.551319 31.636818 -0.921257
30.682312 31.772465 -0.308362
30.545935 31.083769 -0.912880
30.537872 31.075565 -0.304173
30.561522 30.561522 -0.905341
30.383638 30.383638 -0.299985
30.427721 29.901239 -0.893613
30.540640 30.012203 -0.298938
30.428593 29.384550 -0.886074
30.369785 29.327763 -0.294749
30.596832 29.035311 -0.883561
30.356178 28.806936 -0.292166
30.739367 28.664923 -0.880419
30.613720 28.547756 -0.292236
30.899887 28.314529 -0.877906
30.743715 28.171425 -0.291119
30.997202 27.910006 -0.873718
30.899208 27.821774 -0.290281
30.940063 27.373455 -0.865341
30.901159 27.339037 -0.288047
30.936306 26.892521 -0.858639
30.866869 26.832161 -0.285534
30.956940 26.439724 -0.852775
30.886938 26.379936 -0.283579
31.002678 26.014336 -0.847749
30.901480 25.929420 -0.281624
31.043364 25.590174 -0.842723
30.879663 25.455231 -0.279390
31.016863 25.116961 -0.836021
30.820858 24.958239 -0.276877
30.890594 24.571487 -0.826807
30.920095 24.594954 -0.275830
30.914761 24.153257 -0.821781
30.818350 24.077934 -0.273037
30.751564 23.596504 -0.811938
30.836893 23.661980 -0.271362
30.788631 23.200897 -0.807540
30.786648 23.199404 -0.269128
30.861334 22.836185 -0.804189
30.795006 22.787106 -0.267452
30.962378 22.495485 -0.801676
30.863247 22.423460 -0.266335
30.929605 22.061872 -0.795812
30.862368 22.013912 -0.264660
30.989916 21.699371 -0.792461
30.955002 21.674925 -0.263822
30.980349 21.292204 -0.787435
30.978149 21.290691 -0.262426
30.864109 21.014624 0.260680
30.882885 21.027407 0.782618
30.999205 20.909227 -0.783247
30.938929 20.868570 -0.260541
30.888344 20.638931 0.259354
30.815819 20.590471 0.776335
30.988739 20.510998 -0.778430
30.944748 20.481882 -0.259075
30.900021 20.258942 0.257958
30.868914 20.238546 0.773194
31.099470 20.196232 -0.776754
30.988123 20.123922 -0.257958
30.873789 19.858688 0.256282
30.808910 19.816957 0.767330
31.139616 19.838123 -0.773404
31.036049 19.772144 -0.256910
30.952885 19.529816 0.255514
30.853840 19.467323 0.764189
31.141975 19.459665 -0.769215
31.063244 19.410469 -0.255724
31.020094 19.195816 0.254676
30.886520 19.113159 0.760838
31.174212 19.103582 -0.765864
31.095030 19.055058 -0.254607
31.049643 18.841385 0.253559
31.017948 18.822153 0.760000
31.125488 18.702080 -0.760629
31.088701 18.679976 -0.253210
31.041002 18.467457 0.252163
30.974806 18.428074 0.754974
31.158291 18.353636 -0.757487
31.147135 18.347065 -0.252373
31.071405 18.120308 0.251116
31.039438 18.101665 0.752671
31.135443 17.976057 -0.753089
31.098215 17.954563 -0.250697
31.019987 17.729383 0.249440
30.944500 17.686239 0.746597
31.186707 17.644590 -0.750576
22.289267 12.610660 -0.178790
31.105755 17.598789 -0.249510
22.064886 12.356930 0.176556
31.060101 17.394493 0.248533
31.027876 17.376446 0.744922
31.208332 17.299061 -0.747435
22.249783 12.333256 -0.177603
31.196924 17.292738 -0.249022
31.114275 17.069876 0.247765
31.003025 17.008842 0.740733
22.519142 12.226897 -0.536754
31.243883 16.964045 -0.744712
31.170883 16.924408 -0.247625
30.645441 16.466391 0.242878
30.842028 16.572020 0.733404
31.214180 16.596874 -0.740524
31.167290 16.571941 -0.246438
30.637526 16.119183 0.241691
30.675793 16.139315 0.726074
31.260275 16.273069 -0.738220
22.786753 11.862033 -0.179349
31.213150 16.248537 -0.245671
30.732574 15.828316 0.241342
30.699917 15.811497 0.723351
31.222929 15.908877 -0.734032
30.774616 15.680449 -0.241133
23.020435 11.603255 0.179977
30.762375 15.505513 0.240504
30.729595 15.488991 0.720838
23.254244 11.594138 -0.544293
30.931095 15.421676 -0.723979
23.178236 11.556242 -0.180815
30.883432 15.397911 -0.240923
30.788891 15.183401 0.239667
30.755989 15.167175 0.718325
30.920721 15.081043 -0.720629
30.908773 15.075216 -0.240086
30.812136 14.862010 0.238829
30.887175 14.898204 0.718325
23.389879 11.156401 -0.542828
30.969933 14.771900 -0.718744
23.123671 11.029426 -0.178860
30.930843 14.753256 -0.239248
23.180620 10.932691 0.178930
30.859257 14.554171 0.238201
30.907497 14.576921 0.715812
31.079540 14.492627 -0.718325
23.164663 10.801860 -0.178441
30.922468 14.419384 -0.238201
30.885197 14.238271 0.237433
30.924572 14.256423 0.713299
23.135241 10.543336 -0.532566
31.077459 14.162814 -0.715393
31.010725 14.132401 -0.237921
30.971802 13.951779 0.237153
30.938417 13.936741 0.710786
30.852798 13.736550 -0.707435
23.130407 10.298321 -0.176766
30.950167 13.779902 -0.236525
30.945927 13.616533 0.236036
30.949045 13.617906 0.708273
30.971495 13.466789 -0.707435
30.922512 13.445491 -0.235408
30.879820 13.267017 0.234640
30.919729 13.284164 0.704922
30.977398 13.149125 -0.704922
30.992643 13.155597 -0.235059
30.468777 12.776619 0.230661
30.084818 12.615611 0.683351
31.017071 12.847692 -0.703246
30.967688 12.827236 -0.234012
30.218161 12.362576 0.227938
29.749601 12.170883 0.673299
25.232409 10.194555 -0.570053
31.081656 12.557804 -0.702199
30.967186 12.511556 -0.233174
30.640680 12.224392 0.230312
29.845392 11.907104 0.673089
26.101791 10.281769 -0.587644
30.938902 12.187158 -0.696545
30.954239 12.193198 -0.232267
24.595089 9.564507 0.184235
30.755510 11.960164 0.230382
30.134523 11.718676 0.677278
25.117140 9.641566 -0.563561
30.698727 11.784137 -0.688796
23.534988 9.034236 -0.175998
24.991339 9.593276 -0.186888
30.956772 11.883192 -0.231499
30.942869 11.723205 0.231010
26.430475 10.013611 0.592042
30.721804 11.639450 0.688168
23.477222 8.777774 -0.525026
30.772297 11.505291 -0.688168
30.890696 11.549558 -0.230242
30.968941 11.425046 0.230451
26.113518 9.633785 0.583037
30.822206 11.370913 0.688168
22.989235 8.367397 -0.512461
24.952763 9.082063 -0.556231
31.012451 11.287609 -0.691309
22.815182 8.304047 -0.169505
23.877008 8.690520 -0.177394
31.037291 11.296650 -0.230591
22.945312 8.238209 0.170203
31.029818 11.140842 0.230172
22.997297 8.256873 0.511833
30.882622 11.087995 0.687330
22.665556 8.026295 -0.503665
31.015528 10.983174 -0.689215
23.273251 8.241490 -0.172367
24.772015 8.772230 -0.183468
31.049854 10.995330 -0.229963
24.725088 8.634388 0.182839
30.965364 10.813590 0.228985
22.709801 7.930617 0.503875
25.815172 9.015061 0.572775
30.855501 10.775224 0.684608
22.224266 7.652429 -0.492356
26.100042 8.986965 -0.578220
31.044020 10.689313 -0.687749
25.793118 8.881283 -0.190449
31.031164 10.684886 -0.229125
30.963861 10.510815 0.228287
30.882086 10.483056 0.683142
21.977322 7.353509 -0.485445
31.155081 10.424344 -0.688168
31.018911 10.378782 -0.228357
22.668766 7.475038 0.166643
26.030619 8.583611 0.191356
30.968933 10.212023 0.227659
23.309999 7.686485 0.514136
30.896433 10.188115 0.681466
22.240334 7.226322 -0.489843
31.092728 10.102639 -0.684817
21.293636 6.918722 -0.156310
31.032217 10.082979 -0.227799
22.771229 7.289128 0.166922
31.009251 9.926140 0.227310
30.907988 9.893724 0.679791
24.133282 7.609195 -0.530053
31.179705 9.830923 -0.684817
21.191074 6.681520 -0.155124
31.090414 9.802771 -0.227589
21.019476 6.526721 0.153658
22.776670 7.072344 0.166503
30.865492 9.583990 0.225634
30.916763 9.599911 0.678116
21.244431 6.495074 -0.465341
31.015722 9.482458 -0.679372
21.133820 6.461257 -0.154286
23.228077 7.101536 -0.169575
31.012207 9.481383 -0.226402
20.970303 6.311345 0.152890
30.919226 9.305631 0.225425
21.464041 6.459943 0.469529
30.453665 9.165513 0.666178
21.482437 6.363388 -0.469320
31.106876 9.214276 -0.679582
21.314043 6.313507 -0.155193
23.356279 6.918445 -0.170063
31.017063 9.187673 -0.225844
21.226185 6.186869 0.154356
30.730448 8.957108 0.223470
21.337227 6.219234 0.465550
23.074537 6.725614 0.503456
29.735821 8.667202 0.648796
21.316109 6.112296 -0.464503
31.070774 8.909401 -0.677068
21.531736 6.174126 -0.156380
23.502275 6.739169 -0.170692
30.769238 8.822937 -0.223470
22.078184 6.226692 0.160150
29.537031 8.330304 0.214255
21.121260 5.956811 0.459686
24.623827 6.944638 0.535917
29.069395 8.198418 0.632671
21.773272 6.038263 -0.473299
30.887217 8.565784 -0.671414
22.201504 6.157022 -0.160848
30.363256 8.420476 -0.219980
22.343929 6.091654 0.161686
24.804077 6.762368 0.179488
29.213049 7.964391 0.211393
21.346062 5.819604 0.463456
29.178415 7.954949 0.633508
21.699593 5.814388 -0.470576
24.017307 6.435418 -0.520838
30.738676 8.236403 -0.666597
21.887346 5.864697 -0.158195
24.717440 6.623018 -0.178650
21.371195 5.626566 0.154286
29.204075 7.688791 0.210834
21.251007 5.594923 0.460314
29.324070 7.720384 0.635184
22.136681 5.724935 -0.478953
25.040487 6.475910 -0.541780
30.141506 7.795124 -0.652147
21.850559 5.650939 -0.157567
23.351152 6.039019 -0.168388
29.198622 7.551277 -0.210555
21.506710 5.462008 0.154914
29.832201 7.576414 0.214883
30.020187 7.624156 0.648796
22.166395 5.526703 -0.478534
29.393513 7.328626 -0.634555
21.675879 5.404403 -0.155961
29.244001 7.291348 -0.210415
29.498940 7.218345 0.212021
22.267988 5.448942 0.480210
29.852507 7.304862 0.643770
22.690136 5.447420 -0.488796
29.407740 7.060174 -0.633508
22.752901 5.462488 -0.163361
30.142733 7.236630 -0.216419
22.649982 5.333363 0.162454
29.950150 7.052324 0.214813
21.283136 5.011513 0.458011
24.377802 5.740211 0.524608
29.915115 7.044075 0.643770
29.731253 6.864000 -0.639163
24.465836 5.648383 -0.175299
30.243710 6.982311 -0.216698
24.061110 5.444473 0.172228
30.078825 6.806143 0.215302
21.920887 4.960190 0.470786
30.004702 6.789371 0.644398
21.893517 4.853676 -0.469738
29.936432 6.636747 -0.642304
21.907549 4.856787 -0.156659
24.152975 5.354586 -0.172716
30.283964 6.713793 -0.216559
21.899216 4.754786 0.156450
30.137074 6.543400 0.215302
21.875406 4.749616 0.468901
30.189819 6.554852 0.647121
21.622101 4.595919 -0.463037
23.930023 5.086483 -0.512461
30.208353 6.420984 -0.646911
21.949097 4.665425 -0.156659
30.233805 6.426394 -0.215791
21.881132 4.551282 0.156031
30.202816 6.282195 0.215372
21.191687 4.407877 0.453403
30.324177 6.307438 0.648796
22.660688 4.610369 -0.484398
24.473150 4.979119 -0.523142
30.224047 6.149152 -0.646074
22.302544 4.537504 -0.158893
30.327930 6.170287 -0.216070
21.527712 4.282128 0.153239
24.136538 4.801056 0.171809
30.168221 6.000832 0.214744
24.592701 4.891792 0.525236
30.299618 6.026969 0.647121
22.621544 4.397183 -0.482723
30.394327 5.908059 -0.648587
22.036993 4.283557 -0.156729
24.481186 4.758660 -0.174113
30.341356 5.897762 -0.215791
21.780394 4.135137 0.154775
30.386450 5.769048 0.215930
21.717215 4.123142 0.463037
30.193901 5.732491 0.643770
21.823471 4.044742 -0.464922
24.290899 4.502052 -0.517487
30.395575 5.633487 -0.647540
21.837559 4.047352 -0.155054
24.295637 4.502930 -0.172507
30.470327 5.647341 -0.216349
21.914053 3.962706 0.155473
23.950968 4.331040 0.169924
30.228994 5.466292 0.214464
21.958971 3.970829 0.467435
23.523252 4.253697 0.500733
30.272291 5.474122 0.644398
23.728662 4.184003 -0.504712
30.443577 5.368024 -0.647540
22.059156 3.889624 -0.156380
27.662575 4.877658 -0.196104
30.449514 5.369071 -0.215861
23.169859 3.981310 0.164129
30.324821 5.210757 0.214813
22.002640 3.780745 0.467644
30.318909 5.209742 0.644398
21.890738 3.663253 -0.464922
30.508984 5.105453 -0.647958
23.749178 3.974250 -0.168109
30.307817 5.071789 -0.214534
21.634434 3.523391 0.153029
23.549160 3.835224 0.166573
22.913029 3.731624 0.486283
30.323746 4.938536 0.643561
21.605881 3.422035 -0.458220
30.394381 4.813997 -0.644608
21.728615 3.441474 -0.153588
24.187899 3.830987 -0.170971
30.489197 4.829014 -0.215512
23.008495 3.541346 0.162524
30.401258 4.679201 0.214744
23.132469 3.560427 0.490262
30.365688 4.673727 0.643561
21.990889 3.286560 -0.465759
30.514336 4.560398 -0.646283
23.488554 3.510388 -0.165805
30.490616 4.556853 -0.215232
24.275557 3.519788 0.171250
30.351868 4.400812 0.214115
23.489172 3.405768 0.497173
30.316269 4.395650 0.641676
23.583012 3.314376 -0.498848
30.473766 4.282809 -0.644608
21.993319 3.090959 -0.155054
30.410391 4.273902 -0.214395
23.819836 3.241737 0.167829
30.349483 4.130383 0.213836
30.333660 4.128230 0.641257
22.163845 2.917926 -0.468273
30.460419 4.010190 -0.643561
30.416786 4.004446 -0.214185
24.154732 3.072870 0.169994
30.314932 3.856546 0.213347
23.713636 3.016756 0.500733
30.239597 3.846963 0.638534
30.504177 3.745442 -0.643770
23.820528 2.924793 -0.167550
30.450573 3.738860 -0.214185
24.379236 2.885473 0.171390
30.347433 3.591855 0.213347
23.937630 2.833205 0.504922
30.311731 3.587630 0.639372
30.495966 3.474576 -0.642932
24.073660 2.742847 -0.169156
30.442299 3.468462 -0.213906
24.413429 2.673705 0.171460
30.337860 3.322536 0.213068
24.448423 2.677538 0.515184
30.262377 3.314269 0.637697
30.425695 3.197870 -0.640838
24.315468 2.555659 -0.170692
30.391848 3.194312 -0.213347
24.425882 2.459557 0.171390
30.375648 3.058667 0.213138
24.301750 2.447057 0.511623
30.290146 3.050057 0.637697
30.472347 2.934153 -0.641257
30.408613 2.928016 -0.213278
30.321522 2.786156 0.212579
24.740326 2.273317 0.520419
30.275787 2.781954 0.636859
30.496792 2.668123 -0.641257
30.433006 2.662543 -0.213278
30.294853 2.517308 0.212230
30.269020 2.515162 0.636231
30.439178 2.395615 -0.639582
30.385300 2.391375 -0.212789
30.365528 2.256549 0.212579
30.279846 2.250181 0.636021
30.458925 2.129895 -0.639582
30.405012 2.126126 -0.212789
30.334171 1.988207 0.212230
30.308306 1.986511 0.636231
30.426456 1.860962 -0.638534
30.382483 1.858272 -0.212510
30.310432 1.721151 0.211951
30.284559 1.719682 0.635393
30.411585 1.593804 -0.637906
30.357597 1.590974 -0.212230
30.324299 1.456581 0.211951
30.298414 1.455337 0.635393
30.464289 1.330100 -0.638744
30.410286 1.327742 -0.212510
30.345846 1.192291 0.212021
30.260010 1.188919 0.634346
30.384809 1.061061 -0.636859
30.340767 1.059523 -0.211951
30.305120 0.925905 0.211672
30.269232 0.924809 0.634346
30.472868 0.797960 -0.638534
30.428827 0.796807 -0.212510
30.362032 0.662502 0.212021
30.326128 0.661718 0.635393
30.478670 0.532007 -0.638534
30.434622 0.531238 -0.212510
30.366657 0.397521 0.212021
30.330748 0.397051 0.635393
30.442163 0.265665 -0.637697
30.438099 0.265629 -0.212510
30.368971 0.132510 0.212021
30.333057 0.132354 0.635393
30.403330 0.000000 -0.636859
30.359261 0.000000 -0.211951
30.368971 -0.132510 0.212021
30.333057 -0.132354 0.635393
30.482153 -0.266014 -0.638534
30.438099 -0.265629 -0.212510
30.366657 -0.397521 0.212021
30.370735 -0.397575 0.636231
30.488667 -0.532182 -0.638744
30.434622 -0.531238 -0.212510
30.352036 -0.662284 0.211951
30.326128 -0.661718 0.635393
30.472868 -0.797960 -0.638534
30.428827 -0.796807 -0.212510
30.385080 -0.928348 0.212230
30.359171 -0.927557 0.636231
30.514702 -1.065597 -0.639582
30.460690 -1.063711 -0.212789
30.335854 -1.191899 0.211951
30.349920 -1.192452 0.636231
30.524218 -1.332716 -0.640000
30.490210 -1.331231 -0.213068
30.414192 -1.460898 0.212579
30.378304 -1.459175 0.637068
30.491457 -1.597990 -0.639582
30.477430 -1.597255 -0.213068
30.400286 -1.726253 0.212579
30.364414 -1.724216 0.637068
30.546206 -1.868286 -0.641047
30.462332 -1.863156 -0.213068
30.423977 -1.994093 0.212859
30.388117 -1.991742 0.637906
30.568632 -2.137567 -0.641885
30.514740 -2.133799 -0.213557
30.435333 -2.261736 0.213068
30.449341 -2.262777 0.639582
30.598650 -2.408166 -0.642932
30.534834 -2.403144 -0.213836
30.504128 -2.534698 0.213696
30.468290 -2.531720 0.640419
30.576469 -2.675094 -0.642932
30.512699 -2.669515 -0.213836
30.480846 -2.800796 0.213696
30.445036 -2.797506 0.640419
30.581816 -2.944694 -0.643561
30.577826 -2.944310 -0.214464
30.534840 -3.074697 0.214255
30.459255 -3.067086 0.641257
30.604670 -3.216681 -0.644608
30.550968 -3.211036 -0.214464
30.506845 -3.341043 0.214255
30.471083 -3.337126 0.642095
30.654903 -3.492685 -0.646283
30.601267 -3.486574 -0.215023
30.555971 -3.616538 0.214813
30.510302 -3.611132 0.643561
30.623257 -3.760063 -0.646283
30.569677 -3.753484 -0.215023
30.562927 -3.888095 0.215093
30.487545 -3.878505 0.643770
30.628927 -4.032375 -0.647121
30.605158 -4.029245 -0.215512
30.567469 -4.160050 0.215372
30.452538 -4.144408 0.643770
30.622274 -4.303680 -0.647749
30.608440 -4.301736 -0.215791
30.530001 -4.426640 0.215372
30.415211 -4.409996 0.643770
30.652767 -4.581087 -0.649215
30.599405 -4.573112 -0.216000
30.450676 -4.686807 0.215093
30.365688 -4.673727 0.643561
30.611624 -4.848405 -0.649215
30.528702 -4.835271 -0.215791
30.448095 -4.958787 0.215372
30.373085 -4.946571 0.644608
30.578009 -5.117004 -0.649424
30.495207 -5.103148 -0.215861
30.403664 -5.224305 0.215372
30.368176 -5.218207 0.645445
30.571575 -5.390594 -0.650262
30.518448 -5.381226 -0.216349
30.435637 -5.503660 0.215930
30.360836 -5.490133 0.646283
30.523369 -5.657172 -0.650262
30.509657 -5.654631 -0.216629
30.425747 -5.776509 0.216210
30.390348 -5.769788 0.647958
30.561167 -5.940489 -0.652147
30.508230 -5.930199 -0.216978
30.452641 -6.057407 0.216768
30.417288 -6.050375 0.649634
30.498365 -6.204963 -0.651938
30.455318 -6.196204 -0.216978
30.437782 -6.331068 0.217047
30.402483 -6.323726 0.650472
30.521292 -6.487501 -0.653613
30.478336 -6.478370 -0.217536
30.420464 -6.604930 0.217327
30.531775 -6.629098 0.654451
30.541603 -6.770910 -0.655288
30.498745 -6.761409 -0.218095
30.634756 -6.931938 0.219281
31.223612 -7.065182 0.670576
30.520319 -7.046171 -0.656126
30.467810 -7.034048 -0.218304
31.234980 -7.354861 0.224029
31.082914 -7.319055 0.668901
30.545162 -7.333245 -0.658011
30.765034 -7.386031 -0.220887
31.179321 -7.629531 0.224098
30.862480 -7.552001 0.665550
30.732227 -7.662405 -0.663456
31.174843 -7.772761 -0.224308
30.995249 -7.871790 0.223261
30.882614 -7.843185 0.667435
31.293348 -8.093010 -0.677068
31.192957 -8.067047 -0.224936
30.925375 -8.141972 0.223261
30.851667 -8.122566 0.668273
31.105648 -8.334733 -0.674555
31.005463 -8.307889 -0.224098
30.920681 -8.429945 0.223749
30.856777 -8.412523 0.669948
31.041365 -8.608532 -0.674765
30.979963 -8.591504 -0.224448
30.961430 -8.732026 0.224587
30.897659 -8.714042 0.672461
31.003502 -8.890111 -0.675602
30.759624 -8.820181 -0.223400
30.932053 -9.015871 0.224936
30.849236 -8.991732 0.673089
30.963085 -9.171683 -0.676440
30.940359 -9.164952 -0.225285
31.043707 -9.343096 0.226332
30.922771 -9.306698 0.676440
30.996601 -9.476612 -0.678953
30.945269 -9.460917 -0.225914
31.066042 -9.646262 0.227100
30.926311 -9.602875 0.678325
31.065283 -9.794847 -0.682304
30.995045 -9.772700 -0.226891
31.142584 -9.968820 0.228287
30.955597 -9.908965 0.680838
31.045185 -10.087193 -0.683770
30.994177 -10.070619 -0.227519
31.130379 -10.265260 0.228846
25.436859 -8.387818 0.561047
30.934412 -10.200639 0.682304
31.031826 -10.383103 -0.685445
31.018911 -10.378782 -0.228357
31.153242 -10.575101 0.229683
25.324825 -8.596620 0.560210
30.919956 -10.495911 0.683979
31.129099 -10.718608 -0.689634
31.106804 -10.710931 -0.229683
31.210823 -10.899307 0.230800
25.107260 -8.767848 0.557068
30.940451 -10.804889 0.686493
31.024952 -10.986512 -0.689424
31.012150 -10.981978 -0.229683
25.072317 -9.001882 0.185981
31.227459 -11.211803 0.231638
24.982742 -8.969721 0.556021
30.910851 -11.098129 0.687958
31.125189 -11.328642 -0.693822
31.027895 -11.293230 -0.230521
31.043995 -11.452734 0.231010
24.237547 -8.941703 0.541152
31.009804 -11.440121 0.692356
31.100061 -11.627836 -0.695498
31.049927 -11.609092 -0.231429
31.176647 -11.811775 0.232755
24.280136 -9.198920 0.543875
30.974236 -11.735087 0.693822
31.118746 -11.945367 -0.698220
31.096806 -11.936946 -0.232546
24.818766 -9.651490 0.185911
31.146944 -12.112384 0.233314
24.618248 -9.573513 0.553299
30.945192 -12.033927 0.695498
31.115643 -12.256778 -0.700524
31.103102 -12.251838 -0.233384
31.188665 -12.443015 0.234431
24.041605 -9.591628 0.542199
30.950434 -12.347971 0.698011
31.128006 -12.576530 -0.703246
26.043961 -10.522443 -0.196104
31.115532 -12.571491 -0.234291
23.535921 -9.628799 0.177533
31.180700 -12.756361 0.235199
23.485065 -9.607994 0.531519
30.989553 -12.678161 0.701362
26.167767 -10.839044 -0.593299
31.118675 -12.889777 -0.705550
26.034290 -10.783756 -0.196732
31.106266 -12.884637 -0.235059
31.141968 -13.058911 0.235757
23.759907 -9.963356 0.539686
30.997597 -12.998371 0.704084
25.906528 -10.996669 -0.589529
31.115444 -13.207722 -0.708063
25.764303 -10.936297 -0.195405
31.066282 -13.186854 -0.235618
23.676672 -10.172301 0.179907
31.146263 -13.381491 0.236665
23.809845 -10.229517 0.542828
30.947287 -13.296004 0.705550
26.029625 -11.318004 -0.594555
31.145699 -13.542535 -0.711414
25.814611 -11.224513 -0.196522
31.133430 -13.537201 -0.237014
31.092373 -13.680972 0.237153
22.767956 -10.018140 0.521047
31.049707 -13.662198 0.710576
25.655865 -11.422727 -0.588273
31.163336 -13.874810 -0.714555
25.651731 -11.420887 -0.196034
31.132870 -13.861247 -0.237921
31.081211 -14.001064 0.237991
24.584829 -11.074658 0.564817
31.038689 -13.981910 0.713089
25.509718 -11.625448 -0.587225
31.150240 -14.195983 -0.717068
25.360003 -11.557219 -0.194568
31.110817 -14.178017 -0.238689
25.554525 -11.780798 0.196453
31.103146 -14.338747 0.239108
24.487249 -11.288776 0.564817
31.024446 -14.302465 0.715603
25.389175 -11.839167 -0.586807
31.170151 -14.534880 -0.720419
31.139977 -14.520809 -0.239876
25.505014 -12.028945 0.196872
31.112499 -14.673607 0.240155
23.365995 -11.020119 0.541152
31.079306 -14.657952 0.719791
23.759859 -11.332871 -0.551414
25.221725 -12.030147 -0.585341
31.150412 -14.857984 -0.722932
25.362028 -12.097067 -0.196173
31.138433 -14.852271 -0.240853
25.435099 -12.268435 0.197151
31.082338 -14.992340 0.240923
23.241922 -11.210573 0.540524
31.085283 -14.993761 0.722932
25.304489 -12.341825 -0.589739
31.172327 -15.203760 -0.726493
24.590406 -11.993543 -0.191007
31.133467 -15.184807 -0.241831
24.762053 -12.211293 0.192753
31.102789 -15.338198 0.242110
31.033958 -15.304255 0.724817
23.281086 -11.607521 -0.544922
25.625299 -12.776302 -0.599791
31.199516 -15.555506 -0.730262
23.035049 -11.484852 -0.179698
24.583248 -12.256755 -0.191775
31.196651 -15.554077 -0.243367
24.618830 -12.408912 0.192473
31.146347 -15.699051 0.243506
24.078360 -12.136493 0.564817
31.077780 -15.664491 0.729006
23.098732 -11.769392 -0.543037
31.205112 -15.899799 -0.733613
23.272524 -11.857943 -0.182351
24.251797 -12.490496 0.190449
31.159292 -16.048090 0.244693
23.935982 -12.327840 0.563979
31.153217 -16.044962 0.734032
23.252323 -12.104393 -0.549110
23.585043 -12.277596 -0.185632
31.186541 -16.234686 -0.245461
24.416214 -12.845991 0.192613
31.150806 -16.389233 0.245740
22.730347 -11.959014 0.538011
24.614956 -12.950555 0.582618
31.109341 -16.367416 0.736335
23.145809 -12.306845 -0.549110
31.205353 -16.592180 -0.740315
24.006760 -12.764621 -0.189820
31.167290 -16.571941 -0.246438
23.783470 -12.779320 0.188494
31.147537 -16.736176 0.246857
22.167158 -11.910843 0.527121
24.254410 -13.032365 0.576754
31.106237 -16.713984 0.739686
23.643782 -12.837526 -0.563561
31.217524 -16.949732 -0.744084
31.206036 -16.943495 -0.247905
23.846386 -13.082576 0.189890
31.175644 -17.103544 0.248254
22.518171 -12.353891 0.538011
31.160801 -17.095400 0.744503
23.635786 -13.101530 -0.566074
31.243309 -17.318449 -0.748273
24.357565 -13.501619 -0.194428
31.196924 -17.292738 -0.249022
23.766212 -13.309718 0.190170
31.190971 -17.467783 0.249580
31.071491 -17.400871 0.745969
31.230215 -17.669205 -0.751623
31.192787 -17.648031 -0.250208
23.709932 -13.551342 0.190658
31.184942 -17.823662 0.250767
31.126781 -17.790421 0.750995
23.568041 -13.607015 -0.570053
31.317268 -18.081034 -0.757487
23.780478 -13.729666 -0.191705
31.262754 -18.049561 -0.252023
31.166426 -18.175722 0.251884
22.351160 -13.034811 0.541990
31.168985 -18.177216 0.755812
23.388102 -13.776645 -0.568587
31.227207 -18.394230 -0.759163
23.608063 -13.906212 -0.191287
31.207447 -18.382591 -0.252861
31.212881 -18.569712 0.253559
21.910057 -13.035114 0.534032
31.232573 -18.581427 0.761257
23.609779 -14.186187 -0.576964
31.296885 -18.805065 -0.764817
23.614384 -14.188953 -0.192334
31.225843 -18.762381 -0.254327
31.220621 -18.945137 0.254956
21.906586 -13.293242 0.536754
31.214535 -18.941444 0.764817
23.715246 -14.532722 -0.582618
31.199785 -19.119253 -0.766493
24.035341 -14.728875 -0.196802
31.197344 -19.117756 -0.255444
21.742977 -13.454962 0.178511
31.173153 -19.290533 0.255933
21.798250 -13.489166 0.536964
31.099062 -19.244684 0.766074
23.672310 -14.792101 -0.584712
31.345463 -19.586819 -0.774241
21.209166 -13.252958 -0.174601
24.474072 -15.293097 -0.201479
31.292212 -19.553545 -0.257609
22.461983 -14.172456 0.185422
23.645973 -14.919498 0.195196
31.240425 -19.711241 0.257888
22.001011 -13.881604 0.544922
20.700720 -13.187813 -0.514136
31.308256 -19.945559 -0.777592
21.016802 -13.389180 -0.173973
23.690289 -15.092379 -0.196104
31.289061 -19.933331 -0.259005
22.421555 -14.422028 0.186120
23.582159 -15.168554 0.195755
31.210197 -20.075073 0.259075
22.131292 -14.235326 0.551205
31.246155 -20.098202 0.778220
20.819624 -13.520421 -0.520000
31.334246 -20.348698 -0.782618
20.882389 -13.561181 -0.173833
22.710646 -14.748466 -0.189053
31.206171 -20.265524 -0.259773
22.177769 -14.540382 0.185143
23.607782 -15.477941 0.197081
31.234528 -20.478252 0.260750
22.282139 -14.608809 0.558115
31.395658 -20.583895 0.786388
21.109358 -13.971979 -0.530262
31.305546 -20.720688 -0.786388
21.388651 -14.156838 -0.179069
30.944748 -20.481882 -0.259075
22.274529 -14.883364 0.187028
23.571589 -15.750032 0.197919
30.863400 -20.622265 0.259144
22.278498 -14.886017 0.561257
23.566994 -15.746962 0.593718
25.670151 -17.152246 0.646702
21.351324 -14.401650 -0.539477
24.434668 -16.481392 -0.617383
31.322458 -21.127266 -0.791414
20.534760 -13.850871 -0.172926
30.192812 -20.365309 -0.254258
19.308666 -13.146803 0.163082
31.260862 -21.284763 0.264031
23.784035 -16.193974 0.602723
19.535746 -13.426546 -0.496545
25.278646 -17.373531 -0.642513
31.359364 -21.552694 -0.797068
20.957018 -14.403359 -0.177533
29.610132 -20.350481 -0.250837
19.234285 -13.343299 0.163431
24.509130 -17.002588 0.208251
19.288038 -13.380589 0.491728
31.388245 -21.774799 0.800210
21.113108 -14.783558 -0.539896
31.383022 -21.974628 -0.802514
19.650978 -13.759764 -0.167480
20.846912 -14.597164 -0.177673
19.313103 -13.649151 0.165107
31.243944 -22.081038 0.267103
18.974586 -13.409912 0.486702
19.599602 -13.980261 -0.504293
21.129805 -15.071742 -0.543665
26.485510 -18.891930 -0.681466
19.074263 -13.605538 -0.163571
27.874636 -19.882784 -0.239038
18.746902 -13.495838 0.161267
24.987755 -17.988609 0.214953
18.718906 -13.475684 0.483142
19.452591 -14.133135 -0.503665
20.989388 -15.249682 -0.543456
27.654224 -20.091970 -0.716021
18.898176 -13.730329 -0.163082
20.920670 -15.199757 -0.180535
18.813894 -13.794918 0.162873
18.729599 -13.733110 0.486492
19.352629 -14.320191 -0.504293
20.662628 -15.289540 -0.538430
27.373360 -20.255220 -0.713299
18.970560 -14.037476 -0.164758
21.478533 -15.893277 -0.186539
19.518066 -14.574832 0.170063
21.184635 -15.819317 0.184585
31.352297 -23.411871 0.273177
18.673130 -13.943888 0.488168
21.372763 -15.959800 0.558744
31.346186 -23.407307 0.819477
27.043852 -20.379004 -0.709320
31.419415 -23.676228 -0.824084
18.583796 -14.003894 -0.162454
19.477694 -14.811183 0.170831
21.491529 -16.342539 0.188494
31.409473 -23.884319 0.275481
21.304300 -16.200167 0.560629
31.355600 -23.843353 0.825131
19.591530 -15.033110 -0.517278
20.820957 -15.976482 -0.549739
31.409903 -24.101665 -0.829320
20.951952 -16.076998 -0.184375
23.807953 -18.268486 -0.209508
31.423960 -24.112453 -0.276528
19.418863 -15.035690 0.171460
31.365891 -24.286068 0.276947
21.383463 -16.556845 0.566492
31.328156 -24.256849 0.829948
18.624489 -14.551045 -0.495079
18.714800 -14.621604 -0.165805
18.423086 -14.523590 0.163780
31.404058 -24.756964 0.279181
18.105436 -14.273175 0.482932
31.358679 -24.721189 0.836440
18.661112 -14.843718 -0.499477
20.679796 -16.449453 -0.553508
31.469597 -25.032047 -0.842304
18.797791 -14.952437 -0.167690
31.420952 -24.993353 -0.280298
18.108477 -14.533588 0.162105
17.925611 -14.386825 0.481466
31.344481 -25.156605 0.841885
18.694031 -15.138128 -0.503875
21.623228 -17.510145 -0.582828
18.573336 -15.040391 -0.166852
31.403704 -25.430218 -0.282113
18.337172 -14.982097 0.165316
31.416344 -25.668230 0.283230
17.938742 -14.656568 0.485236
31.371508 -25.631598 0.848587
18.653790 -15.376998 -0.506388
18.410515 -15.176456 -0.166573
31.442936 -25.919556 -0.284486
17.928955 -14.911354 0.162803
31.391047 -26.107658 0.285045
17.971581 -14.946805 0.489634
19.262951 -16.020826 0.524817
31.415674 -26.128139 0.855917
18.679726 -15.674151 -0.510786
21.628351 -18.148340 -0.591414
18.537825 -15.555081 -0.168947
21.517664 -18.055464 -0.196104
31.476000 -26.411499 -0.286860
18.233179 -15.435526 0.166782
17.840462 -15.103065 0.489634
19.152933 -16.214155 0.525655
18.709486 -15.979411 -0.515393
31.443493 -26.855280 -0.866179
31.404001 -26.821550 -0.288326
17.809919 -15.346007 0.164129
19.688635 -16.964813 0.181443
17.957926 -15.473539 0.496545
31.409330 -27.064011 0.868482
22.259050 -19.349497 -0.617801
31.539942 -27.417253 -0.875393
21.410589 -18.611940 -0.198058
31.500811 -27.383236 -0.291398
17.863279 -15.665675 0.165875
19.870642 -17.426085 0.184515
31.433657 -27.566576 0.291886
17.844763 -15.649437 0.497173
31.404978 -27.541426 0.874974
18.173168 -16.078262 -0.508273
22.328962 -19.754995 -0.624503
31.531609 -27.896811 -0.881885
31.470352 -27.842615 -0.293353
20.157980 -17.991684 0.188634
31.438091 -28.059570 0.294190
17.759729 -15.851165 0.498639
31.439423 -28.060757 0.882723
18.210485 -16.396793 -0.513299
31.554440 -28.411745 -0.889425
20.242771 -18.226673 -0.190170
31.501141 -28.363754 -0.295936
17.638968 -16.022110 0.166363
18.690052 -16.976849 0.176277
19.940990 -18.113121 0.188075
17.716936 -16.092932 0.501362
20.144318 -18.297812 0.570053
18.324696 -16.791489 -0.520629
21.818623 -19.993084 -0.619896
31.659117 -29.010235 -0.899477
20.621145 -18.895798 -0.195266
31.562073 -28.921312 -0.298868
17.762829 -16.419790 0.168877
19.833569 -18.333961 0.188564
19.646160 -18.160725 0.560419
18.082411 -16.862120 -0.517906
31.609486 -29.476322 -0.905341
17.954296 -16.742651 -0.171390
31.505949 -29.379774 -0.300753
18.150562 -17.074345 0.173973
19.468882 -18.314495 0.186609
20.932871 -19.691679 0.200641
19.756371 -18.584938 0.568168
17.905565 -16.991747 -0.517068
17.814760 -16.905577 -0.171460
31.553017 -29.942694 -0.303685
17.820284 -17.059212 0.172228
20.651882 -19.769876 0.199594
17.715702 -16.959095 0.513718
17.720646 -17.112629 -0.516021
17.486725 -16.886734 -0.169714
17.563295 -17.109406 0.171181
17.810522 -17.350243 0.520838
18.992161 -18.501345 0.555393
17.634815 -17.329685 -0.517906
31.618589 -31.071501 -0.928587
17.730974 -17.424179 -0.173554
31.560564 -31.014479 -0.308921
17.981455 -17.825218 0.176766
17.921148 -17.765434 0.528587
17.772766 -17.772766 -0.526492
17.634813 -17.634813 -0.174113
23.539011 -23.539011 -0.232406
17.543619 -17.697388 0.173973
17.688009 -17.843044 0.526283
18.808279 -19.139444 -0.562095
31.653128 -32.210457 -0.945969
17.613420 -17.923548 -0.175439
20.865561 -21.232948 -0.207832
17.381536 -17.842646 0.173903
18.986416 -19.490101 0.189960
17.203739 -17.660131 0.516440
19.216982 -19.899767 -0.579477
21.224104 -21.978203 -0.640000
19.977888 -20.687708 -0.200781
31.620079 -32.743549 -0.317787
17.432619 -18.210352 0.175998
18.058359 -18.864008 0.547016
19.875320 -20.944218 -0.604817
21.107204 -22.242353 -0.642304
19.218391 -20.251959 -0.194917
19.588903 -20.823618 0.199594
17.728647 -18.846107 0.541990
20.673655 -22.169781 -0.634974
19.832029 -21.267248 -0.203015
19.528622 -21.125944 0.200851
18.072500 -19.550720 0.557697
19.368725 -20.952969 0.597697
19.918785 -21.737539 -0.617592
19.915915 -21.734406 -0.205808
31.610096 -34.496365 -0.326653
31.506340 -34.685776 0.327142
19.541416 -21.513422 0.608796
19.828682 -22.021982 -0.620733
31.622868 -35.120750 -0.989948
19.792400 -21.981688 -0.206506
31.555429 -35.045856 -0.329236
19.742910 -22.120062 0.206994
19.526026 -21.877064 0.614241
31.606668 -35.724842 -0.999163
19.765474 -22.340805 -0.208251
31.513441 -35.619465 -0.332029
20.459002 -23.329021 0.216629
31.423656 -35.831814 0.332727
19.340963 -22.054142 0.614451
31.588873 -36.338840 -1.008587
20.179884 -23.214300 -0.214744
31.496626 -36.232723 -0.335170
20.117565 -23.347584 0.215162
31.449198 -36.498592 0.336357
19.421869 -22.540190 0.623246
30.875292 -35.832539 0.990786
31.549759 -36.940022 -1.017592
19.996017 -23.412329 -0.214953
31.413036 -36.779942 -0.337684
30.851667 -36.443462 0.333355
19.379469 -22.891953 0.628273
30.535582 -36.070087 0.989948
31.367582 -37.382427 -1.022200
31.058741 -37.014366 -0.337334
30.813814 -37.049583 0.336427
30.002291 -36.073833 0.982828
30.470346 -37.293842 0.336217
30.091192 -36.829781 0.996231
30.362808 -37.831276 0.338661
29.712328 -37.020794 0.994346
30.155331 -38.251854 0.340057
30.019472 -38.079517 1.015707
29.814564 -38.506042 1.020105
0.146059 -0.202889 0.001745
0.181078 -0.251533 0.006492
0.176695 -0.254704 0.002164
0.159564 -0.230011 0.005864
0.140698 -0.206642 0.001745
0.151924 -0.223130 0.005654
0.155556 -0.232806 0.001955
0.166635 -0.249386 0.006283
0.109656 -0.167253 0.001396
0.126080 -0.192304 0.004817
0.151469 -0.235485 0.001955
0.140623 -0.218622 0.005445
0.128064 -0.202970 0.001676
0.117369 -0.186019 0.004607
0.147336 -0.238093 0.001955
0.157830 -0.255050 0.006283
0.114127 -0.188076 0.001536
0.140038 -0.230776 0.005654
0.117595 -0.197659 0.001606
0.127795 -0.214804 0.005236
0.115843 -0.198639 0.004817