# This PCD file was generated using the MATLAB® pcwrite function
# from Computer Vision System Toolbox®.
# .PCD v.7 - Point Cloud Data file format
VERSION .7
FIELDS x y z
SIZE 4 4 4
TYPE F F F
COUNT 1 1 1
WIDTH 1062
HEIGHT 1
VIEWPOINT 0 0 0 1 0 0 0
POINTS 1062
DATA ascii
26.354132 28.760489 -0.272339
26.748928 28.684713 -0.821571
26.883720 28.829260 -0.275201
27.280392 28.747534 -0.830158
27.437145 28.912718 -0.278273
27.780241 28.767281 -0.837697
27.966265 28.959915 -0.281066
28.282494 28.780476 -0.845236
28.498276 29.000057 -0.283858
28.900185 28.900185 -0.856126
29.089664 29.089664 -0.287209
29.407997 28.899158 -0.863665
26.332565 25.876940 -0.257748
29.592039 29.080017 -0.289652
26.537817 25.627272 -0.772775
26.478252 25.569752 -0.256980
26.564636 25.208899 -0.767121
26.497280 25.144979 -0.255025
26.637373 24.839752 -0.762932
26.540178 24.749117 -0.253350
26.676214 24.444248 -0.757906
26.607691 24.381456 -0.251954
26.739916 24.076729 -0.753718
26.641092 23.987747 -0.250278
26.769295 23.683472 -0.748691
26.699621 23.621830 -0.248882
26.793859 23.291546 -0.743665
26.753803 23.256725 -0.247486
26.904865 22.978926 -0.741152
26.834072 22.918463 -0.246369
26.920557 22.589029 -0.736126
26.887505 22.561295 -0.245042
26.931507 22.200621 -0.731100
26.859596 22.141344 -0.243018
27.007669 21.870378 -0.727959
26.896366 21.780249 -0.241621
27.103601 21.559177 -0.725445
26.991497 21.470007 -0.240784
27.093746 21.167955 -0.720210
27.020229 21.110518 -0.239387
27.213984 20.882025 -0.718534
27.116156 20.806959 -0.238619
27.235483 20.523409 -0.714346
27.136972 20.449177 -0.237223
27.260845 20.171965 -0.710367
27.153624 20.092625 -0.235827
27.484369 19.968563 -0.711623
27.222759 19.778492 -0.234919
27.348282 19.507339 -0.703665
27.272205 19.453075 -0.233872
27.386436 19.176189 -0.700315
27.342628 19.145515 -0.233034
27.387947 18.823214 -0.696126
27.310877 18.770245 -0.231359
27.418549 18.494045 -0.692775
27.349283 18.447325 -0.230312
27.329741 18.261148 0.229474
27.208033 18.179825 0.685445
27.420490 18.149225 -0.688796
27.375805 18.119650 -0.229195
27.120100 17.780716 0.226402
27.106451 17.771769 0.678953
27.510746 17.865688 -0.687121
27.264515 17.705784 -0.226961
27.240589 17.521736 0.226123
27.235279 17.518320 0.678325
27.286161 17.383202 -0.677697
27.308350 17.397337 -0.226053
27.392456 17.283354 0.226123
27.327929 17.242640 0.676859
27.436817 17.144426 -0.677697
27.459127 17.158367 -0.226053
27.448700 16.985771 0.225355
27.375336 16.940372 0.674346
27.585384 16.904345 -0.677697
27.505501 16.855392 -0.225215
27.484747 16.678154 0.224448
27.453747 16.659342 0.672671
27.629013 16.601187 -0.675184
27.582972 16.573521 -0.224657
27.534710 16.381432 0.223680
27.434828 16.322008 0.668691
27.669458 16.298557 -0.672671
27.588694 16.250982 -0.223540
27.503853 16.039772 0.222283
27.403490 15.981242 0.664503
27.637468 15.956500 -0.668482
27.556257 15.909613 -0.222144
27.538595 15.739604 0.221446
27.472466 15.701808 0.662828
27.671242 15.655635 -0.665969
27.589603 15.609447 -0.221306
27.535303 15.420510 0.220329
27.468874 15.383308 0.659477
27.736853 15.374788 -0.664294
27.619818 15.309915 -0.220468
27.563618 15.121919 0.219491
27.496887 15.085308 0.656964
27.659096 15.017663 -0.659267
27.611761 14.991962 -0.219351
27.624060 14.842943 0.218932
27.521799 14.787995 0.654451
27.683165 14.719399 -0.656754
27.635586 14.694102 -0.218513
27.681738 14.564067 0.218374
27.614407 14.528642 0.653613
27.819427 14.481877 -0.656964
27.771633 14.456997 -0.218583
27.709990 14.271583 0.217606
27.633482 14.232178 0.651100
27.873480 14.202248 -0.655288
27.789816 14.159618 -0.217746
27.788828 14.006722 0.217257
27.685204 13.954492 0.649424
27.924776 13.922780 -0.653613
27.840729 13.880876 -0.217187
30.322529 14.953416 0.236036
28.012159 13.814069 0.654241
30.594587 15.087581 0.714555
27.928392 13.621587 -0.650890
30.549265 14.899872 -0.237293
31.163399 15.031440 0.241552
28.455822 13.725459 0.661780
31.382450 15.137096 0.729843
31.051147 14.810637 -0.720629
31.291870 14.925456 -0.242040
31.808912 15.002057 0.245531
32.101116 15.139869 0.743456
31.731937 14.796845 -0.733404
32.010010 14.926514 -0.246578
32.483490 14.975094 0.249720
32.449917 14.959618 0.748482
32.514885 14.817886 -0.748482
32.639515 14.874684 -0.250418
32.530876 14.654092 0.249091
32.424263 14.606066 0.744922
32.779957 14.594577 -0.751623
32.704132 14.560817 -0.249929
32.630058 14.357570 0.248882
32.513885 14.306452 0.744084
32.841888 14.280059 -0.750157
32.756588 14.242970 -0.249371
32.671421 14.036750 0.248254
32.573193 13.994547 0.742618
32.882423 13.957762 -0.748273
32.796787 13.921411 -0.248742
32.728115 13.724037 0.247765
32.657196 13.694298 0.741781
32.966030 13.654976 -0.747435
28.131447 11.652427 -0.212579
32.880070 13.619371 -0.248463
32.763336 13.403834 0.247137
32.701427 13.378508 0.740105
28.365604 11.460447 -0.640838
32.926346 13.303108 -0.743875
28.083715 11.346558 -0.211462
28.095804 11.209089 0.211183
32.786179 13.080359 0.246438
32.705498 13.048171 0.737592
28.241282 11.124537 -0.635812
33.078392 13.029925 -0.744712
28.237486 11.123041 -0.211881
28.556025 11.104831 0.213906
32.743572 12.733279 0.735917
28.374620 10.891996 -0.636650
33.078835 12.697775 -0.742199
28.426830 10.912038 -0.212579
29.184858 11.057154 0.217885
32.806698 12.429346 0.734870
32.111446 12.005978 -0.718116
29.111063 10.884180 -0.216978
33.054356 12.358518 -0.246369
29.599215 10.919727 0.220259
32.854660 12.120724 0.244484
32.435543 11.966103 0.724189
31.538563 11.479098 -0.703037
32.550159 11.847289 -0.241831
32.498016 11.667980 0.241063
32.726921 11.750166 0.728377
31.213440 11.053259 -0.693613
32.539192 11.522732 -0.240993
32.674126 11.410316 0.241621
32.979237 11.516865 0.731728
32.301285 11.122224 -0.715603
32.345402 11.137415 -0.238829
32.961834 11.189035 0.243018
32.974342 11.193281 0.729424
33.459003 11.195226 -0.739058
32.393948 10.838863 -0.238480
33.314632 10.985518 0.244903
33.289150 10.977115 0.734241
33.517391 10.890460 -0.738220
32.297092 10.493961 -0.237084
33.380661 10.685233 0.244693
33.307499 10.661815 0.732566
33.191605 10.465273 -0.729006
33.484184 10.557524 -0.245112
33.434433 10.381667 0.244414
33.313339 10.344067 0.730681
33.635422 10.283381 -0.736754
33.546352 10.256149 -0.244903
33.408852 10.054923 0.243576
30.549400 9.194326 0.668273
33.364044 10.041437 0.729843
33.647190 9.966752 -0.735079
33.557873 9.940295 -0.244344
30.557642 8.906740 0.222214
30.369316 8.851849 0.662618
30.830513 8.840508 -0.671833
30.625051 8.781592 -0.222423
30.326225 8.552880 0.219980
30.147110 8.502364 0.656126
30.559654 8.474942 -0.664294
30.440344 8.441854 -0.220538
30.139221 8.216895 0.218095
29.988659 8.175847 0.651100
30.323420 8.125135 -0.657592
30.242401 8.103427 -0.218583
29.977694 7.892468 0.216419
29.788151 7.842566 0.645236
30.131826 7.792620 -0.651938
29.963440 7.749072 -0.216070
29.851585 7.581336 0.215023
29.739172 7.552788 0.642723
30.237484 7.539052 -0.652775
29.991110 7.477623 -0.215791
29.916607 7.320547 0.215023
29.726259 7.273970 0.641047
30.302124 7.274896 -0.652775
30.103840 7.227293 -0.216140
29.979351 7.059200 0.215023
29.788605 7.014285 0.641047
30.452127 7.030428 -0.654660
30.204737 6.973313 -0.216419
30.000799 6.788487 0.214744
29.819427 6.747447 0.640419
30.512320 6.764419 -0.654660
30.215626 6.698643 -0.216070
29.990492 6.511574 0.214255
29.945564 6.501820 0.641885
30.443056 6.470871 -0.651938
30.155556 6.409761 -0.215232
30.114704 6.263867 0.214744
30.118622 6.264682 0.644398
30.547352 6.214929 -0.652985
30.210342 6.146364 -0.215232
30.285912 6.024242 0.215581
30.329035 6.032820 0.647749
30.512096 5.930951 -0.651100
30.341356 5.897762 -0.215791
30.573111 5.804487 0.217257
30.616262 5.812679 0.652775
30.562691 5.664460 -0.651100
30.627644 5.676498 -0.217466
30.780043 5.565938 0.218374
30.823233 5.573749 0.656126
30.719263 5.416635 -0.653404
30.784340 5.428110 -0.218234
31.063971 5.337766 0.220049
31.107182 5.345191 0.661152
31.041462 5.194559 -0.659267
31.156002 5.213727 -0.220538
33.991325 5.535839 0.240435
33.964966 5.531546 0.720838
31.401600 4.973525 -0.665969
34.176395 5.413010 -0.724817
34.173183 5.412500 -0.241552
34.077873 5.245087 0.240714
34.002060 5.233418 0.720629
34.311325 5.127861 -0.726702
34.219116 5.114081 -0.241552
34.122349 4.947505 0.240714
34.056332 4.937933 0.720838
34.354767 4.828248 -0.726702
34.222832 4.809705 -0.241272
34.124588 4.644153 0.240435
34.098125 4.640551 0.720838
34.385677 4.526960 -0.726493
34.303158 4.516096 -0.241552
34.203499 4.351234 0.240714
34.137321 4.342816 0.720838
34.433800 4.227939 -0.726702
34.341259 4.216577 -0.241552
34.250095 4.053766 0.240784
34.173920 4.044750 0.720838
34.419716 3.921631 -0.725655
34.337006 3.912208 -0.241272
34.274227 3.753638 0.240714
34.247669 3.750730 0.721676
34.452625 3.621117 -0.725655
34.409618 3.616597 -0.241552
34.305679 3.454400 0.240714
34.229359 3.446715 0.720629
34.532673 3.325118 -0.726702
34.400055 3.312349 -0.241272
34.334518 3.154899 0.240714
34.258133 3.147880 0.720629
34.560375 3.023641 -0.726702
34.467495 3.015515 -0.241552
34.410568 2.859298 0.241063
34.324154 2.852117 0.721466
34.575478 2.721149 -0.726493
34.482529 2.713834 -0.241482
34.384350 2.555198 0.240714
34.357704 2.553219 0.721676
34.597908 2.419321 -0.726493
34.544800 2.415608 -0.241761
34.485165 2.260277 0.241272
34.368702 2.252644 0.721466
34.577785 2.114868 -0.725655
34.524643 2.111618 -0.241482
34.473625 1.957554 0.241063
34.387051 1.952638 0.721466
34.724716 1.819845 -0.728377
34.621643 1.814443 -0.242040
34.519360 1.658084 0.241272
34.452713 1.654882 0.722513
34.689335 1.514569 -0.727330
34.646149 1.512684 -0.242110
34.572483 1.358356 0.241552
34.495811 1.355344 0.723142
34.751190 1.213538 -0.728377
34.688011 1.211332 -0.242320
34.583019 1.056607 0.241552
34.556290 1.055790 0.724189
34.750462 0.909973 -0.728168
34.697262 0.908580 -0.242320
34.630913 0.755649 0.241831
34.564190 0.754193 0.724189
34.847046 0.608257 -0.730053
34.753860 0.606631 -0.242669
34.686184 0.454067 0.242180
34.559456 0.452408 0.723979
34.851028 0.304140 -0.730053
34.757828 0.303327 -0.242669
34.688824 0.151360 0.242180
34.652069 0.151199 0.725864
34.882347 0.000000 -0.730681
34.829151 0.000000 -0.243157
34.768822 -0.151709 0.242738
31.442802 -0.137196 0.658639
34.970997 -0.305187 -0.732566
31.608027 -0.275839 -0.220678
34.907822 -0.304636 -0.243716
31.396545 -0.411003 0.219212
31.280457 -0.409484 0.655288
31.548273 -0.550677 -0.660943
31.414450 -0.548341 -0.219351
31.231804 -0.681480 0.218095
31.075785 -0.678076 0.651100
31.382357 -0.821776 -0.657592
31.288511 -0.819319 -0.218513
31.064747 -0.949114 0.216978
30.948767 -0.945570 0.648587
31.184147 -1.088974 -0.653613
31.090290 -1.085697 -0.217187
30.855440 -1.212314 0.215581
30.739534 -1.207760 0.644398
31.043610 -1.355393 -0.650890
30.959749 -1.351732 -0.216349
30.803734 -1.479609 0.215302
30.727825 -1.475963 0.644398
31.030600 -1.626245 -0.650890
30.826942 -1.615572 -0.215512
30.709780 -1.743828 0.214744
30.633921 -1.739520 0.642723
31.214809 -1.909180 -0.655079
31.011292 -1.896732 -0.216908
30.813133 -2.019599 0.215581
30.697386 -2.012013 0.644398
31.316641 -2.189873 -0.657592
31.113264 -2.175651 -0.217746
30.953892 -2.300272 0.216698
30.718540 -2.282782 0.645236
31.376076 -2.469351 -0.659267
31.172846 -2.453356 -0.218304
30.932640 -2.570304 0.216698
30.896719 -2.567319 0.649424
31.433010 -2.750032 -0.660943
31.150249 -2.725294 -0.218304
31.018568 -2.850206 0.217466
31.112080 -2.858799 0.654451
31.069454 -2.991648 -0.653822
31.204910 -3.004691 -0.218863
31.201452 -3.141821 0.218932
31.434109 -3.165248 0.661780
30.873133 -3.244897 -0.650262
31.157612 -3.274797 -0.218723
31.331892 -3.431400 0.220049
30.500898 -3.340392 0.642723
32.001595 -3.504745 0.674346
31.668123 -3.608127 -0.667644
31.892879 -3.633735 -0.224098
31.519224 -3.730546 0.221585
30.470587 -3.606432 0.642723
35.146912 -4.159911 0.741362
30.385098 -3.730821 -0.641257
32.240753 -3.958667 -0.680419
30.510126 -3.746172 -0.214604
32.326439 -3.969188 -0.227380
35.313931 -4.336006 -0.248393
30.374451 -3.864118 0.213766
35.314514 -4.492574 0.248533
30.993357 -3.942853 0.654451
35.208450 -4.479081 0.743456
30.222525 -3.978871 -0.638534
32.502346 -4.279015 -0.686702
35.515678 -4.675728 -0.750367
30.654728 -4.035771 -0.215861
35.393719 -4.659671 -0.249231
31.340324 -4.265231 0.220817
35.353233 -4.811364 0.249091
35.237370 -4.795596 0.744922
35.493324 -4.988261 -0.750786
30.459904 -4.280860 -0.214744
35.470539 -4.985059 -0.250069
31.222740 -4.527082 0.220259
35.309902 -5.119692 0.249091
31.661900 -4.590757 0.670157
35.273335 -5.114390 0.746597
29.832064 -4.458432 -0.631833
35.616539 -5.322927 -0.754346
30.688414 -4.586414 -0.216629
35.514694 -5.307707 -0.250697
30.005924 -4.618353 0.211951
31.201813 -4.802418 0.220398
35.422012 -5.451969 0.250208
29.940786 -4.608328 0.634555
31.403240 -4.833421 0.665550
35.316292 -5.435698 0.748482
29.782146 -4.717029 -0.631623
35.608231 -5.639790 -0.755184
29.778078 -4.716384 -0.210485
35.546036 -5.629939 -0.251256
29.786825 -4.851092 0.210694
31.208065 -5.082556 0.220747
35.452045 -5.773732 0.250767
29.662603 -4.830862 0.629529
31.261187 -5.091208 0.663456
35.336590 -5.754929 0.749948
29.651104 -4.961893 -0.629739
35.666126 -5.968462 -0.757487
29.173616 -4.881989 -0.206506
35.604042 -5.958073 -0.252023
29.861620 -5.131165 0.211532
31.201944 -5.361475 0.221027
35.518574 -6.103208 0.251605
29.185768 -5.015032 0.620314
31.649118 -5.438313 0.672671
35.432823 -6.088472 0.753089
29.931589 -5.277747 -0.636650
35.691452 -6.293366 -0.759163
29.878340 -5.268357 -0.211811
35.629475 -6.282438 -0.252582
29.589382 -5.350632 0.209927
35.542683 -6.427164 0.252163
29.022835 -5.248183 0.617801
35.476727 -6.415237 0.755184
29.343721 -5.438538 -0.625131
35.762970 -6.628274 -0.761885
29.850891 -5.532536 -0.211951
35.691284 -6.614988 -0.253420
29.354902 -5.573203 0.208600
35.593311 -6.757601 0.252931
29.201845 -5.544143 0.622618
35.448860 -6.730176 0.755812
28.068380 -5.455940 -0.598953
29.471800 -5.728737 -0.628901
35.831348 -6.964909 -0.764608
28.329071 -5.506613 -0.201479
29.929083 -5.817625 -0.212859
31.480017 -6.119095 -0.223889
29.452265 -5.858419 0.209647
35.660484 -7.093311 0.253839
29.093517 -5.787060 0.621362
35.535862 -7.068522 0.758953
29.577438 -6.017598 -0.632252
35.876972 -7.299253 -0.766911
28.123154 -5.721720 -0.200362
29.749788 -6.052663 -0.211951
35.766380 -7.276752 -0.254816
29.409809 -6.117249 0.209717
35.675549 -7.420525 0.254397
29.090851 -6.050906 0.622409
35.560921 -7.396682 0.760838
28.311163 -6.017724 -0.606283
35.909702 -7.632843 -0.769006
28.228651 -6.000185 -0.201479
35.828674 -7.615620 -0.255724
29.628925 -6.433070 0.211672
30.928610 -6.715260 0.220957
35.746243 -7.761270 0.255374
27.463942 -5.963006 0.588691
35.651344 -7.740665 0.764189
30.073084 -6.667042 -0.645236
35.978378 -7.976214 -0.771938
28.360708 -6.287417 -0.202806
35.829189 -7.943140 -0.256212
27.650280 -6.256620 0.197919
29.913019 -6.768625 0.214115
35.735672 -8.086157 0.255793
27.527876 -6.228922 0.591205
30.599529 -6.923966 0.657173
35.679947 -8.073548 0.766283
28.133636 -6.495162 -0.604817
30.471611 -7.034926 -0.655079
28.265787 -6.525671 -0.202526
35.836456 -8.273499 -0.256771
29.658144 -6.983566 0.212719
35.770817 -8.422909 0.256561
30.070822 -7.080739 0.647121
35.695721 -8.405227 0.768168
28.484190 -6.838449 -0.613613
28.557808 -6.856123 -0.205040
35.918468 -8.623261 -0.257888
29.868040 -7.308663 0.214674
35.851360 -8.772773 0.257678
27.958805 -6.841476 0.602932
29.959332 -7.331002 0.646074
35.786106 -8.756804 0.771728
26.376554 -6.576414 -0.569424
28.413729 -7.084338 -0.613403
26.352591 -6.570438 -0.189611
28.351351 -7.068786 -0.203992
31.504734 -7.855012 -0.226682
29.803123 -7.569029 0.214674
35.918823 -9.122219 0.258725
28.382547 -7.208249 0.613403
29.787624 -7.565093 0.643770
35.814919 -9.095830 0.774032
26.550465 -6.866417 -0.574451
28.747679 -7.434655 -0.621990
36.123344 -9.342133 -0.781571
26.497555 -6.852734 -0.191077
28.511253 -7.373511 -0.205598
36.062622 -9.326427 -0.260052
29.706926 -7.821181 0.214464
35.924881 -9.458232 0.259354
29.788151 -7.842566 0.645236
35.888874 -9.448751 0.777383
27.271763 -7.307447 -0.591414
36.117702 -9.677710 -0.783247
26.678221 -7.148408 -0.192822
30.252060 -8.106015 -0.218653
36.057133 -9.661480 -0.260610
28.547361 -7.782904 0.206575
29.695431 -8.095903 0.214883
36.004986 -9.816086 0.260541
27.596512 -7.523673 0.599163
35.882217 -9.782616 0.779058
27.187687 -7.539813 -0.590995
36.214924 -10.043287 -0.787226
26.528099 -7.356893 -0.192194
28.522766 -7.910063 -0.206645
36.096718 -10.010506 -0.261518
28.401361 -8.010013 0.206017
36.004574 -10.154340 0.261169
27.500938 -7.756067 0.598534
35.920574 -10.130650 0.781781
26.919035 -7.718909 -0.586597
28.783474 -8.253529 -0.627225
36.202785 -10.380982 -0.788901
28.385366 -8.139373 -0.206157
36.104111 -10.352687 -0.262216
36.068195 -10.512919 0.262286
35.984375 -10.488489 0.785131
27.368299 -8.106860 -0.597906
28.767870 -8.521431 -0.628482
30.579641 -9.058103 -0.668063
36.165798 -10.712798 -0.263333
36.118713 -10.870499 0.263333
36.015934 -10.839566 0.787854
27.258268 -8.333689 -0.597068
28.797583 -8.804304 -0.630786
30.394260 -9.292458 -0.665760
36.262192 -11.086465 -0.264729
36.184822 -11.235686 0.264520
36.101383 -11.209778 0.791833
27.241718 -8.589280 -0.598325
36.347717 -11.460391 -0.798325
30.413292 -9.589274 -0.222632
36.354805 -11.462626 -0.266126
26.799765 -8.578672 0.196453
36.237778 -11.599804 0.265637
26.984978 -8.637959 0.593508
36.116451 -11.560966 0.794346
26.908997 -8.743263 -0.592671
28.915285 -9.395145 -0.636859
30.027779 -9.756617 -0.661362
26.762077 -8.695526 -0.196453
30.328453 -9.854312 -0.222632
36.348495 -11.810342 -0.266824
26.704889 -8.805952 0.196313
36.268127 -11.959435 0.266614
26.880085 -8.863723 0.592880
36.175602 -11.928925 0.797906
26.935966 -9.012649 -0.594974
28.851160 -9.653463 -0.637278
36.483490 -12.207206 -0.805864
29.985264 -10.032928 -0.220747
36.414742 -12.184202 -0.268080
26.769062 -9.086872 0.197360
36.285477 -12.317260 0.267522
27.038393 -9.178298 0.598116
36.212135 -12.292363 0.801048
27.385666 -9.429641 -0.606702
36.441746 -12.547900 -0.807330
30.010029 -10.333282 -0.221585
36.373215 -12.524302 -0.268569
26.726509 -9.333315 0.197639
30.021299 -10.483907 0.222004
36.308781 -12.679593 0.268499
27.079973 -9.456750 0.600838
36.254505 -12.660641 0.804398
26.623781 -9.427976 -0.591623
28.593470 -10.125479 -0.635393
26.949463 -9.543305 -0.199594
36.356796 -12.874617 -0.269267
27.152266 -9.748660 0.201409
29.778084 -10.691424 0.220887
26.704718 -9.587974 0.594346
36.236740 -13.010319 0.806493
27.329662 -9.947184 -0.609215
36.630581 -13.332440 -0.816545
27.090677 -9.860201 -0.201270
36.477978 -13.276898 -0.271013
27.094305 -9.995617 0.201619
36.391556 -13.425553 0.270803
26.985846 -9.955604 0.602513
30.053059 -11.087158 0.670995
28.075274 -10.496915 -0.627854
36.662674 -13.707612 -0.819896
27.724821 -10.365886 -0.206645
36.431980 -13.802842 0.271990
26.972734 -10.219055 0.604189
36.387482 -13.785983 0.815079
26.647875 -10.229161 -0.597906
36.662998 -14.073606 -0.822618
27.110516 -10.406752 -0.202736
36.586124 -14.044098 -0.273596
27.176687 -10.568436 0.203574
28.956779 -11.260675 0.216908
36.505859 -14.196352 0.273456
36.396244 -14.153725 0.818011
24.371593 -9.600226 -0.548691
26.594805 -10.475972 -0.598744
27.980822 -11.021939 -0.629948
26.813980 -10.562308 -0.201200
28.181662 -11.101051 -0.211462
36.601734 -14.417807 -0.274643
28.160820 -11.235027 0.211672
36.538479 -14.577374 0.274643
27.310299 -10.895704 0.615917
29.046791 -11.588494 0.655079
36.475639 -14.552304 0.822618
26.483833 -10.700163 -0.598325
36.736237 -14.842403 -0.829948
24.124737 -9.747026 -0.181652
26.720787 -10.795899 -0.201200
36.659958 -14.811584 -0.276039
23.378584 -9.564431 0.176347
28.829884 -11.794617 0.217466
36.622746 -14.982760 0.276248
29.074104 -11.894530 0.658011
29.631556 -12.273792 -0.671833
36.873180 -15.273373 -0.836021
24.251247 -10.045196 -0.183258
26.440788 -10.952133 -0.199804
28.713476 -11.893511 -0.216978
23.580105 -9.887959 0.178511
36.656597 -15.371387 0.277505
36.557251 -15.329727 0.830367
28.768671 -12.211576 -0.654660
23.822084 -10.111876 -0.180675
26.519098 -11.256689 -0.201130
36.800888 -15.621050 -0.279111
23.309164 -10.014407 0.177115
26.285976 -11.293346 0.199734
36.686440 -15.761738 0.278762
24.223211 -10.407112 0.552252
36.550686 -15.703413 0.833299
29.944613 -13.020288 -0.683979
36.931080 -16.058090 -0.843561
24.099751 -10.478870 -0.183468
26.374004 -11.467744 -0.200781
36.837406 -16.017361 -0.280437
23.403944 -10.297982 0.178511
36.739708 -16.165857 0.280228
23.243813 -10.227522 0.531937
26.281981 -11.564348 0.601466
29.969877 -13.187061 0.685864
26.441341 -11.772444 -0.606283
29.519314 -13.142845 -0.676859
36.972210 -16.461088 -0.847749
23.276571 -10.363397 -0.177883
26.528713 -11.811344 -0.202736
29.652964 -13.202350 -0.226612
23.404362 -10.542896 0.179209
26.458691 -11.918771 0.202596
29.348906 -13.220717 0.224727
23.089867 -10.401227 0.530472
30.035971 -13.530218 0.690053
36.635681 -16.503170 0.841676
29.985746 -13.665292 -0.690262
37.009106 -16.866022 -0.851938
23.440031 -10.682238 -0.179837
36.888931 -16.811255 -0.283020
22.939138 -10.575088 0.176347
26.789570 -12.350162 0.205947
36.851551 -16.988798 0.283300
23.243366 -10.715339 0.536126
36.726334 -16.931072 0.847121
23.277941 -10.854682 -0.538011
26.231855 -12.232116 -0.606283
29.847231 -13.917993 -0.689843
23.789999 -11.093459 -0.183258
26.862309 -12.526100 -0.206925
28.847075 -13.451612 -0.222214
23.008778 -10.851645 0.177603
36.918961 -17.412111 0.284975
23.818123 -11.233356 0.551623
36.821335 -17.366070 0.852775
23.110140 -11.022971 -0.536335
28.623726 -13.652817 -0.664294
23.385414 -11.154271 -0.180884
37.077301 -17.684965 -0.286790
23.048306 -11.117184 0.178650
28.236202 -13.619527 0.218863
36.936733 -17.816166 0.286301
23.151873 -11.167138 0.538430
36.839485 -17.769257 0.856754
23.381493 -11.403915 -0.544922
37.219883 -18.153351 -0.867435
22.873751 -11.156274 -0.177673
26.064392 -12.712454 -0.202457
27.313686 -13.321774 -0.212160
24.035604 -11.853048 0.187098
37.013035 -18.252810 0.288117
22.641069 -11.165340 0.528796
36.862350 -18.178501 0.860943
22.878452 -11.406775 -0.535498
37.212158 -18.553297 -0.870995
22.775524 -11.355457 -0.177673
24.484808 -12.207675 -0.191007
37.129921 -18.512297 -0.289652
24.583111 -12.390908 0.192194
22.542772 -11.362494 0.528796
24.765802 -12.482992 0.580943
23.463964 -11.955487 -0.551623
25.824614 -13.158298 -0.607121
27.321177 -13.920835 -0.642304
23.005228 -11.721749 -0.180256
24.439713 -12.452656 -0.191496
37.207527 -18.958181 -0.291537
22.509365 -11.593085 0.176766
27.718880 -14.276161 0.217676
37.071110 -19.092876 0.291119
22.780512 -11.732735 0.536754
37.010555 -19.061687 0.872042
23.278927 -12.118243 -0.549739
37.255154 -19.393805 -0.879791
22.671444 -11.802007 -0.178441
37.226936 -19.379118 -0.293003
22.150702 -11.654047 0.174741
23.690542 -12.464197 0.186888
37.150875 -19.546021 0.293073
22.279102 -11.721602 0.527330
24.110624 -12.685213 0.570681
22.907465 -12.180115 -0.543456
26.359034 -14.015347 -0.625341
23.062029 -12.262299 -0.182351
26.275881 -13.971133 -0.207762
22.268375 -11.965230 0.176486
22.695576 -12.194773 0.539686
26.808434 -14.404691 0.637487
28.763582 -15.455230 0.683979
26.429022 -14.349788 -0.629948
22.514746 -12.224509 -0.178860
26.047504 -14.142641 -0.206925
27.251455 -14.796332 -0.216489
23.083652 -12.664125 0.183817
22.360394 -12.267332 0.534241
26.506403 -14.541910 0.633299
28.750330 -15.772971 0.686911
23.487133 -13.019131 -0.562513
26.433954 -14.652580 -0.633089
22.669590 -12.565959 -0.180954
28.232037 -15.649273 -0.225355
23.068232 -12.918831 0.184585
25.266869 -14.150126 0.202177
22.540352 -12.623204 0.541152
25.183435 -14.103401 0.604608
23.041964 -13.036516 -0.554555
27.740854 -15.695020 -0.667644
22.619993 -12.797776 -0.181443
22.954617 -13.119644 0.184585
25.159788 -14.380004 0.202317
22.411978 -12.809500 0.540733
23.039883 -13.302082 -0.557278
26.407982 -15.246655 -0.638744
27.689419 -15.986493 -0.669739
22.498793 -12.989683 -0.181373
37.437366 -21.614473 -0.301800
22.942911 -13.379910 0.185422
25.586184 -14.921422 0.206785
28.177628 -16.432707 0.227729
22.670710 -13.221167 0.549739
27.438036 -16.001389 0.665341
22.965996 -13.528006 -0.558325
22.737839 -13.393611 -0.184235
24.934940 -14.687802 -0.202038
37.436874 -22.052004 -0.303336
22.868248 -13.605178 0.185771
28.033154 -16.677975 0.227729
37.374676 -22.235594 0.303615
22.717722 -13.515624 0.553718
37.324429 -22.205700 0.909739
23.284128 -13.990516 -0.569006
37.629963 -22.610361 -0.919582
23.142954 -13.905689 -0.188494
25.054390 -15.054196 -0.204062
37.534443 -22.552967 -0.305709
22.603319 -13.716031 0.184585
24.219063 -14.696488 0.197779
22.923708 -13.910447 0.561676
37.377098 -22.680979 0.915812
23.050333 -14.125262 -0.566283
24.294916 -14.887943 -0.596859
25.709988 -15.755100 -0.631623
23.174194 -14.201165 -0.189751
25.024380 -15.334959 -0.204900
37.549358 -23.010277 -0.307455
22.848408 -14.139024 0.187586
24.217442 -14.986207 0.198826
22.979980 -14.220443 0.566074
37.356281 -23.116768 0.920210
24.664309 -15.411970 -0.609215
24.626717 -15.388480 -0.202736
22.732611 -14.343208 0.187656
22.804277 -14.388427 0.564817
37.432159 -23.617933 0.927121
24.419260 -15.556784 -0.606492
27.378914 -17.442291 -0.680000
24.592695 -15.667274 -0.203574
37.597473 -23.952232 -0.311225
24.196102 -15.563457 0.200851
26.739176 -17.199215 0.665969
37.468479 -24.100536 0.933194
24.483810 -15.899972 -0.611519
37.681591 -24.470711 -0.941152
24.002167 -15.587190 -0.199804
37.613457 -24.426466 -0.313110
24.193169 -15.861736 0.201968
24.840612 -16.286219 0.622199
26.688400 -17.497681 0.668482
24.510866 -16.223389 -0.615707
37.691711 -24.947599 -0.946807
24.532324 -16.237591 -0.205389
37.690720 -24.946943 -0.315553
26.431774 -17.661148 0.221934
37.623081 -25.138941 0.315902
27.357664 -18.279806 0.689215
37.565872 -25.100712 0.946388
24.675035 -16.643522 -0.623456
37.779243 -25.482422 -0.954556
24.605236 -16.596441 -0.207204
27.291252 -18.408182 -0.229823
24.623508 -16.765551 0.207972
26.731260 -18.200668 0.225774
37.608917 -25.607000 0.317647
27.172310 -18.500967 0.688587
37.543736 -25.562620 0.951414
26.901819 -18.489107 -0.683770
37.827335 -25.998007 -0.961466
24.846800 -17.076733 -0.210485
37.785263 -25.969093 -0.320091
26.974012 -18.712538 0.229195
37.688026 -26.145115 0.320230
26.919464 -18.674698 0.686283
37.606747 -26.088728 0.958744
26.936003 -18.860792 -0.688796
37.844715 -26.499155 -0.967749
26.490732 -18.549009 -0.225774
37.753799 -26.435493 -0.321766
26.287050 -18.577850 0.224727
37.776917 -26.698086 0.322953
26.657499 -18.839657 0.683770
37.679741 -26.629410 0.966493
26.859921 -19.158995 -0.691100
37.921322 -27.049017 -0.975707
26.368559 -18.808510 -0.226123
37.855450 -27.002029 -0.324629
26.026543 -18.736431 0.223889
37.777847 -27.196159 0.324978
26.346027 -18.966427 0.680000
37.713684 -27.149969 0.973404
26.748323 -19.433796 -0.692566
27.807903 -20.203625 -0.720000
37.877956 -27.519947 -0.980734
25.896004 -18.814547 -0.223470
37.844894 -27.495924 -0.326583
37.837460 -27.743572 0.327561
26.106949 -19.142406 0.678116
37.765579 -27.690870 0.980943
25.565079 -18.917164 -0.666178
25.658485 -18.986280 -0.222842
37.917004 -28.057108 -0.329306
37.874344 -28.282114 0.330004
37.786854 -28.216782 0.987854
25.598639 -19.289959 -0.671414
38.134468 -28.736382 -1.000210
25.843216 -19.474260 -0.225914
37.998150 -28.633661 -0.332168
25.176929 -19.144981 0.220817
37.936531 -28.847609 0.332727
37.889343 -28.811726 0.997069
25.429329 -19.512611 -0.671414
38.096405 -29.232399 -1.005864
25.775421 -19.778177 -0.226821
37.992767 -29.152874 -0.334333
37.975895 -29.404079 0.335310
37.881535 -29.331018 1.003561
24.359949 -19.032078 -0.647540
25.396967 -19.842285 -0.225006
38.083633 -29.754194 -0.337404
24.933205 -19.655754 0.221655
38.024120 -29.975798 0.338033
25.705637 -20.264690 0.685655
37.938190 -29.908058 1.011938
24.161640 -19.219036 -0.646702
25.570024 -20.339317 -0.684398
38.331566 -30.490303 -1.025969
24.119396 -19.185434 -0.215162
38.159042 -30.353073 -0.340406
26.944353 -21.625130 0.241203
38.065235 -30.550581 0.340755
25.426455 -20.406887 0.682932
25.927673 -20.995815 -0.698849
38.398129 -31.094193 -1.034974
25.583021 -20.716722 -0.229823
38.242420 -30.968102 -0.343548
36.945374 -30.185637 0.333076
37.774330 -30.862923 1.021781
38.418476 -31.669748 -1.042933
25.540152 -21.053677 -0.231080
26.931873 -22.399002 0.244554
28.138926 -23.402897 0.255514
25.327782 -21.064894 0.690053
38.630806 -32.415096 -1.056336
25.761446 -21.616421 -0.234780
27.768435 -23.300484 -0.253071
38.393211 -32.215729 -0.349901
27.094093 -22.936842 0.247835
25.475615 -21.758230 -0.701780
38.764595 -33.108093 -1.067854
25.533810 -21.807934 -0.234431
38.483208 -32.867764 -0.353322
28.544353 -24.595388 0.263054
27.925295 -24.061974 0.772147
38.241066 -32.950611 1.057383
38.806202 -33.733715 -1.077069
29.085798 -25.283899 -0.269058
38.587360 -33.543480 -0.356952
28.396297 -24.902885 0.263682
28.067541 -24.614573 0.781990
38.869766 -34.389065 -1.087121
38.637684 -34.183735 -0.360163
34.884792 -31.135868 0.326444
38.503082 -34.365314 0.360303
38.309105 -34.192181 1.075603
38.924820 -35.048065 -1.097173
38.806076 -34.941147 -0.364561
34.382294 -31.230677 0.324280
38.594032 -35.056351 0.364003
38.394093 -34.874741 1.086493
38.971302 -35.710621 -1.107226
38.875687 -35.623005 -0.368122
38.763939 -35.833019 0.368541
38.462719 -35.554573 1.097173
39.067657 -36.431179 -1.118953
38.972889 -36.342808 -0.372031
33.322159 -31.346357 0.319393
38.762959 -36.464550 0.371543
38.566067 -36.279331 1.109111
39.183380 -37.183640 -1.131519
39.002430 -37.011925 -0.375382
32.816196 -31.414673 0.317159
38.956139 -37.292389 0.376499
38.645218 -36.994747 1.120629
39.231380 -37.885303 -1.142409
39.087971 -37.746815 -0.379362
39.016018 -38.007721 0.380269
38.786404 -37.784042 1.134241
39.327137 -38.646667 -1.154974
39.206421 -38.528042 -0.383760
39.116058 -38.776188 0.384528
35.529881 -35.221172 1.047959
39.384281 -39.384281 -1.166702
39.222256 -39.222256 -0.387251
35.389957 -35.700150 0.350948
34.313190 -34.613945 1.020943
39.487576 -40.182850 -1.180105
39.369114 -40.062302 -0.392137
35.084049 -36.014786 0.351018
34.093540 -34.997997 1.023456
34.909775 -35.835888 1.047959
39.566010 -40.971802 -1.193090
39.434795 -40.835926 -0.396326
34.796089 -36.348469 0.351297
35.086590 -36.651932 1.062828
39.702465 -41.837669 -1.208168
35.490696 -37.399391 -0.359954
39.545006 -41.671741 -0.401073
33.093929 -35.179886 1.011728
39.799515 -42.679752 -1.222409
39.582222 -42.446735 -0.405192
34.292179 -37.097069 0.352693
34.204056 -37.001740 1.055498
39.918625 -43.563534 -1.237697
39.730492 -43.358223 -0.410568
33.261177 -36.617699 0.345363
34.404186 -37.876057 1.071833
40.018616 -44.445175 -1.252776
35.523277 -39.452599 -0.370635
33.100170 -37.085609 0.347038
33.872627 -37.951073 1.065550
40.059845 -45.279419 -1.266388
33.481377 -37.843811 -0.352763
33.250000 -37.914356 0.352065
32.644703 -37.553432 -0.347388
32.167217 -37.331894 0.344037
32.284943 -37.468521 1.036021
32.328926 -37.852310 -1.042723
32.250805 -37.760841 -0.346689
31.291021 -36.962448 0.338102
32.060101 -37.870918 1.039372
32.305847 -38.500610 -1.052776
31.280594 -37.610825 0.341523
31.511036 -37.887901 1.032252
31.577553 -38.648994 0.348435
31.761168 -38.873726 1.051519
31.214043 -38.891891 0.348155
31.164152 -38.829731 1.042933
23.167604 -29.387966 0.783875
0.128507 -0.178507 0.004607
0.165295 -0.238272 0.002025
0.153865 -0.221796 0.005654
0.155556 -0.232806 0.001955
0.138862 -0.207822 0.005236
0.159001 -0.242517 0.002025
0.148007 -0.225748 0.005654
0.151469 -0.235485 0.001955
0.135214 -0.210214 0.005236
0.149408 -0.236798 0.001955
0.117369 -0.186019 0.004607
0.147336 -0.238093 0.001955
0.157830 -0.255050 0.006283
0.129690 -0.213723 0.001745
0.119292 -0.196587 0.004817
0.138046 -0.232034 0.001885
0.127795 -0.214804 0.005236
0.130953 -0.224548 0.005445