# This PCD file was generated using the MATLAB® pcwrite function
# from Computer Vision System Toolbox®.
# .PCD v.7 - Point Cloud Data file format
VERSION .7
FIELDS x y z
SIZE 4 4 4
TYPE F F F
COUNT 1 1 1
WIDTH 757
HEIGHT 1
VIEWPOINT 0 0 0 1 0 0 0
POINTS 757
DATA ascii
38.374233 40.438004 -1.167749
38.271584 40.329834 -0.388158
38.524250 39.893028 -1.161676
38.392834 39.756943 -0.385854
38.611629 39.291481 -1.153927
38.493000 39.170761 -0.383411
38.670258 38.670258 -1.145550
38.529308 38.529308 -0.380409
38.835102 38.163147 -1.140524
38.571644 37.904251 -0.377547
38.757084 37.427280 -0.376150
38.980320 36.990944 -1.125655
39.096905 36.458454 -1.119791
39.002144 36.370087 -0.372311
39.148212 35.872726 -1.112252
39.111610 35.839188 -0.370356
39.192291 35.288898 -1.104713
39.155346 35.255634 -0.367843
39.378944 34.839546 -1.101362
39.251812 34.727070 -0.365888
39.440018 34.284683 -1.094660
39.372238 34.225765 -0.364212
39.372787 33.627537 -1.084608
39.426090 33.673061 -0.361978
39.465614 33.115582 -1.079163
35.237186 29.567509 -0.321138
35.687523 29.418526 -0.968796
35.231522 29.042624 -0.318764
34.862892 28.231413 -0.939686
35.771156 28.966911 -0.321347
35.240940 28.031910 -0.943247
39.638138 31.529598 -0.353601
35.176964 27.483255 -0.935079
35.743298 27.925724 -0.316670
39.683254 31.003956 -0.351576
35.312344 27.096115 -0.932357
35.557232 27.284023 -0.312900
39.912632 30.626041 -0.351227
35.866840 27.027601 -0.940733
36.097446 27.201376 -0.315553
36.551392 27.046608 -0.952461
36.421867 26.950764 -0.316321
36.656609 26.632586 -0.949110
36.631397 26.614267 -0.316111
37.530632 26.770340 -0.965655
40.159649 28.645599 -1.033299
40.224468 28.691833 -0.344944
40.227924 28.167896 -1.028692
40.309490 28.225008 -0.343548
40.299171 27.696854 -1.024294
40.389439 27.758894 -0.342152
40.373562 27.232313 -1.020105
40.464336 27.293541 -0.340755
40.476276 26.790663 -1.016755
30.052513 19.891325 -0.251605
40.467491 26.784849 -0.338801
36.960491 24.002424 -0.923142
40.540829 26.327522 -1.012566
40.498413 26.299978 -0.337125
29.999130 19.296089 0.249022
29.791477 19.162521 0.741990
37.016766 23.582279 -0.919372
40.591961 25.859930 -1.008168
40.557705 25.838108 -0.335729
29.999842 18.928492 0.743037
37.127880 23.200075 -0.917069
28.951656 18.091003 -0.238340
40.645954 25.398411 -0.334612
35.730930 22.110970 0.293353
29.017506 17.781950 -0.712880
29.202213 17.895140 -0.239108
30.023773 18.218872 0.245182
29.778597 18.070097 0.729634
29.240133 17.569244 -0.714555
29.031549 17.443914 -0.236455
37.460613 22.286722 0.304313
30.184326 17.957787 0.735707
28.970234 17.064772 -0.704294
29.079275 17.129002 -0.235618
31.917944 18.613995 0.257958
28.422592 16.575565 0.689215
30.478069 17.774284 0.739058
29.576941 17.076254 -0.715393
29.582706 17.079584 -0.238480
28.461996 16.267370 0.686702
29.933670 16.935656 -0.720419
29.843769 16.884792 -0.239387
30.740213 17.391975 -0.246578
27.971540 15.664815 0.223819
28.131824 15.754579 0.675393
30.919769 17.139109 -0.740524
27.887999 15.299880 0.222074
27.724785 15.210339 0.662409
30.980295 16.820929 -0.738430
37.517262 20.370211 -0.894241
30.590878 16.609491 -0.243018
28.082113 15.089064 0.222563
27.882885 14.982014 0.663037
30.769974 16.360685 -0.243297
37.550846 19.966139 -0.296913
29.265827 15.397497 0.230870
30.805670 16.207647 0.243018
27.800213 14.626400 0.658011
28.032263 14.592672 -0.661990
30.814005 16.040756 -0.242529
29.825798 15.361296 0.234221
27.900127 14.369510 0.657383
29.957977 15.264352 -0.704294
28.146210 14.341210 -0.220538
29.696524 15.131135 -0.232685
30.458769 15.352484 0.238131
28.042316 14.134491 0.657801
28.211092 14.065532 -0.660315
29.785831 14.850668 -0.697173
28.440321 14.179821 -0.221864
29.863232 14.889258 -0.232965
30.071411 14.829578 0.234082
30.379385 14.981455 0.709529
28.188986 13.748687 -0.656964
28.284359 13.795204 -0.219700
29.596224 14.275523 0.229404
28.596655 13.639905 -0.663665
28.295359 13.496194 -0.218863
28.552954 13.466447 0.220398
29.560154 13.941474 0.684608
28.415579 13.250402 -0.656754
28.230799 13.164238 -0.217466
28.442350 13.112103 0.218653
28.445885 13.113733 0.656126
28.803055 13.126308 -0.663037
28.608484 13.037638 -0.219491
28.428047 12.805902 0.217676
28.677744 12.918382 0.658849
28.688169 12.772796 -0.657801
28.602411 12.734614 -0.218583
28.392271 12.492898 0.216559
28.642965 12.603207 0.655498
28.835215 12.537908 -0.658639
28.409828 12.352945 -0.216279
28.344019 12.177551 0.215372
28.421165 12.210696 0.647958
28.750265 12.203763 -0.654241
28.599388 12.139720 -0.216908
28.744305 12.053487 0.217606
28.572741 11.981544 0.649006
29.077349 12.044232 -0.659267
28.787384 11.924125 -0.217536
28.635525 11.715103 0.216000
28.407862 11.621964 0.642932
28.810555 11.640220 -0.650890
29.140678 11.773599 -0.219421
28.653076 11.431418 0.215372
28.777494 11.481056 0.649006
29.031963 11.435995 -0.653613
28.888762 11.379586 -0.216768
29.012697 11.282421 0.217327
28.904543 11.240362 0.649634
29.177324 11.200125 -0.654660
29.108328 11.173640 -0.217676
29.259668 11.085497 0.218444
28.973484 10.977072 0.649006
29.077293 10.871554 -0.650262
29.223459 10.926204 -0.217815
29.392818 10.843583 0.218723
29.208870 10.775722 0.652147
29.593826 10.771272 -0.659686
29.345886 10.681028 -0.218025
29.373388 10.546124 0.217885
29.631132 10.638663 0.659477
41.506168 14.902237 0.923770
29.639572 10.495923 -0.658639
29.475681 10.437886 -0.218304
29.615351 10.342143 0.219002
29.817232 10.412643 0.661571
29.834023 10.272677 -0.660943
29.641285 10.206313 -0.218863
29.979076 10.176525 0.221027
29.925898 10.158473 0.661990
30.007860 10.040490 -0.662828
30.108541 10.074178 -0.221655
30.256678 9.977156 0.222423
30.374212 10.015913 0.669948
30.236965 9.824585 -0.665969
30.385515 9.872852 -0.223051
30.456875 9.749323 0.223261
30.422373 9.738278 0.669110
30.483644 9.611456 -0.669529
30.432365 9.595288 -0.222772
30.798643 9.563232 0.225146
30.496647 9.469460 0.668901
30.690651 9.383074 -0.672252
30.677509 9.379056 -0.223959
30.880924 9.294104 0.225146
30.769594 9.260596 0.673089
30.780949 9.117733 -0.672461
31.036238 9.193353 -0.225983
30.960854 9.024266 0.225146
30.954817 9.022507 0.675393
31.224543 8.953494 -0.680419
31.163345 8.935946 -0.226332
31.336779 8.837886 0.227310
31.272936 8.819880 0.680629
31.388195 8.704717 -0.682304
31.182322 8.647623 -0.225914
31.653900 8.629844 0.229055
31.464460 8.578197 0.683142
31.598162 8.466702 -0.685236
31.304893 8.388121 -0.226263
31.882729 8.394022 0.230172
31.576794 8.313476 0.683979
32.300003 8.353349 -0.698849
31.822237 8.229790 -0.229474
31.974148 8.120399 0.230312
31.764421 8.067135 0.686493
32.944016 8.213865 -0.711205
43.488819 10.842980 -0.938849
31.980167 7.973551 -0.230102
31.946663 7.817298 0.229614
32.659069 7.991623 0.704294
32.431145 7.786029 -0.698639
32.194382 7.729187 -0.231150
32.315403 7.609268 0.231778
32.357761 7.619242 0.696335
32.731655 7.556698 -0.703665
32.660088 7.540175 -0.234012
32.546379 7.364494 0.232965
32.384014 7.327754 0.695498
33.040371 7.324874 -0.708901
32.910137 7.296001 -0.235338
32.892796 7.141726 0.234989
32.964546 7.157305 0.706597
33.230167 7.063290 -0.711623
32.962772 7.006453 -0.235268
32.904915 6.844233 0.234640
33.035538 6.871402 0.706807
35.249958 7.171685 -0.753508
33.277431 6.770370 -0.237084
35.217636 7.165109 -0.250906
33.032043 6.570482 0.235129
35.376064 7.036736 0.251814
32.888325 6.541894 0.702409
34.840122 6.772234 -0.743456
33.040768 6.422474 -0.234989
35.043236 6.811715 -0.249231
33.166718 6.296898 0.235687
34.876141 6.621442 0.247835
32.973625 6.260239 0.703037
33.295540 6.170964 -0.709320
34.897892 6.467942 -0.743456
33.587170 6.225014 -0.238480
34.716110 6.277695 0.246299
33.145061 5.993603 0.705550
34.788048 6.290704 0.740524
43.681824 7.898961 0.929843
35.455151 6.251699 -0.754137
33.374321 5.884793 -0.236595
34.940128 6.160887 -0.247695
34.927254 6.001600 0.247416
33.215809 5.707520 0.705969
35.048542 6.022441 0.744922
43.739239 7.515776 0.929634
35.981670 6.021266 -0.764189
35.278576 5.903609 -0.249720
36.876320 6.170979 -0.261029
35.205303 5.733548 0.249022
37.741821 6.146646 0.266963
43.851181 7.141618 0.310177
43.753822 7.125762 0.928587
36.032845 5.707042 -0.764189
44.100487 6.984831 -0.935288
36.494194 5.780113 -0.257958
44.020195 6.972114 -0.311155
36.696968 5.648204 0.259214
43.921715 6.760199 0.310247
43.804455 6.742151 0.928377
36.199928 5.410116 -0.766702
36.355339 5.433342 -0.256631
44.079361 6.587705 -0.311155
36.457870 5.286139 0.257190
36.430973 5.282239 0.771100
36.532879 5.134361 -0.772775
36.431076 5.120054 -0.256841
36.552151 4.974530 0.257539
36.465775 4.962774 0.770890
36.516819 4.807530 -0.771519
36.603252 4.818910 -0.257748
36.594170 4.655366 0.257539
36.557281 4.650674 0.771938
36.557381 4.488682 -0.771519
36.753090 4.512712 -0.258516
36.673126 4.340550 0.257818
36.636189 4.336179 0.772775
36.803764 4.193259 -0.775917
36.761261 4.188417 -0.258307
36.709606 4.020356 0.257818
36.672634 4.016307 0.772775
36.918499 3.880291 -0.777592
36.875973 3.875821 -0.258865
36.743294 3.699855 0.257818
36.706287 3.696129 0.772775
36.911148 3.554139 -0.776754
36.858624 3.549082 -0.258516
36.843884 3.385477 0.258307
36.806835 3.382073 0.774241
37.020435 3.238868 -0.778430
36.967884 3.234271 -0.259075
36.911888 3.067141 0.258586
36.874802 3.064059 0.775079
37.007423 2.912547 -0.777592
36.964794 2.909192 -0.258865
36.987106 2.748617 0.258935
36.900135 2.742154 0.775079
37.111217 2.595069 -0.779267
37.058601 2.591390 -0.259354
37.039619 2.427705 0.259144
36.962566 2.422654 0.775917
37.212284 2.276001 -0.780943
37.169636 2.273392 -0.259982
37.059395 2.104385 0.259144
37.032207 2.102841 0.776964
37.270664 1.953273 -0.781781
37.188057 1.948943 -0.259982
37.126289 1.783304 0.259493
37.089092 1.781517 0.777801
37.326244 1.629699 -0.782618
37.313541 1.629144 -0.260750
37.210384 1.462000 0.259982
37.183147 1.460930 0.779477
37.379013 1.305304 -0.783456
37.326336 1.303464 -0.260750
37.261703 1.138448 0.260261
37.224461 1.137310 0.780105
37.478928 0.981420 -0.785341
37.416264 0.979779 -0.261309
37.350201 0.814984 0.260820
37.272949 0.813299 0.780943
37.516056 0.654845 -0.785969
37.473377 0.654100 -0.261658
37.405884 0.489670 0.261169
37.318615 0.488527 0.781781
37.560329 0.327784 -0.786807
37.507656 0.327324 -0.261867
37.488731 0.163576 0.261727
37.411438 0.163239 0.783665
37.641743 0.000000 -0.788482
37.589085 0.000000 -0.262426
37.478729 -0.163533 0.261658
37.451427 -0.163414 0.784503
37.600319 -0.328133 -0.787644
37.547657 -0.327673 -0.262146
37.595863 -0.492157 0.262495
37.648514 -0.492846 0.788692
37.675995 -0.657637 -0.789320
37.753330 -0.658987 -0.263612
37.870064 -0.826328 0.264450
37.752731 -0.823767 0.790995
38.068596 -0.996861 -0.797697
37.976055 -0.994438 -0.265218
37.701488 -1.151885 0.263333
37.634178 -1.149828 0.788692
37.898579 -1.323448 -0.794346
37.846008 -1.321612 -0.264380
37.769936 -1.483985 0.263892
37.692642 -1.480948 0.790157
37.915554 -1.655429 -0.794974
37.833035 -1.651826 -0.264380
37.795502 -1.815448 0.264171
37.718231 -1.811736 0.790995
37.979538 -1.990423 -0.796650
37.927025 -1.987671 -0.265148
37.858089 -2.149738 0.264729
37.780838 -2.145351 0.792671
37.960720 -2.321777 -0.796650
37.918217 -2.319177 -0.265218
37.877800 -2.482642 0.265009
37.840488 -2.480197 0.794346
37.978909 -2.655744 -0.797487
37.976337 -2.655564 -0.265777
37.974361 -2.821983 0.265846
37.857285 -2.813282 0.795184
38.113758 -2.999618 -0.800838
38.071346 -2.996280 -0.266614
38.028011 -3.159884 0.266405
37.910999 -3.150161 0.796859
38.205647 -3.342561 -0.803351
38.113480 -3.334497 -0.267103
38.078651 -3.498937 0.266963
38.001537 -3.491851 0.799372
38.254639 -3.683503 -0.805027
38.162560 -3.674637 -0.267662
38.126263 -3.839113 0.267522
38.049198 -3.831353 0.801048
38.300583 -4.025553 -0.806702
38.248379 -4.020067 -0.268499
38.170834 -4.180386 0.268080
38.093822 -4.171952 0.802723
38.393131 -4.374345 -0.809425
38.301262 -4.363878 -0.269128
38.252064 -4.527430 0.268918
38.175106 -4.518322 0.805236
38.422958 -4.717746 -0.810890
38.341122 -4.707698 -0.269686
38.211098 -4.861066 0.268918
38.213570 -4.861380 0.806911
38.499271 -5.068525 -0.813404
38.417553 -5.057767 -0.270524
37.582626 -5.114771 0.264799
38.100346 -5.185229 0.805445
38.532780 -5.415429 -0.815079
38.451172 -5.403960 -0.271082
38.357952 -5.561638 0.270594
38.093224 -5.523254 0.806283
38.612598 -5.770691 -0.817801
38.323429 -5.727475 -0.270524
38.189358 -5.877904 0.269756
38.073215 -5.860029 0.806911
38.402775 -6.082402 -0.814451
38.351006 -6.074202 -0.271082
38.294525 -6.236660 0.270873
38.217987 -6.224194 0.811100
38.466564 -6.437095 -0.816964
38.375439 -6.421846 -0.271641
38.396328 -6.597696 0.271990
38.319870 -6.584558 0.814451
38.527077 -6.793363 -0.819477
38.436111 -6.777323 -0.272479
38.416012 -6.946747 0.272548
38.339657 -6.932939 0.816126
38.544968 -7.143888 -0.821152
38.444328 -7.125236 -0.272967
38.471821 -7.304103 0.273386
38.395565 -7.289626 0.818639
38.638187 -7.510503 -0.824503
38.586823 -7.500519 -0.274433
38.524307 -7.662961 0.274224
38.487381 -7.655616 0.821990
38.727928 -7.879286 -0.827854
38.637489 -7.860886 -0.275271
38.612614 -8.031435 0.275341
38.575722 -8.023762 0.825341
38.735928 -8.233576 -0.829529
38.684795 -8.222707 -0.276109
38.619232 -8.385057 0.275899
38.582394 -8.377059 0.827016
38.896862 -8.623227 -0.834555
38.806820 -8.603265 -0.277505
38.973728 -8.818854 0.278971
38.897873 -8.801690 0.835393
39.122120 -9.032053 -0.841048
39.081032 -9.022567 -0.280018
39.051025 -9.195295 0.280088
38.975288 -9.177463 0.838744
39.236244 -9.419788 -0.845236
39.146660 -9.398281 -0.281066
39.163559 -9.583261 0.281484
39.049099 -9.555254 0.842095
39.278656 -9.793269 -0.847959
39.189289 -9.770988 -0.281973
39.194744 -9.954197 0.282322
39.119270 -9.935029 0.845446
39.375607 -10.183225 -0.851938
39.325199 -10.170188 -0.283579
39.261108 -10.336587 0.283439
39.185776 -10.316753 0.848796
39.478386 -10.578202 -0.856126
39.399155 -10.556972 -0.284766
39.400955 -10.741933 0.285115
39.325752 -10.721431 0.853822
39.500183 -10.954370 -0.858639
39.459705 -10.943145 -0.285883
39.421207 -11.117929 0.285952
39.307674 -11.085911 0.855498
39.633739 -11.364792 -0.863665
39.545341 -11.339444 -0.287209
39.514690 -11.517482 0.287349
39.401402 -11.484462 0.859686
39.734364 -11.769855 -0.868063
39.646229 -11.743749 -0.288675
39.604187 -11.919507 0.288745
39.529449 -11.897014 0.864713
39.773552 -12.159995 -0.871205
39.695244 -12.136054 -0.289792
39.603710 -12.297279 0.289513
39.576897 -12.288953 0.868063
39.856625 -12.566746 -0.875393
39.769028 -12.539126 -0.291119
39.771080 -12.730823 0.291537
39.696674 -12.707006 0.873089
39.897579 -12.963510 -0.878744
39.857807 -12.950586 -0.292585
39.800919 -13.124375 0.292585
39.840637 -13.137471 0.878744
40.095810 -13.415871 -0.885655
40.122597 -13.424833 -0.295377
40.110981 -13.615844 0.295726
39.913818 -13.548916 0.882932
40.279709 -13.869416 -0.892357
40.032280 -13.784220 -0.295587
39.990635 -13.965356 0.295726
39.879013 -13.926374 0.884817
40.147720 -14.217053 -0.892147
40.061287 -14.186446 -0.296704
40.017830 -14.367868 0.296843
39.981800 -14.354933 0.889843
40.210022 -14.635252 -0.896336
40.133293 -14.607325 -0.298170
40.116085 -14.799604 0.298519
40.042603 -14.772496 0.894032
40.268070 -15.055614 -0.900524
40.182259 -15.023531 -0.299496
40.163078 -15.216430 0.299845
40.024357 -15.163873 0.896545
40.396500 -15.506763 -0.906388
40.273678 -15.459617 -0.301172
40.261757 -15.656941 0.301590
40.114140 -15.599536 0.901571
40.408474 -15.917321 -0.909739
40.323315 -15.883776 -0.302568
40.300064 -16.078094 0.302917
40.199348 -16.037912 0.906597
40.527588 -16.374208 -0.915603
40.442776 -16.339941 -0.304523
40.380348 -16.520037 0.304592
40.279942 -16.478960 0.911624
40.577126 -16.807596 -0.920000
40.520370 -16.784086 -0.306198
40.455971 -16.964596 0.306268
40.355885 -16.922626 0.916650
38.118950 -16.180534 -0.867435
40.556454 -17.215195 -0.307594
40.526894 -17.411728 0.307943
40.427132 -17.368868 0.921676
38.187176 -16.604256 -0.872252
40.836899 -17.756388 -0.932775
40.633942 -17.668140 -0.309340
40.602226 -17.865408 0.309689
40.493649 -17.817633 0.926702
38.141293 -16.981598 -0.874555
40.799126 -18.164942 -0.935498
37.582344 -16.732738 -0.287209
40.724865 -18.131878 -0.311225
40.627125 -18.301186 0.311085
40.555397 -18.268875 0.931728
38.055332 -17.342813 -0.876021
40.893787 -18.636374 -0.941362
37.307503 -17.002008 -0.286232
35.925270 -16.561775 0.276179
40.738312 -18.780619 0.313179
36.444874 -16.801315 0.840629
36.434643 -16.989754 -0.842095
37.857235 -17.653118 -0.874974
37.112400 -17.305796 -0.285883
35.887905 -16.925835 0.277016
36.918961 -17.412111 0.284975
38.085678 -17.962372 0.293981
34.198990 -16.129292 0.792042
34.949463 -16.670038 -0.811100
36.303043 -17.315662 -0.842514
36.923862 -17.611780 -0.285603
36.864681 -17.781410 0.285743
34.056938 -16.427116 0.792042
34.919476 -17.031366 -0.813822
36.903584 -17.999081 -0.286651
34.968216 -17.244415 0.272199
36.806759 -18.151085 0.286511
34.522026 -17.024380 0.806283
34.545837 -17.223919 -0.808587
35.986366 -17.942141 -0.842304
34.901588 -17.401291 -0.272269
37.022533 -18.458754 -0.288815
34.896767 -17.589418 0.272828
34.586418 -17.432989 0.811309
33.218346 -16.925592 -0.780943
34.445473 -17.550844 -0.269896
34.715275 -17.879541 0.272618
34.370754 -17.702101 0.809843
32.998436 -17.177898 -0.779267
35.109058 -18.276619 -0.829110
33.953949 -17.675306 -0.267243
35.878716 -18.677277 -0.282392
33.956146 -17.865194 0.267871
33.055885 -17.391544 0.782409
34.754692 -18.285328 0.822618
33.332790 -17.723358 -0.790786
33.471729 -17.797234 -0.264660
34.672508 -18.435699 -0.274154
35.643726 -18.952105 -0.281833
33.807762 -18.165565 0.267941
35.166252 -18.895510 0.836231
36.531334 -19.628994 0.868692
32.913269 -17.870447 -0.784503
31.944223 -17.344297 -0.253769
32.122486 -17.622999 0.255793
33.683022 -18.479137 0.268220
33.325840 -18.283182 0.796231
32.677372 -18.113361 -0.782618
32.517567 -18.024782 -0.259563
32.037273 -17.941734 0.256352
33.267464 -18.630674 0.266195
33.461605 -18.739401 0.803351
32.300518 -18.274754 -0.777383
33.614468 -19.018150 -0.809006
32.463478 -18.366951 -0.260401
32.070484 -18.329790 0.257888
33.288124 -19.025730 0.803142
33.048939 -19.080814 -0.799372
32.275982 -18.634546 -0.260192
32.038879 -18.684521 0.258935
31.808084 -18.549927 0.771309
32.536594 -19.165520 -0.790995
32.215530 -18.976397 -0.261029
32.098045 -19.096331 0.260750
31.533298 -18.760342 0.768587
32.205284 -19.350885 -0.787016
33.756416 -20.282900 -0.824922
32.202991 -19.349508 -0.262286
32.160999 -19.515774 0.262635
32.043617 -19.444544 0.785131
32.035191 -19.631189 -0.787016
32.049961 -19.640242 -0.262426
32.048996 -19.832520 0.263124
31.541149 -19.518255 0.776964
32.227238 -20.137814 -0.796021
32.029995 -20.014563 -0.263682
32.145332 -20.282194 0.265358
32.722488 -20.646353 0.810472
32.935646 -20.982321 -0.818011
31.744480 -20.223465 -0.262775
33.051704 -21.056259 -0.273596
32.236240 -20.735046 0.267592
32.305634 -20.779680 0.804608
31.795414 -20.648182 -0.794137
31.466152 -20.434359 -0.261937
31.878452 -20.900429 0.266126
31.587961 -20.709974 0.791205
31.797430 -21.046259 -0.798744
32.337303 -21.403595 -0.270733
31.603390 -21.116711 0.265358
38.230042 -25.544497 0.320998
31.539038 -21.073711 0.794555
31.927523 -21.535387 -0.806702
31.850847 -21.483667 -0.268220
30.855843 -21.008995 0.260610
30.651489 -20.869856 0.776754
31.816727 -21.663237 0.806283
31.771336 -21.835835 -0.807540
33.312115 -22.894781 -0.846702
31.662157 -21.760798 -0.268220
31.657286 -21.961439 0.268988
31.248594 -21.677921 0.796650
31.686041 -22.186806 -0.810262
31.929768 -22.357464 -0.272130
31.627756 -22.352289 0.270384
31.303171 -22.122894 0.802932
33.184212 -23.670067 -0.853822
37.082970 -26.451025 -0.954137
32.254471 -23.006891 -0.276598
31.463957 -22.650808 0.270663
30.265070 -21.787733 0.781152
31.417253 -22.617186 0.810890
31.868279 -23.153660 -0.825131
33.639637 -24.440628 -0.870995
31.324375 -22.758490 -0.270314
30.265129 -22.191311 0.262007
30.436607 -22.317043 0.790576
30.636303 -22.669672 -0.798325
32.396362 -23.972048 -0.844189
30.803043 -22.793055 -0.267522
29.942125 -22.358845 0.260890
30.440968 -22.731348 0.795812
31.052124 -23.399454 -0.814451
32.249813 -24.301977 -0.845864
29.844282 -22.489279 -0.260890
31.233873 -23.536411 -0.273037
30.525932 -23.212460 0.267731
30.034527 -22.838785 0.790367
32.028584 -24.576395 -0.845655
30.940025 -23.741117 -0.272269
32.820229 -25.183847 -0.288815
30.749168 -23.808550 0.271501
29.628546 -22.940872 0.784922
30.323881 -23.691612 -0.806074
30.503153 -23.831675 -0.270245
30.100464 -23.729292 0.267592
29.874756 -23.551359 0.796859
30.053387 -23.905542 -0.804398
31.360056 -24.944914 -0.839372
31.334867 -24.924879 -0.279530
30.984055 -24.867334 0.277365
31.570597 -25.338083 0.847959
31.024633 -25.123253 -0.836231
31.147251 -25.222548 -0.279809
30.982695 -25.313923 0.279320
31.170210 -25.467131 0.843142
30.927645 -25.494783 -0.839582
31.481516 -25.951359 -0.284835
31.321854 -26.050110 0.284417
30.985218 -25.770134 0.844189
31.255417 -26.226410 -0.854660
32.143833 -26.971880 -0.878953
31.713467 -26.610758 -0.289024
32.123672 -27.194696 0.293841
31.690092 -26.827644 0.869739
31.534721 -26.933197 -0.868692
31.525663 -26.925461 -0.289443
32.924774 -28.120415 -0.302289
31.544237 -27.180254 0.290700
30.227787 -26.045929 0.835812
33.666378 -29.008808 0.930891
35.184391 -30.585323 -0.976545
31.470623 -27.356995 -0.291119
32.768692 -28.485390 -0.303126
31.298328 -27.447897 0.290630
33.433502 -29.320395 0.310457
30.051964 -26.354864 0.837278
31.916117 -27.989683 0.889215
33.487118 -29.367414 0.932985
32.699722 -28.930271 -0.914555
31.170778 -27.577574 -0.290560
33.385254 -29.797478 0.312411
31.804909 -28.386967 0.892985
32.423729 -29.194456 -0.913927
34.116947 -30.719038 -0.320510
35.751663 -32.474525 0.337195
34.064766 -30.942257 0.963980
53.703911 -49.643383 1.531938
53.865784 -50.671871 1.549111
50.216442 -47.653625 -0.483313
54.057083 -51.748402 1.567540
54.583153 -56.031174 1.638535
55.160652 -57.621571 0.556895
54.769650 -57.213123 1.659058
55.450508 -58.945625 0.564993
55.680668 -60.235008 0.572673
49.961056 -57.473621 -1.595184
49.419724 -56.850887 -0.525898
48.431705 -56.706242 -1.562095
48.674946 -56.991039 -0.523245
52.208286 -61.670921 1.692566
0.134348 -0.186621 0.004817
0.136796 -0.197190 0.001676
0.153865 -0.221796 0.005654
0.127778 -0.191233 0.001606
0.138862 -0.207822 0.005236
0.120622 -0.183978 0.001536
0.126080 -0.192304 0.004817
0.173108 -0.269126 0.002234
0.135214 -0.210214 0.005236
0.128064 -0.202970 0.001676
0.117369 -0.186019 0.004607
0.126288 -0.204080 0.001676
0.115742 -0.187036 0.004607
0.145253 -0.239369 0.001955
0.119292 -0.196587 0.004817
0.138046 -0.232034 0.001885
0.127795 -0.214804 0.005236
0.130953 -0.224548 0.005445