# This PCD file was generated using the MATLAB® pcwrite function
# from Computer Vision System Toolbox®.
# .PCD v.7 - Point Cloud Data file format
VERSION .7
FIELDS x y z
SIZE 4 4 4
TYPE F F F
COUNT 1 1 1
WIDTH 772
HEIGHT 1
VIEWPOINT 0 0 0 1 0 0 0
POINTS 772
DATA ascii
26.624361 29.055391 -0.275131
26.667107 28.596970 -0.819058
26.979198 28.931648 -0.276179
27.340778 28.811169 -0.277296
27.375820 28.348490 -0.275131
27.798973 28.288441 -0.830786
27.762339 28.251162 -0.276528
27.818550 27.818550 -0.824084
27.873470 27.873470 -0.275201
28.209999 27.721889 -0.828482
28.087118 27.601133 -0.274922
28.767281 27.780241 -0.837697
33.657089 32.502274 -0.326653
29.522017 28.015348 -0.284137
29.642576 27.642149 -0.849006
29.589849 27.592981 -0.282462
29.683647 27.200050 -0.843351
29.645199 27.164820 -0.280716
29.741564 26.779425 -0.838325
29.673050 26.717733 -0.278762
29.854315 26.412867 -0.834974
29.785244 26.351757 -0.277645
29.932762 26.020153 -0.830786
29.893318 25.985865 -0.276528
29.945822 25.576149 -0.824922
29.875622 25.516191 -0.274294
30.045332 25.211027 -0.821571
29.974588 25.151667 -0.273177
30.109903 24.820688 -0.817383
30.069477 24.787365 -0.272060
30.169960 24.431152 -0.813194
30.098129 24.372984 -0.270384
30.225523 24.042467 -0.809006
30.121855 23.960005 -0.268709
30.213585 23.605440 -0.803142
30.203716 23.597729 -0.267592
30.323246 23.267845 -0.800629
30.249826 23.211508 -0.266195
30.365448 22.882006 -0.796440
30.323452 22.850359 -0.265078
30.435383 22.520998 -0.793089
30.360933 22.465910 -0.263682
30.501341 22.160521 -0.789739
30.426388 22.106064 -0.262565
30.693563 21.893505 -0.789739
30.601856 21.828093 -0.262426
30.555861 21.395443 -0.781362
30.520861 21.370937 -0.260122
30.650770 21.065691 -0.779058
30.574337 21.013159 -0.259005
30.626221 20.657646 -0.773822
30.590740 20.633715 -0.257609
30.605650 20.450043 0.256980
30.705278 20.323381 -0.771309
30.669573 20.299747 -0.256771
30.657503 20.099939 0.255933
30.626444 20.079576 0.767121
30.755690 19.972979 -0.768168
30.677822 19.922411 -0.255374
30.705585 19.750496 0.254886
30.632332 19.703379 0.762932
30.793901 19.617878 -0.764817
30.749302 19.589466 -0.254537
30.673801 19.353727 0.253210
30.633999 19.328613 0.758744
30.887617 19.300724 -0.762932
30.817316 19.256796 -0.253699
30.773497 19.043219 0.252652
30.741993 19.023722 0.757278
30.884378 18.925972 -0.758744
30.847769 18.903538 -0.252582
30.801723 18.690945 0.251535
30.770077 18.671741 0.753927
30.988371 18.619692 -0.757278
30.942986 18.592421 -0.252023
30.860533 18.360086 0.250697
30.802963 18.325836 0.750786
31.080763 18.307968 -0.755603
30.966198 18.240484 -0.250906
30.881367 18.009481 0.249580
30.849438 17.990860 0.748063
31.022884 17.911072 -0.750367
30.985634 17.889565 -0.249789
30.941853 17.684725 0.248812
30.875059 17.646549 0.744922
31.082287 17.585512 -0.748063
31.036127 17.559397 -0.248952
30.981579 17.350517 0.247905
30.958092 17.337364 0.743246
31.129633 17.255438 -0.745550
31.083227 17.229713 -0.248114
31.035370 17.026587 0.247137
30.924137 16.965563 0.738849
31.138449 16.906797 -0.742199
31.091791 16.881466 -0.246997
31.033024 16.674646 0.245950
30.974133 16.643002 0.736545
31.214180 16.596874 -0.740524
31.167290 16.571941 -0.246438
31.115408 16.370607 0.245461
31.047405 16.334829 0.734870
31.251406 16.268452 -0.738011
31.204281 16.243921 -0.245601
31.150402 16.043510 0.244623
31.082111 16.008339 0.732356
31.320919 15.958805 -0.736335
31.211199 15.902900 -0.244554
31.048120 15.649542 0.242738
30.854584 15.551991 0.723770
31.315832 15.613499 -0.732985
31.071363 15.491611 -0.242389
31.004135 15.289547 0.241342
30.890490 15.233503 0.721466
31.639597 15.431663 -0.737383
31.097517 15.167272 -0.241552
30.559946 14.740368 0.236874
30.454933 14.689716 0.708273
31.700867 15.120538 -0.735707
30.849613 14.714511 -0.238619
30.397997 14.336626 0.234640
30.482496 14.376478 0.705969
31.840672 14.847548 -0.735917
30.886217 14.402479 -0.237921
30.412973 14.020573 0.233802
30.452442 14.038768 0.702409
31.450462 14.332801 -0.723979
31.001625 14.128255 -0.237852
31.190619 14.050349 0.238829
31.704128 14.281669 0.728377
31.647408 14.090334 -0.725655
30.730921 13.682287 -0.234850
31.238819 13.745410 0.238270
30.921593 13.605826 0.707644
31.741657 13.801665 -0.725027
31.390202 13.648848 -0.238969
31.954779 13.728857 0.242808
31.397396 13.489386 0.715812
32.422276 13.762439 -0.737801
31.784258 13.491617 -0.241063
35.447777 15.046689 -0.268848
35.485428 14.880275 0.268639
31.606115 13.253545 0.717906
35.543049 14.904438 0.807330
33.141529 13.727670 -0.751414
35.386063 14.657387 -0.802304
31.743727 13.148683 -0.239876
35.346771 14.641111 -0.267103
31.763777 12.994904 0.239597
31.766836 12.996156 0.718953
31.823240 12.857424 -0.718953
31.912891 12.893644 -0.240295
31.801664 12.687577 0.239038
31.693317 12.644352 0.714765
31.999344 12.604877 -0.720419
31.847418 12.545032 -0.238969
31.911171 12.409576 0.239038
31.839724 12.381792 0.715603
31.996119 12.282159 -0.717906
31.993021 12.280971 -0.239248
31.821877 12.056231 0.237572
31.909164 12.089301 0.714765
32.064621 11.988471 -0.717068
31.977209 11.955789 -0.238340
32.047836 11.823071 0.238480
31.825851 11.741177 0.710576
32.177414 11.711620 -0.717278
32.164894 11.707065 -0.238969
31.999205 11.488889 0.237363
32.002377 11.490027 0.712252
32.080479 11.360293 -0.712880
32.190422 11.399226 -0.238410
32.022720 11.182835 0.236804
31.950405 11.157580 0.708901
32.178394 11.079909 -0.712880
32.014481 11.023469 -0.236385
32.156963 10.915818 0.237084
32.084423 10.891194 0.709739
32.273857 10.798681 -0.712880
32.232735 10.784923 -0.237293
32.061062 10.572152 0.235687
32.102283 10.585746 0.708063
32.186203 10.457932 -0.708901
32.173458 10.453790 -0.236176
32.190193 10.304162 0.235967
32.041088 10.256433 0.704712
32.390659 10.212736 -0.711414
32.311142 10.187664 -0.236525
32.240688 10.011000 0.235687
32.205757 10.000154 0.706388
32.277767 9.868304 -0.707016
32.351002 9.890694 -0.236176
32.173615 9.683159 0.234570
32.138622 9.672626 0.703037
32.410587 9.600452 -0.708063
32.244324 9.551204 -0.234780
32.381691 9.438402 0.235478
32.298592 9.414181 0.704712
32.454689 9.306232 -0.707226
32.441792 9.302534 -0.235618
32.299210 9.109320 0.234291
32.341026 9.121113 0.703875
32.380516 8.979912 -0.703875
32.406101 8.987007 -0.234780
32.454655 8.848154 0.234850
32.226475 8.785946 0.699686
32.573532 8.728052 -0.706388
32.521931 8.714225 -0.235059
32.414589 8.534049 0.234012
32.379265 8.524749 0.701362
32.493587 8.403414 -0.703037
32.519287 8.410059 -0.234501
32.361832 8.218858 0.233104
32.336143 8.212334 0.698849
32.682095 8.148561 -0.705550
32.475006 8.096929 -0.233663
32.558594 7.967037 0.234012
32.484268 7.948849 0.700524
32.722794 7.856048 -0.704922
32.670834 7.843573 -0.234570
32.471142 7.645939 0.232895
32.552395 7.665071 0.700524
32.585529 7.522963 -0.700524
32.533424 7.510932 -0.233104
32.692677 7.397598 0.234012
32.501030 7.354232 0.698011
32.806114 7.272940 -0.703875
32.763695 7.263536 -0.234291
32.677811 7.095048 0.233453
32.603050 7.078816 0.698849
32.682522 6.946885 -0.699896
32.776928 6.966951 -0.233942
32.611210 6.783142 0.232546
32.506969 6.761459 0.695498
32.898655 6.693307 -0.703246
32.679691 6.648758 -0.232825
32.757431 6.515858 0.233174
32.721626 6.508736 0.698849
32.906742 6.396422 -0.702199
32.854259 6.386221 -0.233663
32.655857 6.199908 0.232057
32.737888 6.215483 0.698011
32.833511 6.085331 -0.699477
32.751423 6.070117 -0.232546
32.797276 5.930714 0.232685
32.712177 5.915325 0.696335
32.973980 5.814202 -0.701362
32.881931 5.797971 -0.233104
32.837929 5.642588 0.232616
32.801964 5.636408 0.697173
32.865688 5.499830 -0.698011
32.941135 5.512455 -0.233174
32.885918 5.355812 0.232616
32.731491 5.330662 0.694660
33.070427 5.237841 -0.701362
32.938602 5.216962 -0.232825
32.931404 5.068628 0.232616
32.905220 5.064598 0.697383
33.045662 4.938707 -0.699896
33.032326 4.936714 -0.233174
32.855625 4.763839 0.231778
32.819538 4.758606 0.694660
33.107300 4.652928 -0.700315
32.945415 4.630176 -0.232267
33.064388 4.499866 0.232965
32.988598 4.489551 0.697383
33.206120 4.371668 -0.701571
33.113453 4.359468 -0.233174
32.973442 4.194752 0.232057
33.026520 4.201504 0.697383
33.074306 4.061014 -0.698011
33.100609 4.064244 -0.232825
33.088234 3.916251 0.232616
32.972572 3.902561 0.695498
33.237621 3.786949 -0.700733
33.144749 3.776367 -0.232895
33.131092 3.628444 0.232685
33.084877 3.623384 0.697173
33.179916 3.487350 -0.698849
33.246056 3.494301 -0.233384
31.708874 3.192916 0.222493
33.111744 3.334177 0.232336
31.732534 3.195298 0.668063
33.015762 3.324512 0.695079
33.298653 3.206295 -0.700733
33.125977 3.189669 -0.232336
32.442535 2.981050 0.227449
31.918505 2.932899 0.671414
33.242634 3.054569 0.699267
33.405041 2.922563 -0.702409
32.754082 2.865611 -0.229544
32.616795 2.710247 0.228497
32.102299 2.667495 0.674765
30.937527 2.434836 -0.650053
33.259834 2.617606 -0.698849
30.465052 2.397651 -0.213347
31.332838 2.328432 0.219351
31.625839 2.350206 0.664294
30.807995 2.154305 -0.646911
33.331280 2.330750 -0.699896
30.654396 2.143564 -0.214534
31.272137 2.049684 0.218793
31.505474 2.064978 0.661362
33.270515 2.034912 -0.698220
30.981350 1.894900 -0.216698
31.748081 1.802787 0.222004
32.041344 1.819439 0.672252
31.270218 1.638803 -0.655917
33.556576 1.758626 -0.703875
31.476036 1.649589 -0.220049
32.192101 1.546297 0.225006
32.375561 1.555110 0.678953
30.983679 1.352777 -0.649634
31.519203 1.376158 -0.220259
30.066069 1.181299 0.210066
32.344257 1.270809 0.225983
30.060207 1.181069 0.630157
31.334023 1.094208 -0.656754
31.629950 1.104542 -0.220957
29.755390 0.909109 0.207832
30.249247 0.924198 0.633927
31.272417 0.818897 -0.655288
31.188549 0.816701 -0.217815
30.452009 0.664465 0.212649
30.136215 0.657575 0.631414
31.488295 0.549630 -0.659686
31.354460 0.547294 -0.218932
31.866493 0.417155 0.222493
32.370125 0.423748 0.678116
30.982023 0.270376 -0.649006
31.598026 0.275752 -0.220608
33.577904 0.293030 -0.234431
30.458967 0.132903 0.212649
32.798889 0.143113 0.228985
33.132416 0.144568 0.694032
30.873228 0.000000 -0.646702
30.429258 0.000000 -0.212440
33.219189 0.000000 -0.231917
30.448969 -0.132860 0.212579
30.652985 -0.133750 0.642095
31.441906 -0.274389 -0.658639
30.718082 -0.268073 -0.214464
30.486645 -0.399092 0.212859
30.320751 -0.396920 0.635184
30.518656 -0.532705 -0.639372
31.314466 -0.546596 -0.218653
33.081318 -0.721837 0.231010
30.556023 -0.666735 0.640210
32.575100 -0.710791 0.682513
30.093081 -0.788015 -0.630576
30.948637 -0.810419 -0.216140
30.884836 -0.943617 0.215721
31.718239 -0.969080 0.664712
30.194967 -1.054431 -0.632880
30.420715 -1.062315 -0.212510
30.515711 -1.198966 0.213208
32.098186 -1.261141 0.672880
30.933737 -1.350596 -0.648587
30.130560 -1.315529 -0.210555
30.374239 -1.458979 0.212300
31.456823 -1.510980 0.659686
30.790981 -1.613687 -0.645864
29.768421 -1.560097 -0.208111
30.150694 -1.712080 0.210834
31.877869 -1.810157 0.222912
30.993263 -1.759925 0.650262
30.456392 -1.862793 -0.639163
30.332577 -1.855220 -0.212160
31.900772 -2.090887 0.223191
31.505474 -2.064978 0.661362
30.109854 -2.105486 -0.632252
30.365110 -2.123335 -0.212510
31.562199 -2.345477 0.220957
31.835215 -2.365765 0.668691
30.349476 -2.388556 -0.637697
30.624554 -2.410205 -0.214464
30.832985 -2.562023 0.216000
31.404856 -2.609542 0.660105
30.437033 -2.662895 -0.640000
30.682049 -2.684331 -0.215023
32.654465 -2.856896 -0.228846
30.371309 -2.790731 0.212928
30.903006 -2.839587 0.650053
30.323071 -2.919780 -0.638116
31.135235 -2.997982 -0.218374
30.176661 -3.038630 0.211742
30.369726 -3.058071 0.639372
32.956078 -3.318502 0.693822
30.515182 -3.207275 -0.642723
31.704586 -3.332286 -0.222563
30.129114 -3.299675 0.211602
32.216579 -3.528289 0.226263
33.104755 -3.625560 0.697592
30.635036 -3.490422 -0.645864
31.078171 -3.540910 -0.218374
31.827068 -3.766982 0.223749
32.297432 -3.822653 0.681257
30.404943 -3.733258 -0.641676
31.125488 -3.821729 -0.218932
31.673946 -4.029435 0.222912
31.955389 -4.065239 0.674765
33.225945 -4.374279 -0.701990
31.428036 -4.137579 -0.221306
33.272079 -4.380352 -0.234291
39.547771 -5.206563 -0.278482
31.479042 -4.284110 0.221795
39.415684 -5.364239 0.277715
31.601690 -4.300801 0.668063
32.929092 -4.627882 -0.696545
39.641636 -5.571269 -0.838534
31.123367 -4.374104 -0.219421
32.895905 -4.623218 -0.231917
39.580051 -5.562613 -0.279041
31.143570 -4.515603 0.219700
39.466335 -5.722346 0.278413
31.622322 -4.585019 0.669320
39.379486 -5.709754 0.833508
31.779999 -4.749553 -0.673089
39.611286 -5.919946 -0.838953
39.510220 -5.904842 -0.278901
39.533497 -6.084787 0.279250
39.456619 -6.072955 0.836231
39.755611 -6.296670 -0.843142
39.625092 -6.275998 -0.280088
39.607201 -6.450442 0.280158
39.520535 -6.436328 0.838744
39.768173 -6.654910 -0.844608
39.726616 -6.647955 -0.281205
39.657810 -6.814458 0.280926
39.541691 -6.794505 0.840419
39.875965 -7.031209 -0.848168
39.775417 -7.013479 -0.281973
39.714916 -7.181626 0.281764
39.598953 -7.160657 0.842932
39.852413 -7.386208 -0.849006
39.791355 -7.374892 -0.282532
39.729324 -7.542848 0.282322
39.652824 -7.528324 0.845446
39.972908 -7.769946 -0.852985
39.892357 -7.754289 -0.283718
39.779682 -7.912671 0.283160
39.664062 -7.889673 0.847121
40.030941 -8.144387 -0.855707
39.979954 -8.134013 -0.284835
39.865761 -8.292090 0.284277
39.750317 -8.268078 0.850472
40.065918 -8.516273 -0.858011
40.015041 -8.505460 -0.285603
39.948235 -8.673612 0.285394
39.911137 -8.665557 0.855498
40.116966 -8.893717 -0.860733
40.066212 -8.882465 -0.286511
39.949047 -9.039547 0.285952
39.882751 -9.024546 0.856545
40.222916 -9.286192 -0.864713
40.143070 -9.267757 -0.287628
40.063313 -9.433659 0.287349
39.948456 -9.406612 0.859686
40.257008 -9.664852 -0.867226
40.167622 -9.643393 -0.288396
40.096024 -9.811435 0.288186
40.029938 -9.795263 0.863247
40.287544 -10.044813 -0.869739
40.246887 -10.034676 -0.289583
40.163952 -10.200344 0.289303
40.049526 -10.171285 0.865550
40.353222 -10.436053 -0.873089
40.273960 -10.415554 -0.290420
40.189449 -10.580999 0.290141
40.113937 -10.561118 0.868901
40.453758 -10.839552 -0.877278
40.374714 -10.818373 -0.291817
40.288536 -10.983916 0.291537
40.174580 -10.952847 0.872252
40.473236 -11.224222 -0.879791
40.384769 -11.199687 -0.292585
40.345139 -11.378507 0.292654
40.231426 -11.346437 0.875603
40.565956 -11.632101 -0.883980
40.429680 -11.593024 -0.293632
40.445915 -11.788909 0.294120
40.322849 -11.753038 0.879791
40.616283 -12.031091 -0.887330
40.537910 -12.007876 -0.295168
40.485130 -12.184641 0.295168
40.381500 -12.153453 0.883351
40.672283 -12.434765 -0.890891
40.584583 -12.407952 -0.296285
40.491859 -12.573056 0.296005
40.426678 -12.552816 0.886702
40.743389 -12.846341 -0.894870
40.617817 -12.806747 -0.297332
40.609169 -12.999097 0.297681
40.544121 -12.978275 0.891728
40.781868 -13.250833 -0.898220
40.742268 -13.237966 -0.299077
40.646133 -13.403085 0.298798
40.571743 -13.378554 0.894870
40.892227 -13.682348 -0.903247
40.776924 -13.643767 -0.300194
40.717003 -13.821560 0.300194
40.642796 -13.796370 0.899058
40.969788 -14.107029 -0.907644
40.835953 -14.060946 -0.301521
40.793091 -14.245585 0.301660
40.719067 -14.219735 0.903456
40.995911 -14.517414 -0.910995
40.909645 -14.486865 -0.302987
40.808399 -14.651711 0.302707
41.045094 -14.736694 0.913508
41.158905 -14.980617 -0.917487
41.260899 -15.017738 -0.306547
40.875999 -15.079952 0.304173
40.792992 -15.049330 0.910786
41.138985 -15.381236 -0.920000
40.987778 -15.324701 -0.305500
40.817657 -15.464427 0.304732
40.744255 -15.436617 0.912671
41.077862 -15.768314 -0.921676
40.964512 -15.724802 -0.306338
40.858231 -15.888896 0.306058
40.747765 -15.845940 0.915812
41.282875 -16.261757 -0.929425
41.076935 -16.180635 -0.308223
40.940926 -16.333775 0.307734
40.877228 -16.308361 0.921885
40.879841 -16.516527 -0.923561
40.461319 -16.347433 -0.304662
40.870872 -16.720715 0.308292
40.761116 -16.675814 0.922514
40.715679 -16.864986 -0.923142
40.446461 -16.753473 -0.305640
40.585075 -17.018734 0.307245
40.844543 -17.127539 0.927749
40.318474 -17.114176 -0.917487
40.399975 -17.148771 -0.306408
40.545269 -17.419622 0.308083
40.767010 -17.514891 0.929425
40.176758 -17.469353 -0.917697
40.230446 -17.492695 -0.306268
40.172043 -17.676121 0.306408
39.743259 -17.487453 0.909529
40.223717 -17.908752 -0.922304
39.884422 -17.757689 -0.304802
39.979790 -18.009583 0.306128
39.734989 -17.899309 0.912880
39.092461 -17.815460 -0.899896
39.655148 -18.071892 -0.304243
39.893757 -18.391273 0.306687
39.368450 -18.149105 0.908063
39.116726 -18.240429 -0.904084
39.432491 -18.387672 -0.303755
40.165874 -18.943457 0.310038
39.470810 -18.615643 0.914137
41.518841 -19.803471 -0.963561
40.434834 -19.286427 -0.312760
40.287251 -19.432262 0.312272
39.667057 -19.133116 0.922514
41.631996 -20.305281 -0.970262
40.840206 -19.919100 -0.317228
40.232731 -19.840588 0.313179
39.722748 -19.589092 0.927749
41.712688 -20.797180 -0.976336
41.416553 -20.649532 -0.323093
41.334988 -20.834549 0.323163
40.094891 -20.209488 0.940524
41.743408 -21.269329 -0.981362
41.555531 -21.173601 -0.325606
41.427189 -21.336405 0.325327
37.534962 -19.331776 0.884398
41.179131 -21.208647 0.970262
41.839993 -21.780521 -0.988063
41.688492 -21.701656 -0.328119
41.531456 -21.850758 0.327631
40.656265 -21.390295 0.962304
41.921986 -22.290316 -0.994556
41.709427 -22.177296 -0.329795
41.550602 -22.325945 0.329306
40.723454 -21.881502 0.968377
41.971886 -22.788876 -1.000419
41.531883 -22.549973 -0.329934
41.590904 -22.817551 0.331191
40.750088 -22.356264 0.973613
42.086216 -23.328770 -1.007959
41.902008 -23.226664 -0.334472
41.704292 -23.355526 0.333704
34.796234 -19.486826 0.835393
42.168186 -23.857613 -1.014870
41.906605 -23.709616 -0.336148
41.577026 -23.763229 0.334333
34.833176 -19.908800 0.840419
41.889118 -24.184694 -1.013194
41.559547 -23.994415 -0.335031
41.186672 -24.019358 0.332866
34.727207 -20.252310 0.842095
41.952137 -24.711697 -1.019896
41.408890 -24.391699 -0.335519
40.975498 -24.377861 0.332866
34.686626 -20.636375 0.845446
42.377628 -25.463047 -1.035603
41.348743 -24.844831 -0.336776
40.727009 -24.713757 0.332587
34.633430 -21.016083 0.848587
41.496868 -25.180918 1.016755
42.426594 -25.999050 -1.042304
42.213184 -25.868273 -0.345642
41.870323 -25.910143 0.343757
34.584743 -21.401688 0.851938
41.785645 -25.857742 1.029320
42.053959 -26.278231 -1.038744
41.841675 -26.145578 -0.344455
41.126743 -25.949041 0.339499
34.557316 -21.804043 0.855917
41.177914 -25.981327 1.019896
41.468895 -26.418600 -1.029948
41.316742 -26.321667 -0.342012
41.134216 -26.458416 0.341453
34.466629 -22.169680 0.858430
41.243916 -26.528978 1.027226
41.329006 -26.839371 -1.032252
41.454475 -26.920851 -0.345084
41.119186 -26.958921 0.343269
41.236588 -27.035891 1.032880
41.360004 -27.375589 -1.038953
41.126247 -27.220869 -0.344316
41.015396 -27.405611 0.344386
40.990776 -27.389160 1.032671
42.187828 -28.189005 1.062828
42.868420 -28.915113 -1.083142
41.285065 -27.847128 -0.347667
42.727554 -28.820101 -0.359814
42.551804 -28.972492 0.359395
42.419548 -28.882441 1.074974
42.944038 -29.514618 -1.091519
42.845276 -29.446743 -0.362956
42.560276 -29.525112 0.361629
42.461617 -29.456671 1.082514
43.053379 -30.146299 -1.100943
42.906139 -30.043201 -0.365678
42.758308 -30.218586 0.365539
42.562187 -30.079981 1.091728
43.138660 -30.770506 -1.109948
42.976112 -30.654562 -0.368541
42.882523 -30.871000 0.368890
42.655087 -30.707270 1.100943
43.224388 -31.404354 -1.119163
43.095284 -31.310556 -0.371892
42.998577 -31.527863 0.372241
42.772503 -31.362097 1.110995
43.302307 -32.042023 -1.128378
43.133907 -31.917414 -0.374614
43.066341 -32.159164 0.375243
42.873699 -32.015308 1.120838
43.436245 -32.731556 -1.139268
43.300961 -32.629616 -0.378524
43.166138 -32.824291 0.378594
42.942848 -32.654499 1.130053
43.529682 -33.401501 -1.149320
43.363636 -33.274090 -0.381596
43.289200 -33.518078 0.382224
43.067322 -33.346283 1.140943
43.614708 -34.075542 -1.159372
43.481373 -33.971371 -0.385226
43.403408 -34.216488 0.385854
43.222214 -34.073647 1.152880
43.683430 -34.747372 -1.169215
43.527603 -34.623421 -0.388298
43.477501 -34.894382 0.389205
43.320877 -34.768681 1.163561
43.844730 -35.504761 -1.181781
43.690083 -35.379532 -0.392486
43.574013 -35.601460 0.392836
43.418415 -35.474335 1.174451
43.880379 -36.172195 -1.191205
43.719185 -36.039314 -0.395558
43.515388 -36.191364 0.395139
43.506905 -36.184311 1.185341
43.869404 -36.810799 -1.199582
43.678791 -36.650856 -0.398071
43.495560 -36.821709 0.397862
43.410774 -36.749931 1.191414
43.736561 -37.354553 -1.204817
43.387707 -37.056602 -0.398351
43.324085 -37.330421 0.399258
43.149014 -37.179565 1.193090
43.703194 -37.990604 -1.212985
43.515495 -37.827442 -0.402539
42.996670 -37.707069 0.399258
42.822922 -37.554691 1.193090
43.040535 -38.079048 -1.203770
42.854202 -37.914196 -0.399468
42.345184 -37.794521 0.396256
42.262341 -37.720581 1.186597
42.379684 -38.158840 -1.194556
42.202168 -37.999001 -0.396466
41.658463 -37.839882 0.392905
41.720745 -38.230019 -1.185341
41.544567 -38.068581 -0.393394
41.054970 -37.950825 0.390322
40.804695 -37.719471 1.163980
40.968761 -38.203987 -1.173404
40.823170 -38.068222 -0.389694
40.314350 -37.923954 0.386413
40.102592 -37.724751 1.153299
40.438004 -38.374233 -1.167749
40.257298 -38.202747 -0.387460
39.786839 -38.087612 0.384528
39.627419 -37.935001 1.149111
39.727615 -38.364513 -1.156859
39.577110 -38.219173 -0.384109
39.187923 -38.175186 0.381945
37.490181 -36.521320 1.096336
39.106075 -38.429436 -1.148482
38.985321 -38.310768 -0.381596
38.569229 -38.234108 0.379152
38.543007 -38.543007 -1.141781
38.423244 -38.423244 -0.379362
37.980667 -38.313568 0.376639
37.980949 -38.649696 -1.135079
37.806126 -38.471790 -0.376569
37.337856 -38.328384 0.373567
37.177097 -38.163361 1.116022
37.364426 -38.691994 -1.126702
37.218887 -38.541286 -0.374056
36.697704 -38.334923 0.370495
36.538448 -38.168564 1.106807
36.688133 -38.661228 -1.116440
36.550735 -38.516441 -0.370705
36.169930 -38.449768 0.368541
35.977917 -38.245655 1.099896
36.192535 -38.811741 -1.111624
36.022274 -38.629162 -0.368750
35.615807 -38.528965 0.366307
35.452774 -38.352596 1.094032
35.636322 -38.890221 -1.104922
35.467621 -38.706116 -0.366516
35.089970 -38.631042 0.364352
34.894905 -38.416294 1.087121
35.817394 -39.779247 -1.121257
35.790924 -39.749847 -0.373428
35.890148 -40.211514 0.376290
35.945877 -40.629425 -1.136336
35.966141 -40.652325 -0.378943
35.959843 -41.004345 0.380758
35.926464 -40.966282 1.141362
36.068775 -41.492378 -1.151624
36.029884 -41.447639 -0.383411
36.083679 -41.877171 0.385924
36.011383 -41.793266 1.155603
36.155628 -42.708752 1.172147
36.242519 -43.576893 0.395698
36.280205 -43.622204 1.188482
0.181113 -0.251582 0.002164
0.134348 -0.186621 0.004817
0.176695 -0.254704 0.002164
0.159564 -0.230011 0.005864
0.123814 -0.181845 0.001536
0.129417 -0.190074 0.004817
0.155556 -0.232806 0.001955
0.138862 -0.207822 0.005236
0.148036 -0.225792 0.001885
0.148007 -0.225748 0.005654
0.151469 -0.235485 0.001955
0.162257 -0.252256 0.006283
0.128064 -0.202970 0.001676
0.117369 -0.186019 0.004607
0.147336 -0.238093 0.001955
0.157830 -0.255050 0.006283
0.197129 -0.324859 0.002653
0.155598 -0.256417 0.006283
0.138046 -0.232034 0.001885
0.127795 -0.214804 0.005236
0.115843 -0.198639 0.004817