# This PCD file was generated using the MATLAB® pcwrite function
# from Computer Vision System Toolbox®.
# .PCD v.7 - Point Cloud Data file format
VERSION .7
FIELDS x y z
SIZE 4 4 4
TYPE F F F
COUNT 1 1 1
WIDTH 727
HEIGHT 1
VIEWPOINT 0 0 0 1 0 0 0
POINTS 727
DATA ascii
23.276037 24.960493 -0.238270
23.259007 24.085407 -0.701362
33.530682 34.121071 -0.333983
33.607967 33.607967 -0.331819
25.407539 24.967920 -0.746178
33.700264 33.117157 -0.329865
25.566921 24.689690 -0.744503
33.786568 32.627308 -0.327910
25.462309 24.162828 -0.735288
33.808876 32.083424 -0.325397
33.854252 31.569599 -0.969634
33.853539 31.568935 -0.323163
26.057037 23.876877 -0.740315
26.128471 23.942333 -0.247416
33.854950 31.022346 -0.320579
33.902260 30.525734 -0.955603
33.894009 30.518303 -0.318415
33.987644 30.069727 -0.950576
26.669662 23.595325 -0.248603
33.994270 30.075590 -0.316879
34.037483 29.588331 -0.944713
34.029026 29.580980 -0.314785
34.081524 29.108370 -0.938849
34.080566 29.107552 -0.312900
34.089161 28.604202 -0.932147
34.111126 28.622635 -0.310876
34.190903 28.184805 -0.928168
32.978432 27.185320 -0.298379
33.122467 26.822044 -0.892775
33.051212 26.764343 -0.296913
33.167484 26.382608 -0.887749
33.126995 26.350403 -0.295517
33.207367 25.944441 -0.882723
33.166565 25.912560 -0.293841
33.273872 25.531940 -0.878534
33.201027 25.476046 -0.292166
33.335720 25.120266 -0.874346
33.262360 25.064985 -0.290769
33.392929 24.709467 -0.870158
33.319054 24.654804 -0.289373
33.445515 24.299589 -0.865969
33.338779 24.222040 -0.287698
33.460949 23.867462 -0.860943
33.418629 23.837275 -0.286581
33.471401 23.436928 -0.855917
33.396015 23.384142 -0.284626
33.542820 23.053341 -0.852566
33.466949 23.001196 -0.283509
33.576946 22.647936 -0.848377
33.500591 22.596434 -0.282113
33.639912 22.265774 -0.845027
33.596439 22.237000 -0.281275
33.484081 21.953125 0.279530
33.698776 21.884243 -0.841676
33.621483 21.834047 -0.279879
33.590279 21.605993 0.278832
33.550098 21.580147 0.835603
33.686100 21.460411 -0.836650
33.650497 21.437733 -0.278552
33.777546 21.312044 0.278832
33.576485 21.185184 0.831623
33.880569 21.170929 -0.836859
33.793892 21.116768 -0.278203
33.664623 20.832302 0.276388
33.590050 20.786152 0.827435
33.791245 20.707300 -0.830158
33.712570 20.659090 -0.276039
33.674156 20.433981 0.274992
33.607761 20.393690 0.823456
33.824974 20.324095 -0.826597
33.788712 20.302305 -0.275201
33.713692 20.057539 0.273875
33.646973 20.017845 0.820105
33.863213 19.946957 -0.823247
33.792271 19.905170 -0.273805
33.783783 19.702120 0.273037
33.716743 19.663023 0.817592
33.897457 19.570707 -0.819896
33.826126 19.529524 -0.272688
33.815521 19.327162 0.271920
33.748165 19.288666 0.814241
33.936428 19.200308 -0.816754
33.890823 19.174505 -0.271850
33.843296 18.953156 0.270803
33.740746 18.895725 0.810053
33.954037 18.821030 -0.813194
33.881943 18.781067 -0.270454
33.867130 18.580143 0.269686
33.799168 18.542860 0.807540
33.941261 18.428600 -0.809006
33.895149 18.403564 -0.269267
33.887039 18.208164 0.268569
33.818787 18.171490 0.804189
34.038994 18.098854 -0.807540
33.992653 18.074215 -0.268779
33.938450 17.855883 0.267731
33.905289 17.838436 0.802514
34.124691 17.764191 -0.805864
34.042645 17.721479 -0.267941
33.950737 17.485779 0.266614
33.881901 17.450325 0.798325
34.091343 17.370405 -0.801466
34.053440 17.351093 -0.266824
33.968090 17.121328 0.265567
33.934685 17.104490 0.796021
34.143204 17.023174 -0.799163
34.060371 16.981874 -0.265707
34.044460 16.788870 0.265009
33.966087 16.750221 0.793299
34.146683 16.654449 -0.795812
34.099415 16.631395 -0.264869
34.045563 16.421631 0.263892
33.975891 16.388025 0.790157
34.146336 16.286966 -0.792461
34.098843 16.264313 -0.263752
34.033817 16.051390 0.262705
34.000053 16.035467 0.787435
34.250919 15.971467 -0.791623
34.203224 15.949224 -0.263473
34.109028 15.724477 0.262216
34.038822 15.692111 0.785131
34.243431 15.605630 -0.788273
34.204609 15.587939 -0.262426
34.099068 15.360511 0.261099
34.065075 15.345198 0.782618
34.305241 15.273678 -0.786597
34.257118 15.252253 -0.261797
34.158592 15.030140 0.260541
34.810814 15.317124 0.796650
34.290524 14.909945 -0.783247
34.242188 14.888927 -0.260680
37.745274 16.412111 -0.287349
35.354225 15.189373 0.268639
31.388210 13.485439 0.715603
35.255474 15.146947 0.803770
38.220181 16.223505 -0.869739
38.273659 16.246204 -0.290281
35.365547 14.830004 0.267731
31.384836 13.160754 0.712880
35.330990 14.815514 0.802514
37.769150 15.644494 -0.856336
38.229202 15.835054 -0.288885
31.199209 12.763934 0.235338
30.693445 12.557020 0.694660
31.665653 12.793755 -0.715393
38.525311 15.565235 -0.870367
31.189705 12.601459 -0.234850
30.910028 12.331851 0.232336
30.839001 12.303514 0.695498
31.069132 12.238457 -0.699477
31.028669 12.222518 -0.232825
30.792789 11.974661 0.230661
30.907921 12.019433 0.694660
31.100077 11.938201 -0.697801
30.975443 11.890359 -0.231638
31.008327 11.748005 0.231499
30.787249 11.664246 0.689634
31.165613 11.652346 -0.696964
31.162325 11.651115 -0.232267
31.072140 11.463118 0.231219
31.009804 11.440121 0.692356
31.078215 11.311545 -0.692775
31.112465 11.324011 -0.231150
30.982759 11.123947 0.229823
30.873213 11.084616 0.687121
31.222864 11.056596 -0.693822
31.049854 10.995330 -0.229963
31.116415 10.866339 0.230102
30.978207 10.818074 0.687330
31.233082 10.754413 -0.691938
31.229717 10.753254 -0.230591
30.982800 10.517243 0.228427
31.024096 10.531261 0.686283
31.183525 10.433862 -0.688796
31.094774 10.404166 -0.228916
31.149372 10.271523 0.228985
31.038857 10.235080 0.684608
31.320930 10.176787 -0.689843
31.222425 10.144781 -0.229195
31.161631 9.974916 0.228427
31.126991 9.963828 0.684608
31.246450 9.851968 -0.686283
31.271616 9.859903 -0.228916
31.247492 9.702604 0.228427
31.059986 9.644382 0.681257
31.417282 9.605227 -0.688168
31.279966 9.563246 -0.228357
31.292669 9.418024 0.228148
31.267422 9.410426 0.683979
31.365702 9.290944 -0.685236
31.400581 9.301276 -0.228636
31.181660 9.088625 0.226751
31.146786 9.078460 0.679582
31.493637 9.030655 -0.686283
31.288305 8.971777 -0.227240
31.384901 8.851458 0.227659
31.311424 8.830735 0.681466
31.455633 8.723419 -0.683770
31.452131 8.722448 -0.227868
31.181166 8.500961 0.225634
31.261900 8.522972 0.678744
31.327761 8.394248 -0.679372
31.314552 8.390709 -0.226332
31.370205 8.259086 0.226472
31.180391 8.209112 0.675393
31.564371 8.163101 -0.682932
31.512438 8.149671 -0.227240
31.353855 7.962865 0.225844
31.328363 7.956390 0.677068
31.440388 7.838969 -0.678744
31.495031 7.852593 -0.226612
31.393011 7.681821 0.225634
31.241220 7.644678 0.673718
31.624256 7.592312 -0.681257
31.494295 7.561111 -0.226123
31.468584 7.409868 0.225704
31.384596 7.390091 0.675393
31.533442 7.280069 -0.677906
31.529846 7.279239 -0.225914
31.366245 7.097456 0.224517
31.408886 7.107105 0.674555
31.634813 7.013269 -0.678744
31.465254 6.975679 -0.225006
31.505163 6.840441 0.225076
31.469711 6.832744 0.674555
31.694811 6.736940 -0.678744
31.652084 6.727859 -0.225914
31.407013 6.532668 0.223959
31.528139 6.557862 0.674555
31.556452 6.420233 -0.674555
31.582203 6.425472 -0.225006
31.619747 6.289559 0.225076
31.466497 6.259076 0.672042
31.778118 6.177040 -0.678116
31.715601 6.164888 -0.225565
31.634132 6.005928 0.224797
31.598497 5.999162 0.673718
31.624372 5.861231 -0.673718
31.650204 5.866019 -0.224727
31.606617 5.715407 0.224238
31.462719 5.689386 0.669739
31.831852 5.612814 -0.677068
31.660797 5.582653 -0.224448
31.665144 5.441067 0.224308
31.629412 5.434927 0.672252
31.840178 5.328218 -0.676231
31.836523 5.327607 -0.225355
31.583115 5.143637 0.223400
31.626295 5.150670 0.671205
31.845963 5.043905 -0.675393
31.723776 5.024552 -0.224238
31.834349 4.899775 0.224866
31.749090 4.886652 0.672880
31.928318 4.771719 -0.676231
31.924654 4.771172 -0.225355
31.707657 4.597392 0.223680
31.760841 4.605103 0.672252
31.810335 4.470651 -0.672880
31.875952 4.479873 -0.224727
31.835745 4.332655 0.224308
31.710661 4.315631 0.670367
32.006733 4.213767 -0.676231
31.923746 4.202841 -0.224797
31.822742 4.048364 0.223959
31.796703 4.045052 0.671414
32.002594 3.929424 -0.675393
31.919506 3.919223 -0.224517
31.856859 3.770508 0.223959
31.671936 3.748621 0.668063
32.164803 3.664716 -0.678116
31.833267 3.626943 -0.223680
31.938251 3.497808 0.224308
31.782949 3.480799 0.669739
32.344704 3.399565 -0.681257
32.022823 3.365735 -0.224797
31.649178 3.186905 0.222074
31.613165 3.183278 0.665550
32.144245 3.095139 -0.676440
31.692642 3.051654 -0.222283
31.755445 2.917916 0.222632
31.838858 2.925580 0.669739
32.548504 2.847625 -0.684398
31.867493 2.788044 -0.223331
31.699976 2.634065 0.222074
31.823320 2.644314 0.668901
32.611980 2.566619 -0.685236
31.890608 2.509845 -0.223331
31.921200 2.372155 0.223470
31.765423 2.360579 0.667225
32.513454 2.273562 -0.682723
31.951199 2.234245 -0.223610
31.860859 2.088271 0.222912
31.864624 2.088518 0.668901
32.332474 1.977539 -0.678534
32.039345 1.959610 -0.224098
31.837934 1.807889 0.222632
31.721930 1.801302 0.665550
32.228691 1.689034 -0.676021
32.075199 1.680990 -0.224238
31.972357 1.535743 0.223470
31.976110 1.535923 0.670576
32.042439 1.399003 -0.671833
32.338402 1.411925 -0.225983
31.774710 1.248432 0.222004
31.948336 1.255254 0.669739
31.863585 1.112701 -0.667854
32.679283 1.141186 -0.228287
32.034271 0.978736 0.223749
31.948080 0.976102 0.669529
31.792126 0.832506 -0.666178
32.727982 0.857012 -0.228566
32.081581 0.700023 0.224029
32.045341 0.699232 0.671414
31.768190 0.554516 -0.665550
32.734215 0.571378 -0.228566
32.166458 0.421082 0.224587
31.890272 0.417467 0.668063
31.731831 0.276919 -0.664712
32.697960 0.285351 -0.228287
32.128910 0.140190 0.224308
32.052662 0.139857 0.671414
32.132950 0.000000 -0.673089
32.819199 0.000000 -0.229125
32.048912 -0.139841 0.223749
32.052662 -0.139857 0.671414
32.241699 -0.281369 -0.675393
32.487972 -0.283518 -0.226821
32.246452 -0.422129 0.225146
32.090210 -0.420084 0.672252
32.158047 -0.561321 -0.673718
32.454266 -0.566491 -0.226612
32.451485 -0.708094 0.226612
32.125305 -0.700977 0.673089
32.361805 -0.847424 -0.678116
32.348122 -0.847065 -0.225914
32.743923 -1.000417 0.228706
32.038017 -0.978850 0.671414
32.263252 -1.126658 -0.676231
32.339500 -1.129320 -0.225914
32.773914 -1.287691 0.228985
31.948336 -1.255254 0.669739
32.372051 -1.413394 -0.678744
32.248489 -1.408000 -0.225355
32.012310 -1.537662 0.223749
31.856276 -1.530167 0.668063
32.168785 -1.685895 -0.674765
32.115143 -1.683083 -0.224517
31.997673 -1.816960 0.223749
31.961491 -1.814905 0.670576
32.222706 -1.970825 -0.676231
32.139156 -1.965715 -0.224797
32.060425 -2.101351 0.224308
31.944435 -2.093749 0.670576
32.254147 -2.255430 -0.677278
32.120781 -2.246104 -0.224797
32.040867 -2.381048 0.224308
32.004711 -2.378361 0.672252
32.303005 -2.542302 -0.678744
32.209614 -2.534952 -0.225565
32.128490 -2.669672 0.225076
32.052483 -2.663356 0.673718
32.478783 -2.841526 -0.682932
32.186268 -2.815933 -0.225565
32.143799 -2.953600 0.225355
32.028019 -2.942961 0.673718
32.462704 -3.125803 -0.683142
32.289867 -3.109160 -0.226472
32.116802 -3.233992 0.225355
32.090645 -3.231358 0.675602
32.623108 -3.428827 -0.687121
32.261505 -3.390821 -0.226472
32.246403 -3.531555 0.226472
32.091038 -3.514540 0.676231
32.671410 -3.722437 -0.688796
32.339977 -3.684675 -0.227240
32.254078 -3.817522 0.226751
32.178291 -3.808552 0.678744
32.637684 -4.007404 -0.688796
32.435619 -3.982593 -0.228148
32.298893 -4.108938 0.227310
32.262844 -4.104352 0.681257
32.809628 -4.319469 -0.693194
32.429371 -4.269408 -0.228357
32.311348 -4.397382 0.227659
32.186172 -4.380346 0.680419
32.612278 -4.583356 -0.689843
32.470100 -4.563375 -0.228916
32.341019 -4.689225 0.228148
32.305031 -4.684007 0.683770
32.877563 -4.913585 -0.696335
32.626839 -4.876113 -0.230312
32.387817 -4.984962 0.228776
32.302452 -4.971823 0.684608
32.872932 -5.206561 -0.697173
32.701565 -5.179419 -0.231150
32.461521 -5.286694 0.229614
32.346645 -5.267986 0.686493
32.826248 -5.493230 -0.697173
32.625534 -5.459642 -0.230940
32.492992 -5.583317 0.230172
32.378269 -5.563604 0.688168
32.983826 -5.815938 -0.701571
32.891777 -5.799708 -0.233174
32.511913 -5.879111 0.230661
32.397354 -5.858396 0.689634
32.804020 -6.079866 -0.698849
32.790752 -6.077407 -0.232825
32.577263 -6.184986 0.231499
32.433399 -6.157673 0.691519
33.034325 -6.421222 -0.704922
32.942604 -6.403394 -0.234291
32.610317 -6.486595 0.232127
32.486290 -6.461925 0.693822
33.045612 -6.723206 -0.706388
33.003059 -6.714549 -0.235129
32.630791 -6.787214 0.232685
32.506969 -6.761459 0.695498
33.024799 -7.019638 -0.707226
32.864960 -6.985662 -0.234570
32.843937 -7.131118 0.234640
32.534660 -7.063967 0.697383
33.118458 -7.342185 -0.710576
32.998001 -7.315481 -0.235967
32.770702 -7.415253 0.234570
32.579041 -7.371884 0.699686
33.023899 -7.624168 -0.709948
33.079056 -7.636902 -0.237014
32.909149 -7.749076 0.236036
32.639980 -7.685695 0.702409
33.140820 -7.956407 -0.713927
33.011154 -7.925277 -0.237014
32.985973 -8.071616 0.237084
32.649357 -7.989247 0.704084
33.147732 -8.264658 -0.715603
33.095982 -8.251755 -0.238131
32.914280 -8.359162 0.237084
32.655918 -8.293547 0.705760
33.151783 -8.573634 -0.717278
33.100163 -8.560284 -0.238689
33.110847 -8.717359 0.239038
32.765999 -8.626568 0.709739
33.268848 -8.914361 -0.721466
33.101471 -8.869513 -0.239248
33.149284 -9.037532 0.239876
32.892033 -8.967398 0.714137
33.382473 -9.257779 -0.725655
33.292622 -9.232861 -0.241203
33.030659 -9.315609 0.239597
32.879883 -9.273086 0.715603
33.223530 -9.526693 -0.723979
33.133884 -9.500988 -0.240644
33.216915 -9.681848 0.241552
32.960880 -9.607221 0.719163
33.417126 -9.898603 -0.730053
33.279823 -9.857932 -0.242320
33.246067 -10.005931 0.242389
33.067261 -9.952116 0.723351
33.472885 -10.233688 -0.733194
33.393349 -10.209372 -0.243786
33.157486 -10.295672 0.242389
33.007797 -10.249194 0.723979
33.391842 -10.528407 -0.733404
33.226688 -10.476335 -0.243227
33.342564 -10.673039 0.244414
33.221802 -10.634382 0.730681
33.517391 -10.890460 -0.738220
33.428822 -10.861683 -0.245391
33.352619 -10.998045 0.245182
33.279655 -10.973984 0.734032
33.572777 -11.233294 -0.741571
33.493977 -11.206927 -0.246578
33.255375 -11.288679 0.245182
33.144753 -11.251127 0.733194
33.511284 -11.538860 -0.742409
33.347626 -11.482509 -0.246229
33.457699 -11.683951 0.247416
33.347351 -11.645416 0.739896
33.635498 -11.910954 -0.747435
33.519516 -11.869883 -0.248254
33.467403 -12.016026 0.248254
33.366783 -11.979898 0.742618
33.643013 -12.245055 -0.749948
33.565002 -12.216661 -0.249371
33.398796 -12.321467 0.248533
33.298489 -12.284461 0.743456
33.544239 -12.541677 -0.750157
33.532047 -12.537119 -0.249929
33.514431 -12.697481 0.250208
33.330257 -12.627706 0.746597
33.760197 -12.959326 -0.757487
33.598740 -12.897348 -0.251256
33.588745 -13.061949 0.251605
33.516972 -13.034037 0.753299
33.710938 -13.279092 -0.758953
33.633774 -13.248696 -0.252373
33.473480 -13.354565 0.251605
33.513386 -13.370485 0.755812
33.751362 -13.636435 -0.762514
33.776485 -13.646585 -0.254327
33.568535 -13.733251 0.253210
33.432446 -13.677574 0.756650
33.769627 -13.987838 -0.765655
33.619156 -13.925510 -0.254048
33.714848 -14.137808 0.255235
33.643734 -14.107988 0.764189
33.876354 -14.379659 -0.770890
33.717270 -14.312133 -0.255724
33.773941 -14.510430 0.256631
33.629570 -14.448403 0.766702
34.006298 -14.786360 -0.776754
33.884544 -14.733419 -0.257958
33.646030 -14.804607 0.256631
33.538807 -14.757429 0.767540
33.830303 -15.062222 -0.775707
33.900845 -15.093629 -0.259075
33.770844 -15.212656 0.258586
33.627525 -15.148095 0.772566
33.925014 -15.460520 -0.780943
33.767841 -15.388891 -0.259075
33.891079 -15.624001 0.260541
33.820915 -15.591655 0.780105
34.078762 -15.891187 -0.787644
33.958527 -15.835120 -0.261588
33.934330 -16.004469 0.261937
33.864418 -15.971496 0.784294
34.155361 -16.291271 -0.792671
34.035660 -16.234179 -0.263263
33.793373 -16.299990 0.261937
33.759769 -16.283781 0.785131
34.083782 -16.623772 -0.794346
34.108402 -16.635780 -0.264939
33.936836 -16.735796 0.264171
33.795719 -16.666204 0.789320
34.080574 -16.991947 -0.797697
33.970879 -16.937256 -0.265009
34.003811 -17.139332 0.265846
33.898975 -17.086489 0.795184
34.216053 -17.433950 -0.804398
34.053440 -17.351093 -0.266824
34.092976 -17.559036 0.267731
33.997448 -17.509836 0.801048
34.275452 -17.842670 -0.809425
34.193436 -17.799974 -0.269128
34.124290 -17.953659 0.269197
34.020313 -17.898952 0.805236
34.392094 -18.286600 -0.815917
34.284019 -18.229137 -0.271082
33.966320 -18.250761 0.269197
33.968506 -18.251936 0.807749
34.345428 -18.648045 -0.818639
34.299397 -18.623053 -0.272479
34.121372 -18.719627 0.271711
33.983242 -18.643845 0.811938
34.207619 -18.961594 -0.819267
34.091846 -18.897419 -0.272130
36.768116 -20.380899 -0.293492
36.574142 -20.482504 0.292654
36.471058 -20.424774 0.875603
36.764462 -20.800333 -0.884817
36.641083 -20.730526 -0.293911
36.567642 -20.900129 0.294051
36.465034 -20.841484 0.879791
36.720081 -21.200350 -0.888168
36.597343 -21.129484 -0.295028
36.487522 -21.278894 0.294888
36.385406 -21.219343 0.882304
36.637051 -21.580872 -0.890681
36.558033 -21.534328 -0.296215
36.437943 -21.678299 0.296005
36.301956 -21.597395 0.884817
36.618725 -22.002750 -0.894870
36.505867 -21.934937 -0.297332
36.349968 -22.057701 0.296843
36.248859 -21.996349 0.888168
36.519093 -22.378929 -0.897173
36.415375 -22.315371 -0.298170
36.258137 -22.437216 0.297681
36.157547 -22.374969 0.890681
36.432636 -22.765636 -0.899896
36.354935 -22.717085 -0.299287
36.196270 -22.838144 0.298798
36.130024 -22.796347 0.894870
36.392792 -23.184765 -0.903875
36.281815 -23.114065 -0.300334
36.163795 -23.261335 0.300194
36.097885 -23.218941 0.899058
36.323242 -23.588589 -0.907226
36.221298 -23.522387 -0.301521
36.093231 -23.663759 0.301311
35.994225 -23.598846 0.901571
36.182709 -23.948812 -0.908901
36.081360 -23.881731 -0.302079
36.018387 -24.066715 0.302428
35.919922 -24.000925 0.904922
36.212708 -24.425779 -0.914974
36.136868 -24.374624 -0.304313
35.964043 -24.487045 0.303755
35.866127 -24.420378 0.908901
36.121769 -24.825804 -0.918116
36.021679 -24.757013 -0.305151
35.921528 -24.919651 0.305221
35.824165 -24.852108 0.913299
36.034786 -25.231829 -0.921466
35.927132 -25.156450 -0.306198
35.825191 -25.318743 0.306268
35.736561 -25.256105 0.916650
36.008572 -25.684664 -0.926493
35.909760 -25.614183 -0.307943
35.765194 -25.747255 0.307664
35.636513 -25.654617 0.919791
35.920567 -26.097818 -0.930053
35.806221 -26.014742 -0.308991
35.708496 -26.182552 0.309130
35.612846 -26.112419 0.925027
35.844154 -26.523277 -0.934032
35.738605 -26.445177 -0.310387
35.670952 -26.636763 0.310806
35.535824 -26.535858 0.929006
35.802963 -26.979467 -0.939058
35.698139 -26.900476 -0.312062
35.564503 -27.043877 0.311923
35.462070 -26.965984 0.933194
35.724796 -27.412601 -0.943247
35.620697 -27.332722 -0.313459
35.477375 -27.469521 0.313249
35.383503 -27.396835 0.937383
35.641788 -27.846416 -0.947435
35.569939 -27.790281 -0.315134
35.424782 -27.926647 0.314925
35.300106 -27.828360 0.941571
35.553917 -28.280861 -0.951624
35.451286 -28.199226 -0.316251
35.366898 -28.384937 0.316600
35.243046 -28.285536 0.946597
35.554401 -28.791386 -0.958325
35.483620 -28.734068 -0.318764
35.303699 -28.844334 0.318276
35.211655 -28.769127 0.952461
35.386658 -29.170509 -0.960629
35.293247 -29.093510 -0.319323
35.358173 -29.407084 0.321068
35.289787 -29.350206 0.961466
35.590279 -29.863789 -0.973194
35.489975 -29.779625 -0.323442
35.588661 -30.128027 0.325536
35.459633 -30.018797 0.973194
35.814869 -30.588787 -0.986597
35.715397 -30.503832 -0.327910
35.778923 -30.829092 0.329725
35.681061 -30.744768 0.986597
35.999298 -31.293711 -0.999163
35.930847 -31.234209 -0.332378
37.312901 -32.722534 0.346480
37.215424 -32.637051 1.036859
37.581844 -33.249607 -1.051100
37.454361 -33.136822 -0.349133
37.525772 -33.493031 0.351157
37.399113 -33.379986 1.050053
37.765766 -34.004448 -1.064503
37.669094 -33.917404 -0.353880
37.735401 -34.276424 0.355905
37.609634 -34.162186 1.064294
38.057281 -34.873074 -1.081257
37.961487 -34.785294 -0.359465
37.941521 -35.072781 0.360722
37.868050 -35.004864 1.080210
38.241409 -35.660690 -1.095289
38.183044 -35.606266 -0.364492
38.231262 -35.964378 0.366446
38.165550 -35.902565 1.097592
38.458168 -36.495438 -1.110577
38.364117 -36.406185 -0.369239
40.270809 -38.550915 0.389205
39.937965 -38.232285 1.158116
40.187893 -38.808998 -1.170262
40.576969 -39.184723 -0.393813
40.355469 -39.312557 0.393324
40.061142 -39.025837 1.171519
39.612373 -38.926971 -1.163351
40.718475 -40.013935 -0.398560
40.493782 -40.141941 0.398071
40.145073 -39.796261 1.184084
40.522472 -40.522472 -1.200420
40.735428 -40.735428 -0.402190
40.655861 -41.012207 0.403168
40.310081 -40.663395 1.199372
40.447609 -41.159786 -1.208797
40.911076 -41.631413 -0.407496
40.715080 -41.795200 0.407357
40.393208 -41.464787 1.212566
43.885834 -45.445114 -1.323352
40.819019 -42.640106 0.412104
40.527603 -42.335690 1.227645
41.939129 -44.194618 -1.276231
41.809639 -44.058167 -0.424042
40.966091 -43.548241 0.417410
40.649841 -43.212055 1.242723
41.933701 -44.968388 -1.287959
41.819118 -44.845516 -0.428091
41.134323 -44.498859 0.423064
40.820911 -44.159813 1.259687
41.715302 -45.524261 -1.293404
41.574810 -45.370941 -0.429627
41.033546 -45.174412 0.426066
40.763382 -44.876984 1.269948
41.075607 -45.619083 -1.285865
40.882885 -45.405041 -0.426555
40.137199 -44.969933 1.262619
41.922947 -47.385273 -0.441704
39.211693 -45.107891 -0.417270
0.134348 -0.186621 0.004817
0.131071 -0.188937 0.004817
0.155556 -0.232806 0.001955
0.166635 -0.249386 0.006283
0.120622 -0.183978 0.001536
0.126080 -0.192304 0.004817
0.151469 -0.235485 0.001955
0.162257 -0.252256 0.006283
0.128064 -0.202970 0.001676
0.117369 -0.186019 0.004607
0.147336 -0.238093 0.001955
0.136786 -0.221043 0.005445
0.145253 -0.239369 0.001955
0.119292 -0.196587 0.004817
0.138046 -0.232034 0.001885
0.127795 -0.214804 0.005236
0.135989 -0.233184 0.005654