# This PCD file was generated using the MATLAB® pcwrite function
# from Computer Vision System Toolbox®.
# .PCD v.7 - Point Cloud Data file format
VERSION .7
FIELDS x y z
SIZE 4 4 4
TYPE F F F
COUNT 1 1 1
WIDTH 1059
HEIGHT 1
VIEWPOINT 0 0 0 1 0 0 0
POINTS 1059
DATA ascii
29.326656 32.004429 -0.303057
29.571781 31.711853 -0.908273
29.632107 31.776545 -0.303336
29.634047 31.227770 -0.901781
29.715544 31.313648 -0.301381
29.801254 30.860102 -0.898639
29.654243 30.707869 -0.298030
29.733057 30.256578 -0.888587
29.647739 30.169758 -0.295307
29.713181 29.713181 -0.880210
29.570484 29.570484 -0.291956
29.835854 29.319613 -0.876231
29.513584 29.002918 -0.288885
29.882013 28.856726 -0.870158
29.794329 28.772049 -0.289164
29.820852 28.298933 -0.861152
29.725117 28.208082 -0.286092
29.774191 27.764883 -0.852775
29.823877 27.811214 -0.284696
29.779472 27.287859 -0.846074
29.829514 27.333714 -0.282462
29.919878 26.939980 -0.843351
29.799381 26.831484 -0.279949
29.951658 26.498989 -0.837697
29.942520 26.490904 -0.279111
30.000671 26.079185 -0.832671
29.878223 25.972744 -0.276388
30.075062 25.686529 -0.828482
29.944057 25.574640 -0.274922
29.938110 25.121058 -0.818639
30.043531 25.209517 -0.273805
29.909325 24.655344 -0.811938
30.046329 24.768282 -0.271850
30.115572 24.387108 -0.811728
30.051502 24.335226 -0.269965
30.076860 23.924215 -0.805027
30.098375 23.941330 -0.268499
30.158436 23.562353 -0.801676
30.117037 23.530008 -0.266824
30.140816 23.127861 -0.795812
30.162560 23.144545 -0.265428
30.245678 22.791754 -0.793299
30.211645 22.766108 -0.264101
30.226425 22.366379 -0.787644
30.151936 22.311258 -0.261867
30.291042 22.007730 -0.784294
30.127058 21.888590 -0.259982
30.278456 21.597412 -0.779058
30.178526 21.526134 -0.258795
30.342928 21.246346 -0.775917
30.299696 21.216076 -0.258237
30.263515 20.799538 -0.769215
30.327105 20.843241 -0.256910
30.202854 20.564390 0.255095
30.196966 20.560381 0.765236
30.377563 20.489925 -0.767540
30.167942 20.348534 -0.254048
30.056894 20.083374 0.252373
30.150789 20.146112 0.759582
30.288427 20.047474 -0.760838
30.210947 19.996189 -0.252931
30.164106 19.776455 0.251814
30.174948 19.783564 0.755812
30.395140 19.738834 -0.759163
30.350748 19.710007 -0.252652
30.310307 19.496244 0.251605
29.219696 18.794741 0.727749
30.262356 19.465401 0.753718
30.389162 19.360031 -0.754765
30.327618 19.320824 -0.251046
29.320669 18.499964 0.242040
30.352432 19.150959 0.250557
30.338058 19.141890 0.751414
29.963448 18.723240 -0.740105
29.231506 18.265871 -0.240644
30.410263 19.002441 -0.250348
30.331326 18.769594 0.249022
29.942837 18.529190 0.737592
30.458151 18.664780 -0.748273
29.355686 17.989187 -0.240365
30.404408 18.631845 -0.248952
30.297338 18.384876 0.247416
30.240149 18.350172 0.740943
30.585592 18.377678 -0.747435
30.282982 18.195852 -0.246648
30.121460 17.920385 0.244693
30.192919 17.962898 0.735917
30.563898 18.003511 -0.743037
30.354456 17.880140 -0.245950
30.207592 17.616547 0.244135
30.175793 17.598001 0.731728
30.356192 17.526155 -0.734241
30.240870 17.459574 -0.243786
30.186537 17.253027 0.242738
30.163292 17.239742 0.727749
30.255630 17.117811 -0.728168
30.218014 17.096529 -0.242389
30.231251 16.930313 0.241901
30.094511 16.853735 0.722513
30.272694 16.780428 -0.725027
30.217375 16.749763 -0.241203
30.272636 16.608137 0.241063
30.038836 16.479870 0.717697
30.312540 16.458366 -0.722513
30.292088 16.447262 -0.240644
30.205008 16.229736 0.239387
30.278381 16.269161 0.720000
30.207840 16.061794 -0.716650
30.293194 16.107178 -0.239527
30.310087 15.946909 0.239108
30.348419 15.967075 0.718325
30.408932 15.829887 -0.718116
30.405991 15.828357 -0.239318
30.376976 15.645170 0.238550
30.308836 15.610076 0.714137
30.439016 15.509453 -0.715603
30.427132 15.503398 -0.238410
30.405191 15.325479 0.237712
30.408192 15.326991 0.713299
30.474779 15.194164 -0.713299
30.462824 15.188204 -0.237642
30.430151 15.006490 0.236874
30.361450 14.972610 0.709110
30.417505 14.835608 -0.708901
30.477364 14.864803 -0.236735
30.379810 14.653481 0.235478
30.382895 14.654968 0.706597
30.446548 14.522259 -0.706597
30.461512 14.529395 -0.235618
30.361820 14.319564 0.234361
30.328772 14.303978 0.702409
30.526814 14.234886 -0.705550
30.514639 14.229210 -0.235059
30.485624 14.054065 0.234361
30.452442 14.038768 0.702409
30.622580 13.955513 -0.704922
30.537556 13.916766 -0.234291
30.497698 13.738211 0.233523
30.318554 13.657513 0.696545
30.670128 13.655221 -0.703246
30.539080 13.596874 -0.233384
30.543200 13.439329 0.232965
30.363375 13.360205 0.694870
30.348032 13.195700 -0.693194
30.482334 13.254096 -0.232057
30.659315 13.172281 0.232965
30.552294 13.126301 0.696545
30.600073 12.988960 -0.696335
30.596836 12.987586 -0.232057
30.514887 12.795954 0.231010
30.518158 12.797325 0.693194
30.121103 12.476570 -0.682932
30.625860 12.685647 -0.231429
30.514326 12.483741 0.230172
30.554646 12.500236 0.691519
30.645975 12.381778 -0.692356
30.661222 12.387938 -0.230870
30.547802 12.187337 0.229614
30.523273 12.177551 0.688377
30.669140 12.080895 -0.690472
30.656511 12.075921 -0.230033
30.625032 11.909424 0.229404
30.544518 11.878113 0.686493
30.624056 11.755474 -0.687121
30.658033 11.768517 -0.229265
30.606230 11.595663 0.228497
30.506769 11.557981 0.683351
30.575640 11.431764 -0.683770
30.572235 11.430490 -0.227868
30.631201 11.300447 0.227938
29.912359 11.035253 0.667854
30.674234 11.164509 -0.683770
30.661423 11.159845 -0.227799
30.427479 10.924582 0.225704
29.085371 10.442715 0.647330
30.619705 10.843006 -0.680419
30.540840 10.815079 -0.226193
29.228283 10.206974 0.216140
28.835594 10.069840 0.639791
30.609177 10.539585 -0.678116
22.294785 7.676710 -0.164618
30.180218 10.391882 -0.222842
28.918541 9.816522 0.213208
28.988642 9.840318 0.641257
22.356567 7.480403 -0.493822
24.072657 8.054599 -0.531728
30.624136 10.246693 -0.676440
22.379892 7.488207 -0.164758
24.314426 8.135493 -0.179000
29.131792 9.747361 -0.214464
28.927130 9.538737 0.212649
29.804518 9.828056 0.657383
22.582638 7.337544 -0.497382
24.351215 7.912189 -0.536335
29.799574 9.682468 -0.656335
22.615572 7.348245 -0.166014
28.949455 9.406248 -0.212510
24.475975 7.834822 0.179418
29.514027 9.447515 0.216349
29.517796 9.448721 0.649215
22.111845 6.971838 -0.485655
24.495615 7.723438 -0.538011
29.120129 9.181541 -0.639582
22.526245 7.102498 -0.164897
24.338263 7.673825 -0.178162
29.020899 9.150254 -0.212440
22.528372 6.995245 0.164688
29.232449 9.076917 0.213696
29.159912 9.054394 0.639582
24.619448 7.526920 -0.539267
29.046167 8.880304 -0.636231
24.672062 7.543006 -0.180117
29.357841 8.975593 -0.214325
29.243517 8.801299 0.213208
29.352699 8.834160 0.642095
23.955650 7.095987 -0.523351
29.515585 8.742914 -0.644817
29.358345 8.696338 -0.213766
29.271206 8.531778 0.212859
29.255901 8.527318 0.638325
20.979740 6.015844 -0.457173
28.946852 8.300376 -0.630786
24.290491 6.965186 -0.176416
29.683039 8.511474 -0.215581
29.306047 8.265161 0.212579
29.204109 8.236411 0.635602
21.994858 6.099714 -0.478115
24.152918 6.698197 -0.525026
28.989281 8.039439 -0.630157
29.390013 8.150572 -0.212928
29.492830 8.040668 0.213417
29.458143 8.031212 0.639582
21.950680 5.881667 -0.476021
29.319077 7.856023 -0.635812
24.408350 6.540198 -0.176416
29.662859 7.948139 -0.214395
29.997034 7.897560 0.216559
29.807487 7.847657 0.645655
21.943094 5.674870 -0.474765
29.667217 7.672464 -0.641885
21.898966 5.663458 -0.157916
29.808540 7.709013 -0.214953
29.938812 7.603490 0.215651
29.865145 7.584781 0.645445
21.952976 5.473492 -0.473927
29.888254 7.451979 -0.645236
21.986366 5.481817 -0.158195
30.029921 7.487300 -0.216070
30.004025 7.341938 0.215651
29.969042 7.333378 0.646283
22.320717 5.358730 -0.480838
30.000755 7.202544 -0.646283
22.043089 5.292078 -0.158265
30.094116 7.224958 -0.216070
29.950150 7.052324 0.214813
30.031897 7.071573 0.646283
22.317923 5.152498 -0.479791
24.422100 5.638286 -0.525026
30.179365 6.967455 -0.648796
30.000124 6.926074 -0.214953
30.078825 6.806143 0.215302
30.043707 6.798197 0.645236
22.283949 4.940233 -0.478115
24.226353 5.370853 -0.519791
30.151169 6.684353 -0.646911
30.108234 6.674835 -0.215302
30.058897 6.526426 0.214744
30.023726 6.518790 0.643561
21.700335 4.612548 -0.464712
30.100780 6.398118 -0.644608
22.154503 4.709085 -0.158126
30.194681 6.418077 -0.215512
30.114704 6.263867 0.214744
30.089258 6.258574 0.643770
24.375179 4.959187 -0.521047
30.214251 6.147159 -0.645864
24.889481 5.063822 -0.177324
30.171146 6.138389 -0.214953
30.050529 5.977422 0.213906
30.015253 5.970405 0.641047
21.600876 4.198785 -0.460943
30.227486 5.875628 -0.645027
24.186705 4.701419 -0.172018
30.184299 5.867234 -0.214674
24.039976 4.564132 0.170831
30.140844 5.722418 0.214185
30.026922 5.700789 0.640210
22.275669 4.128551 -0.474555
24.428526 4.527560 -0.520419
30.238287 5.604335 -0.644189
24.452953 4.532087 -0.173624
30.195023 5.596317 -0.214395
30.071550 5.437822 0.213347
30.036173 5.431425 0.639372
21.926859 3.866297 -0.466388
24.536026 4.326364 -0.521885
30.207275 5.326358 -0.642513
30.173775 5.320450 -0.213906
22.893909 3.933893 0.162175
30.078438 5.168421 0.213068
30.082428 5.169106 0.639372
22.886669 3.829915 -0.486074
30.163860 5.047699 -0.640629
22.871407 3.827361 -0.161895
30.080978 5.033829 -0.212928
30.122395 4.905744 0.213068
30.047447 4.893538 0.637697
22.968592 3.637868 -0.487121
24.894161 3.942848 -0.527958
30.177135 4.779589 -0.640000
22.894058 3.626063 -0.161826
30.163267 4.777392 -0.213208
25.410154 3.910997 0.179488
30.124525 4.636608 0.212789
30.059362 4.626578 0.637068
22.959911 3.431382 -0.486283
30.178144 4.510154 -0.639163
22.657801 3.386231 -0.159941
25.080832 3.748355 -0.177045
30.203808 4.513989 -0.213208
25.403732 3.683366 0.179209
30.084669 4.362070 0.212230
30.049122 4.356915 0.636021
22.899878 3.218368 -0.484398
30.186651 4.242457 -0.638534
23.587610 3.315022 -0.166294
25.201708 3.541869 -0.177673
30.202440 4.244676 -0.212928
30.131498 4.100717 0.212300
30.095903 4.095873 0.636231
22.946915 3.021019 -0.484817
24.136387 3.177616 -0.509948
30.222525 3.978871 -0.638534
30.129274 3.966594 -0.212160
30.116537 3.831307 0.211951
30.080912 3.826775 0.635184
24.282278 2.981489 -0.512461
30.166786 3.704015 -0.636650
25.557440 3.138059 -0.179767
30.162743 3.703519 -0.212160
30.109102 3.563647 0.211672
30.123089 3.565303 0.635393
24.506042 2.792111 -0.516649
30.207893 3.441755 -0.636859
30.193913 3.440162 -0.212160
30.188755 3.306206 0.212021
30.153055 3.302297 0.635393
30.286493 3.183239 -0.637906
30.222784 3.176543 -0.212160
30.126913 3.033621 0.211393
30.130987 3.034031 0.634346
30.223553 2.910197 -0.636021
30.219492 2.909806 -0.211951
30.152239 2.770602 0.211393
30.116493 2.767317 0.633508
30.247797 2.646339 -0.636021
30.233772 2.645112 -0.211881
30.175268 2.507371 0.211393
30.179348 2.507710 0.634346
30.269739 2.382280 -0.636021
30.225798 2.378822 -0.211672
30.205973 2.244691 0.211462
30.160202 2.241290 0.633508
30.249481 2.115250 -0.635184
30.235430 2.114267 -0.211602
30.214432 1.980358 0.211393
30.178612 1.978011 0.633508
30.226871 1.848755 -0.634346
30.212805 1.847894 -0.211323
30.240547 1.717183 0.211462
30.194725 1.714581 0.633508
30.241854 1.584908 -0.634346
30.277710 1.586788 -0.211672
30.244392 1.452742 0.211393
30.208536 1.451020 0.633508
30.294487 1.322686 -0.635184
30.290403 1.322508 -0.211672
30.255919 1.188758 0.211393
30.230040 1.187742 0.633718
30.264910 1.056874 -0.634346
30.250824 1.056382 -0.211323
30.275135 0.924989 0.211462
30.229259 0.923587 0.633508
30.352934 0.794820 -0.636021
30.338860 0.794451 -0.211881
30.272057 0.660539 0.211393
30.236168 0.659756 0.633508
30.328726 0.529390 -0.635393
30.264652 0.528271 -0.211323
30.276669 0.396343 0.211393
30.240774 0.395873 0.633508
30.412170 0.265403 -0.637068
30.348104 0.264844 -0.211881
30.278975 0.132118 0.211393
30.243078 0.131961 0.633508
30.363338 0.000000 -0.636021
30.349260 0.000000 -0.211881
30.318972 -0.132292 0.211672
30.283068 -0.132136 0.634346
30.402172 -0.265316 -0.636859
30.388102 -0.265193 -0.212160
30.366657 -0.397521 0.212021
30.330748 -0.397051 0.635393
30.358715 -0.529913 -0.636021
30.344639 -0.529668 -0.211881
30.362032 -0.662502 0.212021
30.326128 -0.661718 0.635393
30.392912 -0.795866 -0.636859
30.378845 -0.795498 -0.212160
30.355095 -0.927432 0.212021
30.319199 -0.926335 0.635393
30.424776 -1.062457 -0.637697
30.460690 -1.063711 -0.212789
30.425783 -1.195432 0.212579
30.389881 -1.194022 0.637068
30.414347 -1.327919 -0.637697
30.450247 -1.329486 -0.212789
30.414192 -1.460898 0.212579
30.378304 -1.459175 0.637068
30.491457 -1.597990 -0.639582
30.477430 -1.597255 -0.213068
30.440220 -1.728521 0.212859
30.404341 -1.726484 0.637906
30.476351 -1.864014 -0.639582
30.452351 -1.862546 -0.212998
30.503803 -1.999325 0.213417
30.507833 -1.999589 0.640419
30.488844 -2.131988 -0.640210
30.484814 -2.131706 -0.213347
30.525084 -2.268406 0.213696
30.489222 -2.265741 0.640419
30.598650 -2.408166 -0.642932
30.544804 -2.403928 -0.213906
30.494162 -2.533870 0.213627
30.508142 -2.535031 0.641257
30.576469 -2.675094 -0.642932
30.562508 -2.673873 -0.214185
30.560509 -2.808116 0.214255
30.415169 -2.794761 0.639791
30.631575 -2.949485 -0.644608
30.617641 -2.948143 -0.214744
30.534840 -3.074697 0.214255
30.419464 -3.063079 0.640419
30.604670 -3.216681 -0.644608
30.620583 -3.218353 -0.214953
30.467085 -3.336689 0.213976
30.391577 -3.328419 0.640419
30.654903 -3.492685 -0.646283
30.511848 -3.476386 -0.214395
30.426876 -3.601258 0.213906
30.361374 -3.593505 0.640419
30.573641 -3.753971 -0.645236
30.490274 -3.743735 -0.214464
30.443890 -3.872952 0.214255
30.408201 -3.868412 0.642095
30.539717 -4.020630 -0.645236
30.496101 -4.014888 -0.214744
30.488201 -4.149262 0.214813
30.412912 -4.139016 0.642932
30.543070 -4.292549 -0.646074
30.489611 -4.285035 -0.214953
30.440935 -4.413725 0.214744
30.415211 -4.409996 0.643770
30.593439 -4.572220 -0.647958
30.540066 -4.564243 -0.215581
30.490210 -4.692892 0.215372
30.454620 -4.687415 0.645445
30.552376 -4.839021 -0.647958
30.499073 -4.830578 -0.215581
30.448095 -4.958787 0.215372
30.412556 -4.953000 0.645445
30.548428 -5.112053 -0.648796
30.495207 -5.103148 -0.215861
30.443085 -5.231079 0.215651
30.447002 -5.231752 0.647121
30.571575 -5.390594 -0.650262
30.518448 -5.381226 -0.216349
30.474998 -5.510777 0.216210
30.754366 -5.561296 0.654660
30.552860 -5.662638 -0.650890
30.509657 -5.654631 -0.216629
30.661530 -5.821273 0.217885
30.910933 -5.868624 0.659058
30.600424 -5.948120 -0.652985
30.576942 -5.943555 -0.217466
31.001867 -6.166655 0.220678
30.819321 -6.130344 0.658220
30.576742 -6.220909 -0.653613
30.964867 -6.299873 -0.220608
31.074146 -6.463432 0.221585
30.950628 -6.437740 0.662199
30.902685 -6.568569 -0.661780
31.407555 -6.675882 -0.224168
30.967699 -6.723747 0.221236
30.932352 -6.716072 0.663037
31.439598 -6.969991 -0.674555
31.182135 -6.912913 -0.222981
30.985870 -7.011387 0.221795
30.989580 -7.012226 0.665550
31.280161 -7.221594 -0.672461
31.062160 -7.171265 -0.222563
31.001373 -7.299855 0.222353
31.005062 -7.300723 0.667225
31.186787 -7.487285 -0.671833
31.056738 -7.456063 -0.222981
31.014196 -7.589126 0.222912
30.979017 -7.580517 0.668063
31.081457 -7.749477 -0.670995
31.039003 -7.738893 -0.223331
31.063093 -7.889021 0.223749
31.027967 -7.880100 0.670576
31.128799 -8.050455 -0.673508
30.999332 -8.016973 -0.223540
31.031748 -8.169977 0.224029
31.035366 -8.170930 0.672252
31.009075 -8.308857 -0.672461
31.082735 -8.328594 -0.224657
31.084690 -8.474659 0.224936
31.030401 -8.459858 0.673718
31.214779 -8.656625 -0.678534
31.143778 -8.636934 -0.225634
31.076921 -8.764599 0.225425
31.080486 -8.765604 0.676440
31.214931 -8.950738 -0.680210
31.134508 -8.927676 -0.226123
31.114458 -9.069037 0.226263
25.349356 -7.388663 0.553089
31.069998 -9.056079 0.677906
31.289013 -9.268228 -0.683561
31.160881 -9.230274 -0.226891
25.039881 -7.536149 0.182560
31.110735 -9.363269 0.226821
24.862675 -7.482816 0.543875
31.104670 -9.361444 0.680419
31.283428 -9.564304 -0.685236
31.203465 -9.539856 -0.227799
31.142441 -9.669985 0.227659
24.729591 -7.678742 0.542409
31.088629 -9.653276 0.681885
31.313196 -9.873013 -0.687749
25.702045 -8.103824 -0.188145
31.233469 -9.847875 -0.228636
31.171154 -9.977965 0.228497
24.813992 -7.943021 0.545759
31.146034 -9.969924 0.685027
31.235355 -10.148982 -0.687958
31.222425 -10.144781 -0.229195
25.422827 -8.383191 0.186888
31.149372 -10.271523 0.228985
25.009588 -8.246925 0.551623
31.114815 -10.260127 0.686283
31.259375 -10.459240 -0.690472
25.281693 -8.459136 -0.186120
31.360298 -10.493010 -0.230870
25.396048 -8.620796 0.187237
31.210056 -10.594387 0.230102
25.362694 -8.609475 0.561047
31.137701 -10.569825 0.688796
31.233082 -10.754413 -0.691938
24.611248 -8.474333 -0.181722
31.220263 -10.749998 -0.230521
25.697477 -8.973961 0.190030
31.201382 -10.896010 0.230731
25.107260 -8.767848 0.557068
31.157543 -10.880701 0.691309
31.260561 -11.069945 -0.694660
31.370344 -11.108822 -0.232336
24.535860 -8.809274 0.182001
31.246283 -11.218561 0.231778
25.123888 -9.020397 0.559163
31.211962 -11.206240 0.694660
31.313086 -11.397031 -0.698011
31.478935 -11.457396 -0.233872
24.814556 -9.154573 0.184654
31.222246 -11.518495 0.232336
24.819098 -9.156249 0.554136
31.150501 -11.492026 0.695498
31.324814 -11.711867 -0.700524
25.008537 -9.350309 -0.186400
31.452686 -11.759677 -0.234431
24.312923 -9.211343 0.181513
31.270159 -11.847203 0.233453
24.439074 -9.259136 0.547435
31.226665 -11.830726 0.699477
26.311861 -10.100177 -0.590367
31.370756 -12.042105 -0.703875
23.693693 -9.095157 -0.177184
31.460894 -12.076706 -0.235268
23.849501 -9.274564 0.178650
31.286741 -12.166748 0.234361
24.525066 -9.537277 0.551205
31.252687 -12.153505 0.702409
26.259928 -10.344061 -0.591205
31.338894 -12.344718 -0.705550
23.892540 -9.411522 -0.179279
26.358088 -10.382727 -0.197779
31.503172 -12.409430 -0.236385
24.074158 -9.604614 0.180954
31.281544 -12.480070 0.235129
24.329473 -9.706475 0.548691
31.219728 -12.455409 0.704084
26.103771 -10.546608 -0.589739
31.350481 -12.666416 -0.708273
23.948576 -9.675853 -0.180326
31.412224 -12.691362 -0.236525
23.017632 -9.416761 0.173624
31.291761 -12.801798 0.236036
23.022398 -9.418712 0.521047
24.188322 -9.895704 0.547435
31.211634 -12.769017 0.706388
26.103109 -10.812262 -0.591833
31.368069 -12.993079 -0.711205
24.214293 -10.029888 -0.182979
26.098961 -10.810543 -0.197221
31.364946 -12.991786 -0.237014
22.971466 -9.632735 0.173903
31.344847 -13.143985 0.237293
23.022308 -9.654055 0.522932
31.311077 -13.129824 0.711205
25.961746 -11.020107 -0.590786
31.373129 -13.317102 -0.713927
26.114086 -11.084772 -0.198058
31.397655 -13.327514 -0.238131
24.806759 -10.657825 0.188494
31.348392 -13.468332 0.238201
23.313807 -10.016402 0.531519
25.598701 -11.130632 -0.584712
31.402418 -13.654160 -0.717278
25.961338 -11.288311 -0.197639
31.353519 -13.632898 -0.238689
23.403944 -10.297982 0.178511
24.776878 -10.902087 0.188983
31.339500 -13.789711 0.239038
22.932674 -10.090618 0.524817
25.527996 -11.365796 -0.585341
31.327738 -13.948008 -0.718325
25.660866 -11.424953 -0.196104
31.342981 -13.954794 -0.239527
23.477301 -10.575752 0.179767
31.363850 -14.128385 0.240155
22.980480 -10.351952 0.527958
31.450462 -14.332801 -0.723979
25.723978 -11.723092 -0.197360
31.438396 -14.327302 -0.241203
23.574821 -10.868142 0.181234
25.708906 -11.851969 0.197639
31.375582 -14.464341 0.241203
23.007301 -10.606511 0.530681
25.688190 -11.978601 -0.593718
31.441982 -14.661637 -0.726702
25.575382 -11.925997 -0.197011
31.420925 -14.651818 -0.242040
31.374784 -14.797309 0.242180
22.913866 -10.806881 0.530681
24.306423 -11.463653 0.562932
31.323456 -14.773101 0.725445
24.689318 -11.776200 -0.572985
31.439175 -14.995717 -0.729634
25.172491 -12.006661 -0.194707
31.445305 -14.998641 -0.243227
24.417334 -11.777524 0.189262
31.424595 -15.157426 0.243576
24.286505 -11.714418 0.564817
31.418470 -15.154470 0.730681
23.552225 -11.487188 -0.548901
24.446602 -11.923405 -0.189890
31.501965 -15.364534 -0.244693
24.403313 -12.034382 0.189960
31.488434 -15.528378 0.245112
22.892139 -11.289154 0.534660
31.419529 -15.494397 0.733822
23.630033 -11.781500 -0.553089
24.502707 -12.216599 -0.191147
31.509871 -15.710242 -0.245810
23.029366 -11.607756 0.180047
31.503529 -15.879086 0.246299
22.533846 -11.357993 0.528587
31.452749 -15.853491 0.737801
24.354776 -12.409378 -0.572566
31.392183 -15.995116 -0.738011
24.047680 -12.252905 -0.188424
31.416124 -16.007315 -0.246159
22.358236 -11.515248 0.175579
24.491825 -12.614119 0.192334
31.470440 -16.208342 0.247137
22.656076 -11.668647 0.533822
31.455416 -16.200603 0.741152
23.873095 -12.427547 -0.563770
31.508583 -16.402330 -0.744084
24.108366 -12.550021 -0.189751
31.488117 -16.391676 -0.247835
22.849823 -12.021873 0.180256
24.345417 -12.808743 0.192054
31.540192 -16.594097 0.248812
22.730347 -11.959014 0.538011
31.489801 -16.567587 0.745341
24.002079 -12.762133 -0.569424
31.531971 -16.765846 -0.748063
24.298126 -12.919542 -0.192124
31.520460 -16.759726 -0.249231
24.091774 -12.944978 0.190937
31.473459 -16.911299 0.249440
31.440903 -16.893806 0.747644
31.577761 -17.145325 -0.752671
24.202034 -13.140632 -0.192264
31.557554 -17.134354 -0.250697
31.535093 -17.300745 0.251116
31.502649 -17.282946 0.752671
23.845648 -13.217859 -0.571100
31.593081 -17.512329 -0.756650
24.016472 -13.312548 -0.191705
31.573002 -17.501202 -0.252023
22.640720 -12.679412 0.181164
31.548687 -17.668114 0.252442
22.392061 -12.540156 0.537592
31.551260 -17.669554 0.757487
23.816410 -13.474677 -0.573194
31.639193 -17.900595 -0.761466
24.029936 -13.595483 -0.192753
31.593142 -17.874540 -0.253420
22.225348 -12.702833 0.178720
31.566940 -18.041992 0.253839
22.064774 -12.611057 0.532356
31.595507 -18.058319 0.762304
23.827791 -13.756982 -0.576335
31.620312 -18.255995 -0.764817
23.555317 -13.599669 -0.189890
31.617817 -18.254555 -0.254886
22.251860 -12.976901 0.179837
31.615608 -18.437677 0.255514
22.135248 -12.908895 0.536754
31.635355 -18.449194 0.767121
24.973150 -14.710310 -0.607121
31.640697 -18.637796 -0.769215
23.935474 -14.099072 -0.193939
31.629635 -18.631279 -0.256282
22.077612 -13.134799 0.179349
31.548040 -18.769112 0.256282
22.081902 -13.137350 0.538220
31.602036 -18.801235 0.770262
21.484470 -12.909173 -0.525026
24.003990 -14.423053 -0.586597
31.665386 -19.026484 -0.773822
22.054377 -13.251607 -0.179628
24.702959 -14.843036 -0.201200
31.662989 -19.025043 -0.257888
22.432341 -13.612279 0.183188
23.962595 -14.540860 0.195685
31.682262 -19.225269 0.258725
22.274117 -13.516266 0.545759
31.710274 -19.242268 0.776964
21.336903 -13.075271 -0.524189
24.806387 -15.201374 -0.609424
31.574865 -19.349102 -0.775707
21.298431 -13.051696 -0.174392
23.915974 -14.655727 -0.195824
31.598074 -19.363325 -0.258725
22.737864 -14.070618 0.186679
23.868805 -14.770465 0.195964
31.632332 -19.574680 0.259703
22.452877 -13.894261 0.553089
31.838707 -19.702389 0.784294
21.196552 -13.245076 -0.523561
31.676128 -19.793442 -0.782409
21.183725 -13.237061 -0.174392
23.871973 -14.916863 -0.196522
31.589022 -19.739012 -0.260052
22.631124 -14.279177 0.186819
23.899685 -15.079578 0.197290
31.629450 -19.956697 0.261099
22.601347 -14.260387 0.559791
31.758570 -20.038166 0.786597
21.316259 -13.579955 -0.529424
31.670835 -20.176548 -0.786597
21.666199 -13.802891 -0.179349
22.678244 -14.447635 -0.187726
31.364964 -19.981686 -0.259633
22.505655 -14.476124 0.186819
23.918566 -15.384939 0.198547
31.126095 -20.020977 0.258376
22.560127 -14.511162 0.561885
26.074900 -16.771938 0.649424
24.852743 -16.139561 -0.620733
31.728334 -20.604622 -0.792461
30.719755 -19.949642 -0.255724
19.526806 -12.802335 0.163012
22.219582 -14.567796 0.185492
31.694473 -20.779806 0.264590
19.514639 -12.794357 0.488796
24.129925 -15.820272 0.604398
19.708738 -13.044929 -0.495079
25.511311 -16.885567 -0.640838
31.730734 -21.002115 -0.797068
21.021749 -13.913992 -0.175998
30.002481 -19.858210 -0.251186
19.713665 -13.172249 0.165526
24.843706 -16.600035 0.208600
26.664581 -17.816704 0.223889
19.568502 -13.075255 0.492985
31.763487 -21.223682 0.800210
19.851095 -13.389732 -0.501571
31.794907 -21.445936 -0.803351
19.631132 -13.241365 -0.165316
26.362753 -17.781900 -0.222004
19.548370 -13.310012 0.165107
25.235170 -17.182016 0.213138
31.732008 -21.605555 0.268011
19.238789 -13.099225 0.487540
21.504976 -14.779961 -0.546597
31.796055 -21.852823 -0.808168
19.350012 -13.298894 -0.163920
19.037096 -13.206503 0.161756
25.371840 -17.601070 0.215581
19.008739 -13.186832 0.484608
19.778183 -13.848833 -0.505759
21.358801 -14.955593 -0.546178
26.796776 -18.763306 -0.685236
19.397047 -13.581959 -0.165316
21.354773 -14.952773 -0.182001
19.117113 -13.510639 0.163431
18.966423 -13.404142 0.486492
19.697275 -14.049930 -0.506807
21.113525 -15.060131 -0.543246
23.921608 -17.063116 -0.615498
18.919584 -13.495208 -0.162244
21.370012 -15.243081 -0.183258
19.834385 -14.278714 0.170622
22.260931 -16.025578 0.191496
31.796694 -22.890345 0.273526
18.937983 -13.633396 0.488796
31.782381 -22.880041 0.820315
27.435839 -19.933304 -0.710367
31.892544 -23.171289 -0.825760
18.849636 -13.695063 -0.162663
24.407448 -17.733049 -0.210625
19.797733 -14.516298 0.171390
21.829924 -16.006363 0.188983
31.853786 -23.356161 0.275760
21.551537 -15.802240 0.559791
31.863701 -23.363432 0.827644
27.067961 -20.029238 -0.705341
31.914156 -23.615232 -0.831623
21.333841 -15.786212 -0.185283
24.203541 -17.909678 -0.210206
31.872149 -23.584148 -0.276807
19.486017 -14.550900 0.169784
31.881113 -23.806755 0.277784
21.669163 -16.181131 0.566492
31.850864 -23.784168 0.832671
19.035295 -14.344124 -0.499267
19.206717 -14.473299 -0.167899
21.003603 -15.827350 -0.183607
19.238899 -14.629600 0.168737
31.887064 -24.247486 0.279669
18.415447 -14.003431 0.484608
31.880846 -24.242760 0.838953
18.671442 -14.327101 -0.492985
19.095549 -14.652531 -0.168039
31.931694 -24.502050 -0.280996
18.414711 -14.258193 0.162594
18.743137 -14.512488 0.496545
31.873611 -24.679188 0.844398
18.979015 -14.828032 -0.504503
18.903917 -14.769359 -0.167480
18.855000 -14.864083 0.167620
31.890944 -25.140793 0.283509
18.333128 -14.452673 0.489006
31.916132 -25.160650 0.851309
18.755003 -14.918404 -0.501990
18.782139 -14.939987 -0.167550
21.943798 -17.454885 -0.195755
19.036516 -15.278419 0.170413
31.966686 -25.655977 0.286162
18.307673 -14.693460 0.491728
19.594198 -15.726007 0.526283
31.929266 -25.625944 0.857592
18.561945 -15.031167 -0.500314
22.120493 -17.912823 -0.596231
19.195038 -15.543835 -0.172437
21.922752 -17.752695 -0.196941
23.267183 -18.841393 -0.209019
18.507534 -15.121289 0.166852
31.973892 -26.123766 0.288256
18.194237 -14.865314 0.492147
18.892942 -15.574140 -0.512880
32.053970 -26.423254 -0.870158
19.243849 -15.863404 -0.174113
22.137369 -18.248640 -0.200292
32.044788 -26.415686 -0.289932
18.628584 -15.493230 0.169156
21.849953 -18.172413 0.198407
31.967665 -26.587225 0.290281
18.156061 -15.100237 0.494660
23.944170 -19.914156 0.652356
18.756313 -15.738416 -0.512880
22.899706 -19.215134 -0.626178
32.036610 -26.881908 -0.876021
32.035198 -26.880722 -0.291956
31.986294 -27.078396 0.292585
18.061750 -15.290401 0.495707
20.289900 -17.176668 0.556859
18.580246 -15.869029 -0.511833
22.503080 -19.219446 -0.619896
32.012310 -27.341097 -0.293911
19.135626 -16.488310 0.176347
20.582539 -17.735050 0.189681
23.827768 -20.531319 0.658849
31.992527 -27.566525 0.884608
18.320330 -15.925620 -0.508482
20.527601 -17.844370 -0.189890
32.059280 -27.868708 -0.296564
19.111301 -16.760162 0.177464
17.965031 -15.754909 0.500524
20.966162 -18.549292 -0.586388
22.793213 -20.165731 -0.637487
18.558670 -16.419325 -0.172996
20.363609 -18.016199 -0.189820
21.509483 -19.029984 -0.200502
18.941935 -16.906324 0.177254
23.000389 -20.528631 0.215232
18.117760 -16.170719 0.508691
20.191343 -18.021463 0.566911
32.104244 -28.906792 -0.904922
18.370092 -16.540506 -0.172577
32.147663 -28.945885 -0.302009
18.416178 -16.728079 0.173694
21.369577 -19.410757 0.201549
18.382986 -16.697929 0.520210
19.929703 -18.102867 0.563979
17.992992 -16.487539 -0.511204
32.241440 -29.543835 -0.916021
18.239798 -16.713694 -0.172716
32.151882 -29.461771 -0.304453
18.210754 -16.833849 0.173135
18.170496 -16.796635 0.518325
20.997017 -19.409443 0.598953
18.023914 -16.807573 -0.516231
32.179817 -30.008165 -0.921676
18.137131 -16.913147 -0.173135
17.779102 -16.724909 0.170413
17.906713 -16.844955 0.514974
17.985338 -17.067450 -0.519372
20.458323 -19.414225 -0.590786
32.221313 -30.576887 -0.930472
17.727718 -16.822975 -0.170622
18.895542 -17.931200 -0.181862
20.579647 -19.700727 0.198896
23.945782 -22.923100 0.231429
18.531794 -17.740334 0.537382
18.015511 -17.397375 -0.524608
18.090956 -17.470232 -0.175579
32.204060 -31.099098 -0.312551
17.871298 -17.409449 0.174182
17.939428 -17.475817 0.524608
17.791697 -17.483850 -0.522513
19.225016 -18.892370 -0.564608
32.253242 -31.695173 -0.947226
19.250160 -18.917080 -0.188424
21.326347 -21.141047 0.209647
17.729439 -17.575392 0.522932
19.355408 -19.187233 0.570890
19.306850 -19.306850 -0.571938
21.646862 -21.646862 -0.641257
32.293552 -32.293552 -0.956650
20.229832 -20.229832 -0.199734
21.757145 -21.757145 -0.214813
32.222073 -32.222073 -0.318136
20.943928 -21.127501 0.207692
17.807667 -17.963749 0.529843
21.604294 -21.984688 -0.645655
32.283810 -32.852242 -0.964817
19.407705 -19.749424 -0.193311
20.227749 -20.583906 -0.201479
21.545425 -21.924784 -0.214604
17.716469 -18.186462 0.177254
19.251570 -19.762289 0.192613
20.249386 -20.786575 0.202596
20.008242 -20.539034 0.600629
20.230961 -20.949772 -0.610053
32.322311 -33.470734 -0.974660
20.047352 -20.759642 -0.201479
21.533884 -22.298990 -0.216419
20.191689 -21.092514 0.203853
19.897381 -20.785076 0.602723
20.315771 -21.408356 -0.618220
21.788527 -22.960316 -0.663037
32.359333 -34.099621 -0.984713
20.622601 -21.731686 -0.209159
20.150742 -21.420868 0.205319
20.920898 -22.239571 0.639582
32.189686 -34.218647 0.984084
21.825979 -23.405499 -0.670367
32.333271 -34.673187 -0.993090
20.179840 -21.640228 -0.206575
20.254921 -21.911650 0.208321
20.237398 -21.892694 0.624503
20.215981 -22.061871 -0.626807
32.367184 -35.322582 -1.003561
20.307747 -22.162016 -0.209857
32.299179 -35.248371 -0.333774
32.266098 -35.522202 0.335031
20.818634 -22.919527 0.648587
32.179142 -35.426472 1.002514
32.298542 -35.871162 -1.011100
32.237926 -35.803844 -0.336357
20.635170 -23.119755 0.216349
32.247864 -36.130676 0.338102
20.524630 -22.995905 0.645655
32.194977 -36.071423 1.012775
32.249271 -36.451168 -1.019477
32.215801 -36.413342 -0.339429
32.096172 -36.598671 0.339848
31.991035 -36.478783 1.016336
32.297260 -37.153751 -1.031205
32.185471 -37.025150 -0.342501
32.062778 -37.210686 0.342919
31.567064 -36.635384 1.012985
32.251011 -37.761082 -1.040210
32.198849 -37.700008 -0.346131
32.021126 -37.824879 0.345991
31.297842 -36.970505 1.014660
32.087345 -38.240211 -1.045655
31.952194 -38.079140 -0.347038
31.913624 -38.371960 0.348435
31.338425 -37.680363 1.026597
31.577553 -38.648994 0.348435
30.837620 -37.743362 1.020943
31.539515 -39.297421 0.351786
31.364405 -39.079239 1.049634
31.071568 -39.414097 0.350389
30.848875 -39.131611 1.043770
30.530531 -39.430729 0.348155
30.285868 -39.114738 1.036231
30.015797 -39.472778 0.346201
29.792088 -39.178585 1.030995
29.496683 -39.500851 0.344176
29.233711 -39.148685 1.023456
28.920250 -39.442245 0.341453
0.181113 -0.251582 0.002164
28.452265 -39.522690 0.339987
0.134348 -0.186621 0.004817
28.283165 -39.287792 1.014032
0.170995 -0.246488 0.002094
0.136769 -0.197152 0.005026
0.151924 -0.223130 0.005654
0.155556 -0.232806 0.001955
0.138862 -0.207822 0.005236
0.126080 -0.192304 0.004817
0.129831 -0.201844 0.001676
0.146031 -0.227031 0.005654
0.128064 -0.202970 0.001676
0.117369 -0.186019 0.004607
0.147336 -0.238093 0.001955
0.157830 -0.255050 0.006283
0.145253 -0.239369 0.001955
0.119292 -0.196587 0.004817
0.117595 -0.197659 0.001606
0.107348 -0.180436 0.004398
0.115843 -0.198639 0.004817