# This PCD file was generated using the MATLAB® pcwrite function
# from Computer Vision System Toolbox®.
# .PCD v.7 - Point Cloud Data file format
VERSION .7
FIELDS x y z
SIZE 4 4 4
TYPE F F F
COUNT 1 1 1
WIDTH 737
HEIGHT 1
VIEWPOINT 0 0 0 1 0 0 0
POINTS 737
DATA ascii
30.958408 31.503504 -0.308362
30.941149 30.405783 -0.908692
30.989977 30.453766 -0.303336
30.858925 29.800117 -0.299496
30.908676 29.331238 -0.892566
30.921955 29.343840 -0.297611
30.907541 28.821749 -0.885236
30.862373 28.779629 -0.294609
30.885145 28.301022 -0.877487
30.898540 28.313295 -0.292585
30.870895 27.796280 -0.870158
30.891777 27.815081 -0.290211
30.857697 27.300583 -0.863037
30.848734 27.292654 -0.287558
30.838215 26.807253 -0.855917
30.851776 26.819040 -0.285394
30.820097 26.322849 -0.849006
30.848919 26.347466 -0.283230
30.749939 25.802263 -0.840838
30.771255 25.820148 -0.280437
30.819641 25.405752 -0.836650
30.810219 25.397984 -0.278762
30.822618 24.959665 -0.830786
30.813086 24.951946 -0.276807
30.757580 24.465683 -0.823247
30.747925 24.458004 -0.274294
30.780828 24.048618 -0.818220
30.802589 24.065620 -0.272897
30.767427 23.608677 -0.812356
30.789293 23.625456 -0.270943
30.772661 23.188864 -0.807121
30.738731 23.163296 -0.268709
30.724709 22.735088 -0.800629
30.746775 22.751417 -0.267033
30.760168 22.348570 -0.796440
30.749987 22.341173 -0.265358
30.726120 21.916729 -0.790576
30.715830 21.909389 -0.263403
30.686895 21.487196 -0.784712
30.717453 21.508593 -0.261797
30.708447 21.105331 -0.780524
30.706194 21.103783 -0.260122
30.725683 20.724735 -0.776335
30.715094 20.717592 -0.258656
30.730368 20.533375 0.258027
30.705278 20.323381 -0.771309
30.702929 20.321825 -0.257050
30.699316 20.127354 0.256282
30.751860 20.161802 0.770262
30.680225 19.923971 -0.766283
30.669436 19.916964 -0.255305
30.697176 19.745087 0.254816
30.699600 19.746647 0.764608
30.650555 19.526558 -0.761257
30.673399 19.541111 -0.253908
30.707628 19.375071 0.253490
30.735464 19.392633 0.761257
30.658693 19.157679 -0.757278
30.681633 19.172012 -0.252582
30.671457 18.980074 0.251814
30.673979 18.981634 0.755603
30.645691 18.779703 -0.752880
30.702824 18.814714 -0.251395
30.664942 18.607943 0.250418
30.701700 18.630249 0.752252
30.645580 18.413723 -0.748901
30.660128 18.422462 -0.249720
30.654280 18.237379 0.249022
30.691265 18.259384 0.748063
30.589741 18.018734 -0.743665
30.612938 18.032398 -0.248044
30.674051 17.888578 0.247905
30.676708 17.890127 0.743875
30.607285 17.671124 -0.740315
30.630571 17.684568 -0.246927
30.620626 17.501129 0.246229
30.658056 17.522524 0.739686
30.629801 17.329508 -0.737173
30.653181 17.342735 -0.245880
30.676212 17.179504 0.245461
30.670231 17.176155 0.736335
30.631208 16.979156 -0.733613
30.654675 16.992163 -0.244693
30.640854 16.810148 0.243995
30.678707 16.830915 0.732985
30.567343 16.596712 -0.728587
30.599667 16.614264 -0.243087
30.610207 16.447458 0.242599
30.613047 16.448984 0.727959
30.613907 16.277702 -0.726283
30.602219 16.271488 -0.241970
30.575579 16.086590 0.241203
30.578465 16.088108 0.723770
30.533085 15.894518 -0.721048
30.565649 15.911469 -0.240574
30.572554 15.745900 0.240086
30.611036 15.765719 0.721257
30.563728 15.572998 -0.718534
30.525139 15.553335 -0.239178
30.539135 15.392992 0.238759
30.568893 15.407990 0.717068
30.564253 15.238774 -0.715393
30.588112 15.250669 -0.238619
30.555710 15.068408 0.237852
30.603554 15.092002 0.714765
30.552296 14.901350 -0.712042
30.576229 14.913023 -0.237502
30.586967 14.753402 0.237084
30.553989 14.737494 0.710576
30.572884 14.582517 -0.709529
30.596895 14.593970 -0.236665
30.560795 14.413406 0.235897
30.609093 14.436185 0.708901
30.553997 14.247562 -0.706178
30.578079 14.258793 -0.235548
30.549192 14.083370 0.234850
30.552315 14.084810 0.704712
30.531603 13.914053 -0.702828
30.601252 13.945794 -0.234780
30.525049 13.750532 0.233733
30.564676 13.768383 0.702199
30.505726 13.582025 -0.699477
30.529945 13.592808 -0.233314
30.570658 13.451411 0.233174
30.610455 13.468923 0.700524
30.522234 13.271445 -0.697173
30.500675 13.262071 -0.232197
30.503124 13.105177 0.231778
30.543108 13.122355 0.696335
30.517246 12.953803 -0.694451
30.541607 12.964143 -0.231638
30.542551 12.807555 0.231219
30.582697 12.824389 0.694660
30.481339 12.625784 -0.691100
30.542713 12.651206 -0.230800
30.505072 12.479955 0.230102
30.545391 12.496449 0.691309
30.488388 12.318109 -0.688796
30.540691 12.339240 -0.229963
30.464211 12.153988 0.228985
30.541847 12.184961 0.688796
30.473795 12.003947 -0.686074
30.507648 12.017282 -0.228916
30.494555 11.858684 0.228427
30.497927 11.859995 0.685445
30.502718 11.708896 -0.684398
30.489994 11.704012 -0.228008
30.484665 11.549606 0.227589
30.525469 11.565065 0.683770
30.453899 11.386247 -0.681047
30.478571 11.395471 -0.227170
30.509239 11.255452 0.227031
30.512671 11.256719 0.681257
30.448759 11.082441 -0.678744
30.435902 11.077763 -0.226123
30.455713 10.934718 0.225914
30.487415 10.946100 0.678534
30.468916 10.789609 -0.677068
30.493710 10.798388 -0.225844
30.474451 10.642155 0.225355
30.477949 10.643376 0.676231
30.439020 10.480995 -0.674346
30.463865 10.489551 -0.224936
30.452530 10.337241 0.224517
30.493931 10.351295 0.674555
30.472437 10.195935 -0.673089
30.487862 10.201097 -0.224448
30.427618 10.033524 0.223680
30.431181 10.034698 0.671205
30.436642 9.889464 -0.670367
30.461597 9.897573 -0.223610
30.437828 9.743225 0.223121
30.479504 9.756566 0.670367
30.416899 9.590411 -0.668063
30.394218 9.583261 -0.222493
30.407095 9.441653 0.222283
30.372522 9.430919 0.666178
30.422943 9.301228 -0.666388
30.400187 9.294270 -0.221934
30.411726 9.152890 0.221725
30.424944 9.156869 0.665550
30.378334 8.998472 -0.663665
30.413021 9.008747 -0.221446
30.461639 8.878758 0.221515
30.455702 8.877028 0.664503
30.378819 8.710986 -0.661990
30.365517 8.707171 -0.220538
30.412844 8.577310 0.220608
30.426161 8.581064 0.662199
30.376604 8.424178 -0.660315
30.401800 8.431166 -0.220259
30.409355 8.290542 0.220049
30.413073 8.291555 0.660315
30.371704 8.138074 -0.658639
30.396944 8.144836 -0.219700
30.403183 8.004490 0.219491
30.406925 8.005475 0.658639
30.412527 7.865214 -0.658011
30.437820 7.871756 -0.219491
30.394341 7.719179 0.218932
30.407795 7.722596 0.657173
30.353895 7.568076 -0.655288
30.427732 7.586486 -0.218932
30.431406 7.446517 0.218723
30.386627 7.435561 0.655288
30.389618 7.295902 -0.654660
30.414989 7.301993 -0.218374
30.407627 7.160046 0.218095
30.411430 7.160941 0.654451
30.403419 7.019183 -0.653613
30.438580 7.027300 -0.218095
30.400679 6.878972 0.217606
30.433758 6.886456 0.653613
30.385429 6.736288 -0.651938
30.420643 6.744094 -0.217536
30.420464 6.604930 0.217327
30.424303 6.605763 0.652147
30.403940 6.462557 -0.651100
30.429430 6.467975 -0.217187
30.349670 6.312740 0.216419
30.402483 6.323726 0.650472
30.341612 6.173071 -0.648587
30.376926 6.180255 -0.216419
30.334949 6.033997 0.215930
30.368258 6.040622 0.648587
30.364883 5.902336 -0.647958
30.341356 5.897762 -0.215791
30.337330 5.759722 0.215581
30.351059 5.762329 0.647121
30.287439 5.613445 -0.645236
30.273682 5.610895 -0.214953
30.307714 5.480528 0.215023
30.311646 5.481238 0.645236
30.345118 5.350663 -0.645445
30.360884 5.353443 -0.215232
30.314966 5.209064 0.214744
30.318909 5.209742 0.644398
30.301908 5.070801 -0.643561
30.337406 5.076741 -0.214744
30.369139 4.945928 0.214813
30.363218 4.944964 0.644398
30.266008 4.793665 -0.641885
30.252157 4.791471 -0.213836
30.282660 4.660947 0.213906
30.326162 4.667643 0.642723
30.356129 4.536754 -0.642932
30.342268 4.534682 -0.214185
30.282595 4.390767 0.213627
30.286585 4.391346 0.641047
30.265856 4.253589 -0.640210
30.291561 4.257201 -0.213557
30.319757 4.126338 0.213627
30.323753 4.126882 0.641047
30.222525 3.978871 -0.638534
30.248245 3.982257 -0.212998
30.275253 3.851499 0.213068
30.328857 3.858318 0.640419
30.226326 3.711326 -0.637906
30.242144 3.713269 -0.212719
30.238197 3.578927 0.212579
30.272017 3.582929 0.638534
30.247627 3.446282 -0.637697
30.233654 3.444690 -0.212440
30.218576 3.309472 0.212230
30.262377 3.314269 0.637697
30.206949 3.174878 -0.636231
30.183004 3.172362 -0.211881
30.246305 3.045643 0.212230
30.260303 3.047052 0.637068
30.223553 2.910197 -0.636021
30.249353 2.912681 -0.212160
30.241859 2.778836 0.212021
30.235964 2.778295 0.636021
30.247797 2.646339 -0.636021
30.273619 2.648598 -0.212160
30.215130 2.510684 0.211672
30.269020 2.515162 0.636231
30.269739 2.382280 -0.636021
30.255703 2.381176 -0.211881
30.235889 2.246915 0.211672
30.239965 2.247218 0.635184
30.219563 2.113158 -0.634555
30.245405 2.114965 -0.211672
30.214432 1.980358 0.211393
30.268400 1.983896 0.635393
30.236851 1.849365 -0.634555
30.222786 1.848505 -0.211393
30.200611 1.714915 0.211183
30.194725 1.714581 0.633508
30.161982 1.580722 -0.632671
30.237766 1.584694 -0.211393
30.174475 1.449384 0.210904
30.208536 1.451020 0.633508
30.224569 1.319633 -0.633718
30.250443 1.320763 -0.211393
30.185974 1.186010 0.210904
30.220049 1.187349 0.633508
30.194967 1.054431 -0.632880
30.180868 1.053939 -0.210834
30.195173 0.922546 0.210904
30.229259 0.923587 0.633508
30.203018 0.790894 -0.632880
30.188915 0.790525 -0.210834
30.202074 0.659012 0.210904
30.206182 0.659101 0.632880
30.208771 0.527296 -0.632880
30.194664 0.527050 -0.210834
30.166679 0.394903 0.210625
30.170795 0.394957 0.632042
30.212221 0.263658 -0.632880
30.198114 0.263535 -0.210834
30.158978 0.131594 0.210555
30.173094 0.131656 0.632042
30.133390 0.000000 -0.631205
30.159266 0.000000 -0.210555
30.158978 -0.131594 0.210555
30.173094 -0.131656 0.632042
30.172232 -0.263309 -0.632042
30.158117 -0.263186 -0.210555
30.116686 -0.394249 0.210276
30.170795 -0.394957 0.632042
30.118805 -0.525726 -0.630995
30.154671 -0.526352 -0.210555
30.112099 -0.657048 0.210276
30.116224 -0.657138 0.630995
30.163042 -0.789847 -0.632042
30.148930 -0.789478 -0.210555
30.105219 -0.919798 0.210276
30.159307 -0.921450 0.632042
30.075066 -1.050244 -0.630367
30.100918 -1.051147 -0.210276
30.146006 -1.184440 0.210625
30.110159 -1.183031 0.631205
30.144663 -1.316144 -0.632042
30.160530 -1.316837 -0.210764
30.124533 -1.446985 0.210555
30.138634 -1.447662 0.632042
30.132029 -1.579153 -0.632042
30.117933 -1.578414 -0.210555
30.110760 -1.709813 0.210555
30.164780 -1.712880 0.632880
30.117102 -1.842041 -0.632042
30.142937 -1.843621 -0.210834
30.144583 -1.975780 0.210904
30.098801 -1.972780 0.631833
30.099880 -2.104789 -0.632042
30.125700 -2.106594 -0.210834
30.126194 -2.238763 0.210904
30.130291 -2.239067 0.632880
30.120235 -2.370514 -0.632880
30.106171 -2.369407 -0.210834
30.055683 -2.497435 0.210555
30.109604 -2.501915 0.632880
30.098402 -2.633269 -0.632880
30.084347 -2.632039 -0.210834
30.082533 -2.764197 0.210904
30.116493 -2.767317 0.633508
30.104132 -2.898698 -0.633508
30.100048 -2.898305 -0.211113
30.136862 -3.034622 0.211462
30.130987 -3.034031 0.634346
30.077690 -3.161293 -0.633508
30.073608 -3.160864 -0.211113
30.139053 -3.300763 0.211672
30.103363 -3.296854 0.634346
30.058891 -3.424778 -0.633718
30.084623 -3.427710 -0.211393
30.079311 -3.560121 0.211462
30.073446 -3.559427 0.634346
30.067553 -3.691831 -0.634555
30.053566 -3.690114 -0.211393
30.037178 -3.821212 0.211393
30.041241 -3.821728 0.634346
30.034191 -3.954076 -0.634555
30.049961 -3.956152 -0.211602
30.052231 -4.089929 0.211742
30.056278 -4.090480 0.635393
29.998543 -4.216020 -0.634555
30.024197 -4.219625 -0.211672
30.045084 -4.356330 0.211951
30.049122 -4.356915 0.636021
30.039713 -4.489465 -0.636231
30.015900 -4.485906 -0.211881
30.005924 -4.618353 0.211951
30.009956 -4.618974 0.636021
30.038889 -4.757693 -0.637068
30.064501 -4.761749 -0.212510
30.003958 -4.886455 0.212230
30.047447 -4.893538 0.637697
29.956785 -5.013047 -0.636231
29.942902 -5.010723 -0.211951
30.009451 -5.156567 0.212579
30.043015 -5.162334 0.638534
29.990665 -5.288164 -0.637906
30.016209 -5.292667 -0.212789
30.002670 -5.425366 0.212859
30.036173 -5.431425 0.639372
29.972868 -5.555142 -0.638534
30.037704 -5.567160 -0.213278
29.993479 -5.694440 0.213138
29.997456 -5.695195 0.639582
29.972319 -5.826029 -0.639582
29.987980 -5.829073 -0.213278
30.021107 -5.971569 0.213696
29.985836 -5.964554 0.640419
29.949728 -6.093341 -0.640210
30.024160 -6.108485 -0.213906
29.967852 -6.233322 0.213696
30.010950 -6.242287 0.642095
29.944311 -6.364860 -0.641257
29.930588 -6.361943 -0.213627
29.990492 -6.511574 0.214255
29.994415 -6.512426 0.642932
29.965714 -6.643239 -0.642932
29.991083 -6.648863 -0.214464
29.971539 -6.781867 0.214534
29.965696 -6.780545 0.643561
29.984533 -6.922475 -0.644608
30.009867 -6.928324 -0.215023
29.940416 -7.050032 0.214744
29.992970 -7.062407 0.645445
29.874374 -7.172203 -0.643561
29.899647 -7.178270 -0.214674
29.965172 -7.332431 0.215372
29.930197 -7.323873 0.645445
29.936760 -7.464072 -0.646283
29.952299 -7.467947 -0.215512
29.938812 -7.603490 0.215651
29.981428 -7.614313 0.647958
29.909201 -7.735045 -0.647121
29.934395 -7.741561 -0.215861
29.910002 -7.874646 0.215930
29.913839 -7.875657 0.647958
29.908161 -8.013868 -0.648587
29.942970 -8.023195 -0.216419
29.878735 -8.145878 0.216210
29.921139 -8.157439 0.649634
29.914164 -8.295932 -0.650262
29.939268 -8.302894 -0.216908
29.883507 -8.428020 0.216768
29.925793 -8.439946 0.651309
29.917513 -8.578709 -0.651938
29.952185 -8.588651 -0.217536
29.924025 -8.722057 0.217606
29.927790 -8.723155 0.652985
29.889442 -8.853656 -0.652985
29.914446 -8.861063 -0.217815
29.885075 -8.994387 0.217885
29.879248 -8.992633 0.653613
29.887531 -9.137535 -0.654660
29.912483 -9.145164 -0.218374
29.881845 -9.278560 0.218444
29.885569 -9.279716 0.655498
29.797119 -9.394996 -0.654451
29.822002 -9.402842 -0.218304
29.837833 -9.551166 0.218723
29.879625 -9.564544 0.657173
29.875643 -9.707185 -0.658011
29.852936 -9.699807 -0.219142
29.829323 -9.836235 0.219281
29.861486 -9.846842 0.658639
29.827719 -9.980215 -0.658849
29.805086 -9.972642 -0.219421
29.808634 -10.118668 0.219770
29.859627 -10.135977 0.660524
29.777304 -10.253148 -0.659686
29.839840 -10.274680 -0.220329
29.794724 -10.404783 0.220329
29.845549 -10.422532 0.662199
29.837484 -10.566008 -0.663037
29.862154 -10.574743 -0.221166
29.787495 -10.694803 0.220957
29.828737 -10.709611 0.663875
29.819302 -10.853338 -0.664712
29.759340 -10.831514 -0.221097
29.796230 -10.992410 0.221725
29.809181 -10.997188 0.665550
29.798372 -11.141155 -0.666388
29.813549 -11.146830 -0.222214
29.773979 -11.280352 0.222283
29.824270 -11.299405 0.668063
29.774685 -11.429430 -0.668063
29.761818 -11.424492 -0.222563
29.748966 -11.568740 0.222842
29.789757 -11.584602 0.669529
29.748228 -11.718139 -0.669739
29.772636 -11.727754 -0.223400
29.767620 -11.876077 0.223749
29.771103 -11.877466 0.671414
29.783884 -12.033470 -0.672880
29.771149 -12.028324 -0.224168
29.764658 -12.177043 0.224517
29.768108 -12.178454 0.673718
29.714685 -12.308226 -0.673718
29.738958 -12.318279 -0.224727
29.731035 -12.467257 0.225076
29.734459 -12.468694 0.675393
29.679771 -12.598315 -0.675393
29.667149 -12.592957 -0.225006
29.694609 -12.757811 0.225634
29.707191 -12.763217 0.677278
29.715399 -12.920623 -0.678744
29.748703 -12.935104 -0.226472
29.728592 -13.080894 0.226751
29.741098 -13.086397 0.680629
29.711117 -13.228241 -0.681257
29.698639 -13.222686 -0.226961
29.722719 -13.389109 0.227589
29.762503 -13.407029 0.683770
29.703720 -13.536765 -0.683770
29.691313 -13.531111 -0.227799
29.677395 -13.681467 0.228148
29.680689 -13.682985 0.684608
29.729437 -13.863064 -0.687121
29.717108 -13.857315 -0.228916
29.665405 -13.991114 0.228985
29.677708 -13.996916 0.687330
29.679520 -14.156404 -0.688796
29.667255 -14.150555 -0.229474
29.686291 -14.318967 0.230102
29.689508 -14.320518 0.690472
29.662685 -14.467458 -0.691309
29.695431 -14.483430 -0.230661
29.703701 -14.648245 0.231219
29.706877 -14.649811 0.693822
29.642673 -14.779291 -0.693822
29.666351 -14.791097 -0.231429
29.646179 -14.942904 0.231778
29.649326 -14.944491 0.695498
29.655102 -15.110029 -0.697173
29.643064 -15.103896 -0.232267
29.621328 -15.255987 0.232616
29.624443 -15.257590 0.698011
29.584192 -15.400556 -0.698639
29.572220 -15.394323 -0.232755
29.664062 -15.607018 0.234012
29.631737 -15.590011 0.701362
29.669361 -15.775478 -0.703875
29.622169 -15.750387 -0.234221
29.632442 -15.922086 0.234850
29.635473 -15.923714 0.704712
29.565710 -16.052872 -0.704712
29.553900 -16.046457 -0.234780
29.597574 -16.237785 0.235687
29.600569 -16.239428 0.707226
29.599384 -16.407206 -0.708901
29.587664 -16.400709 -0.236176
29.594343 -16.573629 0.236804
29.597298 -16.575283 0.710576
29.594305 -16.743652 -0.712252
29.582668 -16.737068 -0.237293
29.587494 -16.910646 0.237921
29.625126 -16.932156 0.714765
29.576941 -17.076254 -0.715393
29.608686 -17.094584 -0.238689
29.542454 -17.228651 0.238759
29.545332 -17.230328 0.716440
29.538784 -17.399673 -0.718116
29.561775 -17.413218 -0.239527
29.528484 -17.567602 0.239876
29.531321 -17.569290 0.719791
29.557217 -17.759768 -0.722304
29.545837 -17.752930 -0.240644
29.510839 -17.907616 0.240993
29.547821 -17.930058 0.723979
29.537502 -18.100605 -0.725655
29.517683 -18.088459 -0.241691
29.523510 -18.269703 0.242389
29.526257 -18.271402 0.727330
29.514080 -18.442444 -0.729006
29.502874 -18.435442 -0.242878
29.532095 -18.633366 0.243786
29.534794 -18.635067 0.731519
29.512226 -18.801361 -0.732985
29.509548 -18.799656 -0.244274
29.502930 -18.976921 0.244903
29.505587 -18.978630 0.734870
29.481190 -19.145309 -0.736335
29.512098 -19.165380 -0.245671
29.470005 -19.321383 0.246020
29.472622 -19.323097 0.738220
29.446388 -19.490139 -0.739686
29.468807 -19.504978 -0.246718
29.466564 -19.688929 0.247416
29.502384 -19.712864 0.743246
29.449245 -19.863766 -0.744084
29.471567 -19.878822 -0.248184
29.458941 -20.057878 0.248812
29.461462 -20.059595 0.746597
29.472528 -20.255907 -0.749110
29.461794 -20.248529 -0.249580
29.447109 -20.428186 0.250208
29.449583 -20.429903 0.750786
29.450247 -20.621284 -0.753089
29.439608 -20.613834 -0.250906
29.431044 -20.799807 0.251605
29.433472 -20.801521 0.754974
29.399403 -20.970390 -0.756440
29.429560 -20.991899 -0.252373
29.402609 -21.166849 0.252931
29.413105 -21.174406 0.759163
29.377052 -21.343678 -0.760629
29.398962 -21.359596 -0.253699
29.410318 -21.564537 0.254607
29.420710 -21.572157 0.764189
29.350414 -21.718164 -0.764817
29.340061 -21.710503 -0.254816
29.381262 -21.940029 0.256003
29.383545 -21.941732 0.768168
29.351402 -22.117868 -0.769843
29.341154 -22.110146 -0.256492
29.387678 -22.346909 0.257748
29.381948 -22.342552 0.773194
29.347635 -22.519234 -0.774870
29.369225 -22.535799 -0.258446
29.381308 -22.749439 0.259424
29.375580 -22.745005 0.778220
29.339085 -22.922205 -0.779896
29.360565 -22.938988 -0.260122
29.307314 -23.104023 0.260541
29.301600 -23.099520 0.781571
29.325720 -23.326731 -0.784922
29.347090 -23.343731 -0.261797
29.315144 -23.527889 0.262426
29.317225 -23.529560 0.787435
29.245359 -23.682425 -0.788273
29.266603 -23.699629 -0.262914
29.356510 -23.985275 0.264660
29.327560 -23.961622 0.793299
29.315304 -24.165670 -0.795812
29.305588 -24.157661 -0.265148
29.299849 -24.368427 0.266056
29.271076 -24.344498 0.797487
29.256479 -24.549101 -0.800000
29.277506 -24.566744 -0.266824
29.299780 -24.804094 0.268011
29.309330 -24.812180 0.804398
29.223595 -24.959309 -0.805027
29.214085 -24.951185 -0.268220
29.264023 -25.215494 0.269686
29.265892 -25.217106 0.809215
29.246128 -25.423271 -0.811728
29.236736 -25.415108 -0.270454
29.253374 -25.654520 0.271641
29.225121 -25.629744 0.814241
29.232819 -25.863012 -0.817592
29.223539 -25.854805 -0.272409
29.237276 -26.095266 0.273596
29.231577 -26.090179 0.820733
29.214046 -26.304445 -0.823456
29.234606 -26.322956 -0.274643
29.245306 -26.564566 0.275830
29.187799 -26.512331 0.825969
29.189779 -26.747505 -0.829320
29.210217 -26.766232 -0.276598
29.217981 -27.008823 0.277784
29.219625 -27.010345 0.833508
29.159988 -27.192129 -0.835184
29.180302 -27.211071 -0.278552
29.185114 -27.454613 0.279739
29.179424 -27.449261 0.839163
29.146402 -27.658903 -0.841676
29.137579 -27.650530 -0.280437
29.117783 -27.874212 0.281415
29.119328 -27.875692 0.844398
29.112490 -28.113604 -0.847749
29.132551 -28.132978 -0.282741
29.131290 -28.378447 0.283928
29.161419 -28.407795 0.852775
29.122761 -28.618856 -0.855288
29.142704 -28.638454 -0.285254
29.109789 -28.856861 0.286162
29.104115 -28.851234 0.858430
29.034506 -29.034506 -0.860105
29.026026 -29.026026 -0.286581
29.110300 -29.365450 0.288675
29.132778 -29.388126 0.866807
29.039310 -29.550615 -0.867854
29.080017 -29.592039 -0.289652
29.020397 -29.790272 0.290351
29.077528 -29.848917 0.872880
29.023407 -30.054617 -0.875184
29.015173 -30.046091 -0.291607
29.008266 -30.302429 0.292864
29.023352 -30.318188 0.879163
28.980253 -30.538816 -0.881885
28.999672 -30.559277 -0.294120
28.989386 -30.816626 0.295377
29.011135 -30.839745 0.886912
28.985392 -31.083027 -0.890262
29.004683 -31.103714 -0.296913
29.011236 -31.384180 0.298379
29.005581 -31.378061 0.895079
28.956200 -31.600147 -0.897802
28.975357 -31.621054 -0.299426
28.958132 -31.880419 0.300683
28.952488 -31.874203 0.901990
28.920172 -32.119106 -0.905341
28.939194 -32.140232 -0.301940
28.938513 -32.422863 0.303406
28.932871 -32.416542 0.910158
28.850775 -32.609867 -0.912042
28.843147 -32.601250 -0.303894
28.898422 -32.952335 0.305989
28.919157 -32.975979 0.918744
28.866825 -33.207485 -0.921676
28.892136 -33.236599 -0.307455
28.890442 -33.529011 0.308991
28.858706 -33.492176 0.926074
28.841286 -33.768806 -0.310038
28.861654 -34.092762 0.311853
28.843109 -34.070854 0.935079
28.857180 -34.696987 0.315064
28.832375 -34.667160 0.944503
28.825352 -35.280468 0.318066
28.788105 -35.234879 0.953090
28.760483 -35.834820 0.320789
28.779907 -35.859020 0.963142
0.186955 -0.259697 0.002234
0.157713 -0.219077 0.005654
0.176695 -0.254704 0.002164
0.136769 -0.197152 0.005026
0.129417 -0.190074 0.004817
0.155556 -0.232806 0.001955
0.138862 -0.207822 0.005236
0.126080 -0.192304 0.004817
0.151469 -0.235485 0.001955
0.140623 -0.218622 0.005445
0.128064 -0.202970 0.001676
0.117369 -0.186019 0.004607
0.147336 -0.238093 0.001955
0.157830 -0.255050 0.006283
0.114127 -0.188076 0.001536
0.140038 -0.230776 0.005654
0.117595 -0.197659 0.001606
0.102236 -0.171844 0.004188
0.115843 -0.198639 0.004817