# This PCD file was generated using the MATLAB® pcwrite function
# from Computer Vision System Toolbox®.
# .PCD v.7 - Point Cloud Data file format
VERSION .7
FIELDS x y z
SIZE 4 4 4
TYPE F F F
COUNT 1 1 1
WIDTH 749
HEIGHT 1
VIEWPOINT 0 0 0 1 0 0 0
POINTS 749
DATA ascii
30.314997 32.508854 -0.931100
30.336016 31.967489 -0.923142
30.336023 31.413872 -0.914765
30.258625 30.791399 -0.904294
30.306578 30.840199 -0.301870
30.307020 30.307020 -0.897802
30.249290 30.249290 -0.298658
30.277971 29.754080 -0.889215
30.305273 29.780909 -0.296634
30.270372 29.231758 -0.881466
30.218729 29.181887 -0.293283
30.248730 28.704973 -0.873508
30.225613 28.683037 -0.290909
30.205595 28.167173 -0.865131
30.226112 28.186306 -0.288535
30.243855 27.713387 -0.859267
30.235006 27.705278 -0.286301
30.217072 27.207573 -0.851728
30.208101 27.199497 -0.283788
30.213736 26.730856 -0.845027
30.204649 26.722815 -0.281554
30.204399 26.256283 -0.838325
30.225382 26.274525 -0.279599
30.189098 25.783926 -0.831623
30.210194 25.801943 -0.277365
30.198507 25.339558 -0.825760
30.189075 25.331642 -0.275131
30.171619 24.871563 -0.819058
30.223799 24.914577 -0.273456
30.138880 24.405985 -0.812356
30.191385 24.448502 -0.271222
30.131630 23.967781 -0.806493
30.153158 23.984905 -0.268988
30.150558 23.556198 -0.801466
30.140676 23.548477 -0.267033
30.109087 23.103516 -0.794974
30.099092 23.095846 -0.264869
30.109940 22.689466 -0.789739
30.131784 22.705927 -0.263403
30.113911 22.283121 -0.784712
30.103706 22.275570 -0.261448
30.113096 21.878445 -0.779686
30.102789 21.870956 -0.259773
30.148226 21.504520 -0.775707
30.129681 21.491293 -0.258376
30.097235 21.074310 -0.769634
30.119486 21.089891 -0.256701
30.082249 20.674957 -0.764608
30.071632 20.667660 -0.254746
30.029444 20.255116 -0.758744
30.051880 20.270248 -0.253071
30.105013 19.926073 -0.756231
30.102545 19.924440 -0.252023
30.122293 19.749041 0.251465
30.158226 19.772600 0.755393
30.076515 19.531918 -0.751205
30.073994 19.530279 -0.250348
30.133694 19.382643 0.250139
30.127819 19.378864 0.750367
30.085608 19.166645 -0.747226
30.108341 19.181129 -0.249231
30.132547 19.012222 0.248742
30.135130 19.013851 0.746388
30.005840 18.749729 -0.741152
30.071053 18.790480 -0.247555
30.093231 18.622257 0.247067
30.129873 18.644932 0.742199
30.006351 18.387917 -0.737173
30.054832 18.417625 -0.246089
30.083616 18.255186 0.245671
30.086298 18.256813 0.737173
30.062834 18.063574 -0.734660
30.085838 18.077396 -0.245042
30.104273 17.910160 0.244554
30.141365 17.932228 0.734660
30.047033 17.699055 -0.730472
30.070126 17.712658 -0.243646
30.052105 17.525869 0.242878
30.089428 17.547636 0.729634
30.061808 17.356194 -0.727121
30.084990 17.369577 -0.242529
30.064993 17.183559 0.241761
30.067812 17.185169 0.725445
30.072895 17.014425 -0.723770
30.096167 17.027592 -0.241412
30.074205 16.842363 0.240644
30.111958 16.863506 0.722932
30.010365 16.635017 -0.718744
30.024963 16.643108 -0.239667
30.044693 16.483084 0.239248
30.047602 16.484678 0.717906
29.978664 16.277086 -0.714555
30.037237 16.308889 -0.238619
30.055260 16.149273 0.238201
30.093435 16.169786 0.715603
29.969496 15.935064 -0.710995
30.037146 15.971033 -0.237502
30.018049 15.793260 0.236804
30.056437 15.813457 0.711414
29.974390 15.603681 -0.707854
29.962496 15.597488 -0.235827
30.039158 15.471183 0.235897
30.077742 15.491055 0.708691
29.931253 15.250735 -0.703665
29.954910 15.262789 -0.234710
30.039080 15.140943 0.234850
30.077862 15.160491 0.705550
30.027411 14.971114 -0.702828
30.015368 14.965110 -0.234151
30.026567 14.807465 0.233733
30.056581 14.822266 0.701990
30.013138 14.638385 -0.699477
30.036964 14.650006 -0.233314
30.046560 14.492741 0.232895
30.040703 14.489915 0.698639
29.995356 14.307051 -0.696126
30.019255 14.318450 -0.232197
30.027180 14.161737 0.231778
30.030367 14.163241 0.695498
30.019392 13.998272 -0.693822
30.034307 14.005228 -0.231359
30.004320 13.832181 0.230661
30.080185 13.867155 0.693822
29.985746 13.665292 -0.690262
30.009792 13.676250 -0.230242
30.014475 13.520535 0.229823
30.017738 13.522006 0.689634
29.957720 13.338036 -0.686911
29.981831 13.348771 -0.229125
29.984873 13.193660 0.228706
30.015633 13.207194 0.686911
29.962950 13.028261 -0.684398
30.023815 13.054727 -0.228566
29.988615 12.884126 0.227868
30.028698 12.901346 0.684608
30.001877 12.735042 -0.682723
29.989317 12.729710 -0.227449
30.026133 12.591002 0.227310
30.029499 12.592414 0.682095
29.964079 12.411528 -0.679372
29.988400 12.421601 -0.226612
29.986782 12.267917 0.226193
30.027203 12.284452 0.679582
29.960011 12.104630 -0.676859
29.947309 12.099498 -0.225495
29.944090 11.946481 0.225076
29.984682 11.962675 0.676231
29.990084 11.813408 -0.675184
30.014540 11.823042 -0.225215
30.009922 11.670220 0.224797
30.013390 11.671569 0.674555
29.942692 11.493922 -0.671833
29.976538 11.506914 -0.224168
29.998407 11.365379 0.223959
30.001907 11.366706 0.672042
29.901384 11.179669 -0.668691
30.000879 11.216869 -0.223610
29.983864 11.061631 0.223121
29.987398 11.062936 0.669529
29.913252 10.887533 -0.666807
29.937878 10.896496 -0.222423
29.966314 10.759007 0.222283
30.016930 10.777179 0.668063
29.931728 10.599380 -0.665131
29.965843 10.611462 -0.221934
29.983536 10.470719 0.221725
29.949375 10.458790 0.664503
29.956913 10.314992 -0.663665
29.981663 10.323515 -0.221376
29.922262 10.157240 0.220608
29.963766 10.171328 0.662828
29.922531 10.011939 -0.660943
29.956814 10.023410 -0.220538
30.009762 9.895735 0.220608
30.022900 9.900068 0.662199
29.904167 9.716453 -0.658639
29.938530 9.727618 -0.219770
29.866404 9.560311 0.218932
29.984365 9.598071 0.659477
29.959215 9.446104 -0.658011
29.984131 9.453960 -0.219491
29.948696 9.299317 0.218932
30.000145 9.315293 0.658011
29.964018 9.160919 -0.656335
29.979424 9.165629 -0.218863
29.952103 9.014560 0.218374
29.994131 9.027209 0.656126
29.966131 8.876372 -0.654660
29.952799 8.872423 -0.218095
29.952826 8.730453 0.217815
29.956585 8.731548 0.653613
29.965567 8.592488 -0.652985
29.990635 8.599676 -0.217815
29.950876 8.447021 0.217257
29.993151 8.458943 0.652775
29.914164 8.295932 -0.650262
29.939268 8.302894 -0.216908
29.946268 8.164289 0.216698
29.950077 8.165328 0.650262
29.908161 8.013868 -0.648587
29.942970 8.023195 -0.216419
29.910002 7.874646 0.215930
29.942844 7.883293 0.648587
29.947918 7.745059 -0.647958
29.973120 7.751576 -0.216140
29.929121 7.601028 0.215581
30.010498 7.621696 0.648587
29.927057 7.461654 -0.646074
29.952299 7.467947 -0.215512
29.965172 7.332431 0.215372
29.959332 7.331002 0.646074
29.922981 7.183872 -0.644608
29.977434 7.196945 -0.215232
29.940416 7.050032 0.214744
29.944311 7.050949 0.644398
29.896858 6.902234 -0.642723
29.922176 6.908079 -0.214395
29.932526 6.773039 0.214255
29.965696 6.780545 0.643561
29.877867 6.623764 -0.641047
29.942268 6.638041 -0.214115
29.941631 6.500966 0.213906
29.994415 6.512426 0.642932
29.885635 6.352388 -0.640000
29.920807 6.359864 -0.213557
29.918901 6.223140 0.213347
29.962009 6.232107 0.641047
29.871351 6.077395 -0.638534
29.906572 6.084561 -0.213068
29.893606 5.946208 0.212789
29.936808 5.954801 0.639372
29.844736 5.801229 -0.636859
29.880003 5.808084 -0.212510
29.865765 5.670193 0.212230
29.909054 5.678411 0.637697
29.854902 5.533279 -0.636021
29.880388 5.538002 -0.212160
29.914108 5.409352 0.212230
29.927954 5.411856 0.637068
29.862669 5.265594 -0.635184
29.888187 5.270094 -0.211881
29.881332 5.134552 0.211672
29.885359 5.135244 0.635184
29.877899 4.999846 -0.634555
29.933039 5.009073 -0.211881
29.885521 4.867166 0.211393
29.889563 4.867825 0.634346
29.831520 4.724849 -0.632671
29.906475 4.736720 -0.211393
29.887323 4.600099 0.211113
29.930904 4.606807 0.634346
29.881504 4.465821 -0.632880
29.867552 4.463736 -0.210834
29.847158 4.327632 0.210555
29.890812 4.333961 0.632671
29.879736 4.199323 -0.632042
29.905367 4.202925 -0.210834
29.844154 4.061611 0.210276
29.897774 4.068909 0.632042
29.796297 3.922757 -0.629529
29.851677 3.930048 -0.210206
29.888380 3.802282 0.210345
29.892471 3.802803 0.631205
29.829393 3.662589 -0.629529
29.884836 3.669396 -0.210206
29.880701 3.536614 0.210066
29.884806 3.537100 0.630367
29.810553 3.396483 -0.628482
29.875978 3.403938 -0.209927
29.860725 3.270281 0.209717
29.914534 3.276174 0.630367
29.799284 3.132031 -0.627644
29.874710 3.139959 -0.209717
29.818480 3.002563 0.209228
29.902195 3.010993 0.629529
29.755819 2.865160 -0.626178
29.821342 2.871469 -0.209159
29.843546 2.742237 0.209228
29.887508 2.746276 0.628691
29.859367 2.612356 -0.627854
29.845266 2.611122 -0.209159
29.816513 2.477561 0.208879
29.830627 2.478734 0.627016
29.711588 2.338353 -0.624294
29.787165 2.344301 -0.208600
29.807081 2.215049 0.208670
29.851122 2.218322 0.627016
29.820623 2.085261 -0.626178
29.836414 2.086365 -0.208809
29.825277 1.954852 0.208670
29.869345 1.957740 0.627016
29.757853 1.820068 -0.624503
29.823542 1.824086 -0.208600
29.801266 1.692238 0.208391
29.805437 1.692475 0.625341
29.852474 1.564502 -0.626178
29.878267 1.565854 -0.208879
29.854851 1.434031 0.208670
29.849030 1.433752 0.625969
29.815048 1.301753 -0.625131
29.850834 1.303316 -0.208600
29.826260 1.171877 0.208391
29.830435 1.172041 0.625341
29.795298 1.040475 -0.624503
29.861071 1.042772 -0.208600
29.795370 0.910331 0.208111
29.839527 0.911680 0.625341
29.763266 0.779379 -0.623665
29.789062 0.780054 -0.208042
29.762190 0.649413 0.207832
29.846348 0.651250 0.625341
29.728949 0.518921 -0.622828
29.754742 0.519371 -0.207762
29.806719 0.390191 0.208111
29.850893 0.390770 0.625341
29.812325 0.260168 -0.624503
29.828136 0.260306 -0.208251
29.808990 0.130067 0.208111
29.813177 0.130085 0.624503
29.763472 0.000000 -0.623456
29.799274 0.000000 -0.208042
29.808990 -0.130067 0.208111
29.853167 -0.130260 0.625341
29.772335 -0.259819 -0.623665
29.798140 -0.260044 -0.208042
29.806719 -0.390191 0.208111
29.810905 -0.390246 0.624503
29.758938 -0.519444 -0.623456
29.794735 -0.520069 -0.208042
29.802179 -0.650286 0.208111
29.806366 -0.650377 0.624503
29.763266 -0.779379 -0.623665
29.789062 -0.780054 -0.208042
29.795370 -0.910331 0.208111
29.799555 -0.910459 0.624503
29.795298 -1.040475 -0.624503
29.811102 -1.041027 -0.208251
29.746323 -1.168736 0.207832
29.780485 -1.170078 0.624294
29.735144 -1.298264 -0.623456
29.810873 -1.301571 -0.208321
29.764957 -1.429713 0.208042
29.819071 -1.432313 0.625341
29.772602 -1.560316 -0.624503
29.838324 -1.563760 -0.208600
29.761330 -1.689971 0.208111
29.805437 -1.692475 0.625341
29.757853 -1.820068 -0.624503
29.783617 -1.821644 -0.208321
29.745449 -1.949620 0.208111
29.789534 -1.952509 0.625341
29.740835 -2.079682 -0.624503
29.806488 -2.084273 -0.208600
29.757221 -2.211344 0.208321
29.771360 -2.212394 0.625341
29.751455 -2.341490 -0.625131
29.777195 -2.343516 -0.208530
29.736790 -2.470937 0.208321
29.740955 -2.471283 0.625131
29.779690 -2.605385 -0.626178
29.755611 -2.603279 -0.208530
29.763884 -2.734917 0.208670
29.768038 -2.735298 0.626178
29.745867 -2.864201 -0.625969
29.771574 -2.866677 -0.208809
29.728935 -2.993546 0.208600
29.782824 -2.998973 0.627016
29.719740 -3.123671 -0.625969
29.745424 -3.126370 -0.208809
29.701679 -3.252863 0.208600
29.755520 -3.258759 0.627016
29.731083 -3.387429 -0.626807
29.766687 -3.391486 -0.209159
29.711884 -3.516633 0.208879
29.765663 -3.522998 0.627854
29.750008 -3.652842 -0.627854
29.735958 -3.651117 -0.209159
29.680065 -3.775781 0.208879
29.733786 -3.782615 0.627854
29.707087 -3.911012 -0.627644
29.693050 -3.909164 -0.209089
29.645985 -4.034642 0.208879
29.699644 -4.041944 0.627854
29.671825 -4.170103 -0.627644
29.746927 -4.180658 -0.209717
29.698715 -4.306108 0.209508
29.742395 -4.312442 0.629529
29.683744 -4.436265 -0.628691
29.709312 -4.440086 -0.209717
29.660006 -4.565112 0.209508
29.693750 -4.570305 0.629320
29.683399 -4.701389 -0.629529
29.699064 -4.703870 -0.209927
29.737476 -4.843055 0.210345
29.741547 -4.843719 0.631205
29.670826 -4.965193 -0.630157
29.745649 -4.977715 -0.210555
29.684225 -5.100683 0.210276
29.737558 -5.109847 0.632042
29.705133 -5.237816 -0.631833
29.701078 -5.237102 -0.210555
29.677944 -5.366647 0.210555
29.721350 -5.374496 0.632671
29.707447 -5.505950 -0.632880
29.732904 -5.510668 -0.211113
29.708576 -5.640349 0.211113
29.712606 -5.641115 0.633508
29.658268 -5.764983 -0.632880
29.673866 -5.768015 -0.211043
29.658224 -5.899387 0.211113
29.701471 -5.907990 0.634346
29.685207 -6.039524 -0.634555
29.671396 -6.036714 -0.211393
29.644775 -6.166122 0.211393
29.697725 -6.177135 0.635393
29.660709 -6.304579 -0.635184
29.656712 -6.303729 -0.211672
29.628925 -6.433070 0.211672
29.681770 -6.444544 0.636231
29.692411 -6.582649 -0.637068
29.668913 -6.577440 -0.212160
29.649685 -6.709039 0.212230
29.692659 -6.718763 0.637697
29.633837 -6.841510 -0.637068
29.610384 -6.836096 -0.212160
29.638676 -6.978982 0.212579
29.671825 -6.986787 0.638534
29.611893 -7.109186 -0.637906
29.627390 -7.112907 -0.212719
29.615498 -7.246866 0.212859
29.648569 -7.254959 0.639372
29.626333 -7.386674 -0.639582
29.641811 -7.390534 -0.213278
29.657743 -7.532107 0.213627
29.710102 -7.545405 0.642095
29.589783 -7.652438 -0.640210
29.614914 -7.658937 -0.213557
29.629566 -7.800814 0.213906
29.643126 -7.804384 0.642095
29.647419 -7.944002 -0.642932
29.672518 -7.950727 -0.214464
29.637545 -8.080122 0.214464
29.641413 -8.081177 0.643561
29.654039 -8.223793 -0.644608
29.630915 -8.217380 -0.214674
29.642899 -8.360162 0.215023
29.608253 -8.350390 0.644398
29.581146 -8.482257 -0.644608
29.634975 -8.497693 -0.215232
29.607216 -8.629717 0.215302
29.659035 -8.644820 0.647121
29.573101 -8.759952 -0.646074
29.598043 -8.767340 -0.215512
29.569082 -8.899283 0.215581
29.620760 -8.914837 0.647958
29.581579 -9.043997 -0.647958
29.606474 -9.051607 -0.216140
29.614447 -9.195530 0.216489
29.656414 -9.208561 0.650472
29.577812 -9.325849 -0.649634
29.593115 -9.330673 -0.216629
29.609264 -9.478000 0.217047
29.651100 -9.491392 0.652147
29.561863 -9.605231 -0.651100
29.634199 -9.628735 -0.217536
29.601400 -9.761078 0.217606
29.595629 -9.759175 0.652775
29.600172 -9.904078 -0.653822
29.624908 -9.912356 -0.218095
29.581377 -10.041524 0.218095
29.632412 -10.058848 0.655498
29.550428 -10.175029 -0.654660
29.603466 -10.193291 -0.218583
29.605909 -10.338846 0.218932
29.609577 -10.340127 0.656964
29.488783 -10.442526 -0.655288
29.522812 -10.454576 -0.218653
29.561619 -10.613706 0.219281
29.593494 -10.625150 0.658639
29.518667 -10.743917 -0.658011
29.543217 -10.752851 -0.219491
29.617979 -10.926649 0.220398
29.612206 -10.924519 0.661152
29.526796 -11.039617 -0.660315
29.551287 -11.048774 -0.220259
29.596308 -11.213038 0.220957
29.637285 -11.228562 0.663875
29.550674 -11.343441 -0.663037
29.575108 -11.352820 -0.221166
29.562569 -11.496254 0.221446
29.612715 -11.515755 0.665550
29.450560 -11.600884 -0.663037
29.512127 -11.625135 -0.221446
29.544712 -11.787145 0.222074
29.585382 -11.803370 0.667225
29.487249 -11.913622 -0.666178
29.557901 -11.942167 -0.222563
29.514767 -12.074810 0.222632
29.583040 -12.102741 0.669529
29.493004 -12.216402 -0.668691
29.554186 -12.241745 -0.223331
29.555820 -12.393785 0.223749
29.596159 -12.410700 0.672252
29.504913 -12.524093 -0.671414
29.565895 -12.549978 -0.224238
29.547606 -12.694654 0.224517
29.587774 -12.711911 0.674555
29.495352 -12.824944 -0.673718
29.528614 -12.839407 -0.224797
29.508923 -12.984237 0.225076
29.548925 -13.001839 0.676231
29.418846 -13.098114 -0.674555
29.479393 -13.125072 -0.225285
29.467432 -13.274110 0.225634
29.580189 -13.324903 0.679582
29.448986 -13.420676 -0.677906
29.472927 -13.431587 -0.226123
29.568420 -13.631228 0.227310
29.571735 -13.632757 0.682095
29.511971 -13.761658 -0.682095
29.535851 -13.772794 -0.227519
29.565918 -13.944192 0.228217
29.560154 -13.941474 0.684608
29.462946 -14.053104 -0.683770
29.486742 -14.064455 -0.228078
29.542183 -14.249457 0.228985
29.509407 -14.233648 0.686283
29.482965 -14.379803 -0.687121
29.470739 -14.373839 -0.228916
29.524332 -14.559789 0.229823
29.563410 -14.579060 0.690472
29.427937 -14.672228 -0.688796
29.523165 -14.719707 -0.230312
29.503305 -14.870890 0.230661
29.542192 -14.890491 0.692985
29.441307 -15.001096 -0.692147
29.464869 -15.013100 -0.230870
29.514650 -15.201043 0.231778
29.517784 -15.202658 0.695498
29.424564 -15.317459 -0.694870
29.465782 -15.338915 -0.231917
29.451672 -15.495274 0.232336
29.490170 -15.515529 0.698011
29.351568 -15.606506 -0.696335
29.419096 -15.642411 -0.232616
29.456268 -15.827424 0.233453
29.494560 -15.848000 0.701362
29.389986 -15.957460 -0.700524
29.448444 -15.989201 -0.233942
29.457300 -16.160830 0.234570
29.495384 -16.181723 0.704712
29.389521 -16.290878 -0.703875
29.438982 -16.318295 -0.234989
29.419847 -16.475906 0.235408
29.457727 -16.497120 0.707226
29.385466 -16.625496 -0.707226
29.417305 -16.643511 -0.235967
29.448586 -16.831253 0.236804
29.486246 -16.852777 0.711414
29.308531 -16.921288 -0.708901
29.366205 -16.954586 -0.236735
29.438797 -17.168200 0.237921
29.476240 -17.190035 0.714765
29.366497 -17.298187 -0.713927
29.398071 -17.316788 -0.238201
29.390984 -17.485798 0.238759
29.428215 -17.507948 0.717278
29.351542 -17.636185 -0.717278
29.374407 -17.649925 -0.239248
29.399702 -17.840178 0.240086
29.411066 -17.847073 0.720629
29.324389 -17.970009 -0.720419
29.389790 -18.010086 -0.240644
29.387457 -18.185511 0.241272
29.424236 -18.208269 0.724817
29.378422 -18.357676 -0.725655
29.392632 -18.366554 -0.241970
29.362955 -18.526644 0.242389
29.433329 -18.571047 0.729006
29.276129 -18.650951 -0.727121
29.340874 -18.692198 -0.242878
29.402008 -18.912006 0.244065
29.438318 -18.935362 0.733194
29.313492 -19.036406 -0.732147
29.335981 -19.051008 -0.244204
29.369654 -19.255589 0.245182
29.405733 -19.279243 0.736545
29.321333 -19.407366 -0.736545
29.343727 -19.422190 -0.245671
29.366791 -19.622263 0.246578
29.435883 -19.668427 0.741571
29.208878 -19.701635 -0.738011
29.305763 -19.766987 -0.246788
29.318424 -19.962204 0.247625
29.362293 -19.992073 0.744084
29.299500 -20.136988 -0.744712
29.329937 -20.157907 -0.248463
29.340298 -20.354088 0.249301
29.383865 -20.384312 0.749110
29.220936 -20.460718 -0.747226
29.283972 -20.504858 -0.249580
29.365715 -20.753635 0.251046
29.400812 -20.778440 0.754137
29.236616 -20.854275 -0.752252
29.291162 -20.893183 -0.251186
29.313337 -21.102583 0.252163
29.340078 -21.121834 0.757278
29.255728 -21.255529 -0.757487
29.277611 -21.271429 -0.252652
29.345804 -21.517233 0.254048
29.348146 -21.518951 0.762304
29.221825 -21.623013 -0.761466
29.275753 -21.662918 -0.254258
29.293125 -21.874214 0.255235
29.327469 -21.899860 0.766702
29.223650 -22.021599 -0.766493
29.277264 -22.062000 -0.255933
29.284201 -22.268223 0.256841
29.350115 -22.318346 0.772356
29.188999 -22.397507 -0.770681
29.242292 -22.438400 -0.257329
29.318054 -22.700464 0.258865
29.280718 -22.671555 0.775707
29.213030 -22.823721 -0.776545
29.234486 -22.840485 -0.259005
29.268049 -23.073069 0.260192
29.270195 -23.074760 0.780733
29.169233 -23.202255 -0.780733
29.221876 -23.244129 -0.260680
29.229359 -23.459040 0.261658
29.262646 -23.485756 0.785969
29.183201 -23.632090 -0.786597
29.235519 -23.674456 -0.262635
29.232611 -23.884045 0.263543
29.296591 -23.936319 0.792461
29.191870 -24.063921 -0.792461
29.212996 -24.081335 -0.264311
29.207590 -24.291697 0.265218
29.271076 -24.344498 0.797487
29.133940 -24.446278 -0.796650
29.185581 -24.489611 -0.265986
29.208195 -24.726562 0.267173
29.271177 -24.779881 0.803351
29.132366 -24.881392 -0.802514
29.183670 -24.925209 -0.267941
29.180693 -25.143692 0.268918
29.235596 -25.191000 0.808377
29.125401 -25.318325 -0.808377
29.176361 -25.362623 -0.269896
29.193228 -25.601774 0.271082
29.225121 -25.629744 0.814241
29.113012 -25.757017 -0.814241
29.163626 -25.801796 -0.271850
29.207434 -26.068632 0.273316
29.239035 -26.096836 0.820943
29.124887 -26.224167 -0.820943
29.145430 -26.242662 -0.273805
29.156481 -26.483883 0.274992
29.217402 -26.539219 0.826807
29.101326 -26.666452 -0.826807
29.151236 -26.712185 -0.276039
29.188608 -26.981672 0.277505
29.219625 -27.010345 0.833508
29.094181 -27.130764 -0.833299
29.151049 -27.183792 -0.278273
29.185114 -27.454613 0.279739
29.215834 -27.483513 0.840210
29.088385 -27.603848 -0.840000
29.115818 -27.629879 -0.280228
29.117783 -27.874212 0.281415
29.177103 -27.931000 0.846074
29.026188 -28.030264 -0.845236
29.067814 -28.070461 -0.282113
29.102638 -28.350536 0.283649
29.154257 -28.400820 0.852566
28.980141 -28.478704 -0.851100
29.021454 -28.519302 -0.284067
29.109789 -28.856861 0.286162
29.139616 -28.886427 0.859477
29.006227 -29.006227 -0.859267
29.026026 -29.026026 -0.286581
29.053980 -29.308636 0.288117
29.083509 -29.338425 0.865341
28.976242 -29.486437 -0.865969
29.002918 -29.513584 -0.288885
29.048309 -29.818924 0.290630
29.105433 -29.877563 0.873718
28.967846 -29.997084 -0.873508
29.015173 -30.046091 -0.291607
29.035925 -30.331324 0.293143
29.085573 -30.383186 0.881048
28.952726 -30.509808 -0.881048
28.972137 -30.530264 -0.293841
29.044199 -30.874893 0.295936
29.065939 -30.898003 0.888587
28.876297 -30.966036 -0.886912
28.922846 -31.015955 -0.296075
29.018024 -31.391521 0.298449
29.066660 -31.444136 0.896964
28.929182 -31.570663 -0.896964
28.955091 -31.598936 -0.299217
29.011921 -31.939634 0.301241
29.039875 -31.970409 0.904713
28.866653 -32.059666 -0.903665
28.912430 -32.110504 -0.301660
28.965147 -32.452705 0.303685
28.992786 -32.483673 0.912042
28.903772 -32.669773 -0.913718
28.922661 -32.691120 -0.304732
28.970949 -33.035034 0.306757
28.991669 -33.058662 0.921048
28.866825 -33.207485 -0.921676
28.924938 -33.274334 -0.307804
28.949190 -33.597187 0.309619
28.963125 -33.613361 0.929425
28.880251 -33.814430 -0.310457
28.932726 -34.176716 0.312621
28.933546 -34.177685 0.938011
28.940304 -34.796932 0.315972
28.966627 -34.828583 0.948901
24.398092 -29.861774 0.807749
24.109985 -30.040419 0.268918
23.104027 -28.787020 0.773194
22.759092 -28.869770 0.770053
22.749439 -29.381308 0.259424
22.598104 -29.185856 0.773194
22.952188 -30.183661 0.264729
22.370811 -29.958151 0.261029
22.510017 -30.144567 0.788063
22.622955 -30.853819 0.267103
0.105142 -0.146051 0.003770
23.020229 -31.977116 0.825341
0.176695 -0.254704 0.002164
0.159564 -0.230011 0.005864
0.123790 -0.181810 0.004607
0.155556 -0.232806 0.001955
0.166635 -0.249386 0.006283
0.148007 -0.225748 0.005654
0.173108 -0.269126 0.002234
0.162257 -0.252256 0.006283
0.128064 -0.202970 0.001676
0.117369 -0.186019 0.004607
0.147336 -0.238093 0.001955
0.136786 -0.221043 0.005445
0.124503 -0.205174 0.001676
0.140038 -0.230776 0.005654
0.158497 -0.266409 0.002164
0.148242 -0.249173 0.006073
0.115843 -0.198639 0.004817