# This PCD file was generated using the MATLAB® pcwrite function
# from Computer Vision System Toolbox®.
# .PCD v.7 - Point Cloud Data file format
VERSION .7
FIELDS x y z
SIZE 4 4 4
TYPE F F F
COUNT 1 1 1
WIDTH 897
HEIGHT 1
VIEWPOINT 0 0 0 1 0 0 0
POINTS 897
DATA ascii
27.403503 29.386660 -0.841676
27.538424 29.531343 -0.281903
27.913538 29.414732 -0.849425
28.070415 29.580046 -0.284696
28.474747 29.486464 -0.858639
28.626173 29.643270 -0.287698
29.635416 29.635416 -0.877906
29.789682 29.789682 -0.294120
30.178139 29.655975 -0.886283
30.340935 29.815954 -0.296983
30.838526 29.780418 -0.898011
28.039183 27.077124 -0.272130
28.181866 26.743591 -0.813822
28.151093 26.714390 -0.270943
28.238686 26.333000 -0.808796
28.178371 26.276756 -0.268988
28.327354 25.957237 -0.804817
28.259151 25.894741 -0.267592
28.374477 25.548494 -0.799791
28.305696 25.486565 -0.265916
28.416636 25.140915 -0.794765
28.347282 25.079557 -0.264241
28.514219 24.787033 -0.791414
28.414124 24.700020 -0.262844
28.546982 24.381426 -0.786388
28.476509 24.321238 -0.261448
28.605484 24.002851 -0.782199
28.534460 23.943254 -0.260052
28.690424 23.650560 -0.778849
28.618858 23.591566 -0.258935
28.740324 23.273457 -0.774660
28.668217 23.215063 -0.257539
28.754541 22.872395 -0.769634
28.713194 22.839506 -0.256142
28.826990 22.522112 -0.766283
28.753811 22.464939 -0.254746
28.863796 22.147970 -0.762095
28.790091 22.091413 -0.253350
28.896280 21.774910 -0.757906
28.822054 21.718975 -0.251954
28.988758 21.450552 -0.755393
28.914026 21.395254 -0.251116
29.013075 21.079233 -0.751205
29.067272 21.118610 -0.250837
28.989946 20.678328 -0.248603
29.013659 20.315582 -0.247276
29.082705 19.987989 -0.246369
28.578947 19.276743 -0.722095
29.131670 19.649559 -0.245321
29.125671 19.461151 0.244554
29.003613 19.379595 0.730681
29.079559 19.247339 -0.730472
29.168615 19.306286 -0.244204
29.127136 19.096588 0.243157
29.021126 19.027084 0.726911
29.279953 19.014624 -0.731309
29.201797 18.963869 -0.243087
29.191753 18.776766 0.242320
29.118793 18.729837 0.725236
28.871389 18.393105 -0.717068
29.197500 18.600859 -0.241691
29.185356 18.414589 0.240923
29.078201 18.346979 0.720210
28.810354 18.002707 -0.711623
29.214544 18.255274 -0.240504
29.208887 18.075008 0.239806
29.177689 18.055700 0.718744
28.872589 17.693146 -0.709320
29.202213 17.895140 -0.239108
29.262920 17.757175 0.238969
29.205933 17.722595 0.715603
28.888773 17.358126 -0.705969
29.057262 17.459366 -0.236665
29.313639 17.439783 0.238131
29.247778 17.400600 0.712880
29.090836 17.135811 -0.707226
29.415302 17.326937 -0.238340
29.335138 17.107748 0.237084
29.303511 17.089302 0.710576
29.542307 17.056259 -0.714555
29.461466 17.009586 -0.237502
29.370451 16.786594 0.236176
29.312643 16.753555 0.707226
29.507288 16.694420 -0.710157
29.469526 16.673056 -0.236385
29.384949 16.456362 0.235129
29.318159 16.418959 0.703875
29.625616 16.421747 -0.709529
29.508949 16.357079 -0.235548
29.457300 16.160830 0.234570
29.390202 16.124016 0.702199
29.627214 16.086266 -0.706178
29.580263 16.060772 -0.234989
29.491503 15.846356 0.233733
29.424105 15.810142 0.699686
29.660532 15.770785 -0.703665
29.613340 15.745692 -0.234151
29.513618 15.527865 0.232825
29.454777 15.496908 0.697173
29.646269 15.432871 -0.700105
29.607700 15.412793 -0.233034
29.550209 15.219358 0.232057
29.482231 15.184347 0.694660
29.681826 15.123646 -0.697801
29.634155 15.099356 -0.232197
29.610460 14.924901 0.231499
29.542192 14.890491 0.692985
29.776884 14.846207 -0.696964
29.693199 14.804482 -0.231638
30.609520 15.094945 0.238270
30.576653 15.078736 0.714137
29.860376 14.563878 -0.695917
32.628056 15.913765 -0.760419
30.036964 14.650006 -0.233314
32.823158 16.008924 -0.254956
30.668028 14.792500 0.237712
30.734089 14.824365 0.714765
33.532715 15.994284 -0.778220
33.810020 16.126553 -0.261518
30.886391 14.566967 0.238410
33.970509 16.021532 0.262216
26.910683 12.691901 0.623246
30.898455 14.572658 0.715603
34.151249 15.924989 -0.789320
34.067280 15.885834 -0.262426
27.343525 12.605537 0.210206
34.027294 15.686798 0.261588
27.202002 12.540295 0.627435
33.920788 15.637697 0.782409
34.207039 15.589046 -0.787435
34.159115 15.567205 -0.262076
34.089951 15.356403 0.261029
27.684141 12.470796 0.636021
33.964802 15.300028 0.780315
34.350910 15.294010 -0.787644
34.266254 15.256320 -0.261867
34.121979 15.014030 0.260261
27.297752 12.011299 0.624712
34.051270 14.982918 0.779267
34.409718 14.961770 -0.785969
34.324722 14.924814 -0.261309
34.214951 14.699903 0.259982
27.383160 11.764733 0.624294
34.162350 14.677304 0.778849
34.465347 14.629671 -0.784294
34.380020 14.593452 -0.260750
34.231266 14.354362 0.259144
27.309603 11.451866 0.620314
34.160053 14.324499 0.775917
34.517807 14.297744 -0.782618
34.404434 14.250784 -0.259982
34.327461 14.043735 0.258935
28.287567 11.572749 0.640210
34.293007 14.029640 0.776126
34.557835 13.962271 -0.780733
34.444042 13.916296 -0.259354
34.439419 13.739935 0.258865
27.561022 10.995732 0.621571
34.330559 13.696504 0.774241
34.613243 13.634520 -0.779267
34.573475 13.618854 -0.259424
34.641888 13.471494 0.259493
28.503868 11.084548 0.640629
34.560589 13.439878 0.776754
34.730907 13.331946 -0.779267
34.719009 13.327379 -0.259633
34.636562 13.122621 0.258586
34.536320 13.084641 0.773613
34.817833 13.017855 -0.778639
34.796524 13.009887 -0.259354
34.721615 12.809480 0.258376
28.561661 10.536953 0.637697
34.667946 12.789680 0.774032
34.920715 12.710100 -0.778430
34.833557 12.678378 -0.258795
34.794430 12.492476 0.258097
26.761175 9.608244 0.595602
28.737211 10.317713 0.639582
34.674728 12.449500 0.771728
34.992603 12.391530 -0.777592
34.905163 12.360567 -0.258516
26.953085 9.412438 0.199315
34.902119 12.188366 0.258097
26.910074 9.397419 0.597068
34.725418 12.126658 0.770472
34.995422 12.049890 -0.775288
35.021156 12.058750 -0.258586
34.969276 11.870470 0.257818
27.246672 9.248999 0.602723
35.250942 11.794800 -0.778639
35.153500 11.762197 -0.258795
35.024052 11.549200 0.257469
27.582708 9.095413 0.608377
34.979244 11.534425 0.771519
35.228916 11.446568 -0.775917
35.150192 11.420990 -0.258027
35.094929 11.233975 0.257259
34.973827 11.195210 0.769215
35.251183 11.114655 -0.774241
35.248520 11.113815 -0.258027
35.143879 10.912464 0.256910
27.584475 8.565207 0.605026
29.150364 9.051429 0.639372
35.394638 10.821227 -0.775288
35.305912 10.794101 -0.257748
27.357147 8.233566 0.199455
35.228191 10.602483 0.256841
27.629448 8.315520 0.604398
35.449379 10.500584 -0.774451
35.312469 10.460031 -0.257120
35.213772 10.263878 0.256073
27.844938 8.116059 0.607540
30.724457 8.955362 0.670367
35.453167 10.166032 -0.772566
35.325508 10.129426 -0.256561
35.263500 9.945335 0.255793
30.070129 8.480654 0.654451
35.218136 9.932542 0.766493
35.588703 9.869620 -0.773613
35.460735 9.834132 -0.256910
35.348946 9.637229 0.255793
30.316616 8.265258 0.658220
35.235950 9.606423 0.765027
35.586559 9.535390 -0.771728
35.458275 9.501016 -0.256282
35.393021 9.318204 0.255514
35.318439 9.298570 0.765027
35.668415 9.224480 -0.771728
35.539833 9.191226 -0.256282
35.434219 8.999146 0.255235
28.227505 7.168873 0.610053
35.359478 8.980164 0.764189
35.679649 8.895936 -0.770262
35.589581 8.873479 -0.256073
35.511402 8.689585 0.255235
28.269566 6.917519 0.609634
35.755920 8.584237 -0.770262
35.655937 8.560233 -0.256003
35.546944 8.370194 0.254956
28.601343 6.734722 0.615498
35.471893 8.352522 0.763351
35.780762 8.260640 -0.769215
35.690304 8.239757 -0.255724
35.618633 8.059674 0.254956
35.504425 8.033832 0.762514
35.851486 7.948083 -0.769215
35.760853 7.927990 -0.255724
35.687611 7.748540 0.254956
35.582951 7.725816 0.762723
35.880363 7.626607 -0.768377
35.828674 7.615620 -0.255724
35.675549 7.420525 0.254397
35.560921 7.396682 0.760838
35.945553 7.313205 -0.768377
35.893768 7.302670 -0.255724
35.817406 7.124525 0.254956
35.712364 7.103631 0.762723
36.017818 7.001154 -0.768587
35.916862 6.981531 -0.255444
35.838917 6.804231 0.254676
35.723885 6.782392 0.761676
36.028389 6.677467 -0.767540
35.976421 6.667835 -0.255444
35.818207 6.476987 0.254118
35.742359 6.463271 0.760838
36.085289 6.362810 -0.767540
36.033237 6.353632 -0.255444
35.952209 6.177719 0.254676
35.836811 6.157891 0.761676
36.099998 6.041068 -0.766702
36.057724 6.033993 -0.255235
35.925793 5.850887 0.254118
35.849712 5.838497 0.760838
36.190838 5.732066 -0.767540
36.138638 5.723798 -0.255444
35.975483 5.537156 0.254118
35.899300 5.525431 0.760838
36.239483 5.416027 -0.767540
36.197098 5.409693 -0.255514
36.101604 5.234483 0.254676
35.985725 5.217682 0.761676
36.285366 5.099576 -0.767540
36.233025 5.092220 -0.255444
36.145908 4.919242 0.254676
36.029888 4.903453 0.761676
36.328484 4.782736 -0.767540
36.285999 4.777142 -0.255514
36.187458 4.603626 0.254676
36.071308 4.588850 0.761676
36.368839 4.465532 -0.767540
36.326305 4.460310 -0.255514
36.226254 4.287660 0.254676
36.109978 4.273898 0.761676
36.456089 4.153647 -0.768587
36.353909 4.142004 -0.255444
36.311993 3.976810 0.255025
36.195591 3.964062 0.762723
36.490948 3.835353 -0.768587
36.398613 3.825649 -0.255514
36.265720 3.651766 0.254467
36.179070 3.643041 0.761676
36.513077 3.515809 -0.768377
36.470428 3.511703 -0.255793
36.415699 3.346133 0.255305
36.328953 3.338162 0.764189
36.542366 3.197043 -0.768377
36.499683 3.193309 -0.255793
36.443512 3.028222 0.255305
36.366665 3.021837 0.764398
36.489140 2.871758 -0.766702
36.486286 2.871533 -0.255514
36.468552 2.710081 0.255305
36.391647 2.704367 0.764398
36.642464 2.562291 -0.769424
36.589756 2.558605 -0.256073
36.530724 2.394350 0.255584
36.403885 2.386037 0.764189
36.733284 2.246704 -0.770890
36.610691 2.239206 -0.256073
36.550228 2.075472 0.255584
36.463249 2.070533 0.765027
36.751492 1.926064 -0.770890
36.628838 1.919636 -0.256073
36.566948 1.756436 0.255584
36.489914 1.752736 0.765236
36.766899 1.605278 -0.770890
36.704136 1.602537 -0.256492
36.660820 1.440408 0.256142
33.896404 1.331793 0.710576
36.593731 1.437772 0.767121
36.859444 1.287160 -0.772566
36.766693 1.283921 -0.256841
33.863373 1.034620 0.236525
33.626930 1.027396 0.704712
31.912058 0.835647 -0.668691
34.170788 0.894794 -0.716021
31.808321 0.832930 -0.222144
34.017509 0.890780 -0.237572
31.751669 0.692824 0.221725
33.661167 0.734489 0.235059
33.514668 0.731293 0.702199
31.838165 0.555737 -0.667016
34.017353 0.593775 -0.712671
31.744390 0.554100 -0.221655
33.844021 0.590750 -0.236316
31.466537 0.411920 0.219700
33.546307 0.439145 0.234221
30.240774 0.395873 0.633508
33.549767 0.439190 0.702828
31.761824 0.277181 -0.665341
31.778015 0.277323 -0.221864
33.687897 0.293990 -0.235199
31.508932 0.137485 0.219980
33.478867 0.146080 0.233733
30.253075 0.132005 0.633718
33.642300 0.146793 0.704712
32.022976 0.000000 -0.670786
33.742599 0.000000 -0.706807
31.829224 0.000000 -0.222214
33.569183 0.000000 -0.234361
31.638927 -0.138052 0.220887
33.548862 -0.146385 0.234221
30.413038 -0.132703 0.637068
33.752274 -0.147273 0.707016
32.371666 -0.282503 -0.678116
31.738018 -0.276973 -0.221585
33.457912 -0.291983 -0.233593
31.596523 -0.413621 0.220608
33.626301 -0.440192 0.234780
30.570675 -0.400192 0.640419
32.557896 -0.568300 -0.682095
31.744390 -0.554100 -0.221655
33.564068 -0.585863 -0.234361
31.951616 -0.697187 0.223121
33.471218 -0.730345 0.233733
31.965378 -0.697487 0.669739
33.724571 -0.735873 0.706597
32.921490 -0.862080 -0.689843
31.988255 -0.837642 -0.223400
31.644463 -0.966826 0.221027
33.703453 -1.029734 0.235408
31.878128 -0.973965 0.668063
33.726860 -1.030449 0.706807
32.972664 -1.151431 -0.691100
31.410088 -1.096864 -0.219421
33.618687 -1.173990 -0.234850
31.265114 -1.228410 0.218444
33.723160 -1.324986 0.235618
31.848434 -1.251328 0.667644
33.716583 -1.324728 0.706807
31.163467 -1.360626 -0.653404
33.141151 -1.446974 -0.694870
31.449272 -1.373105 -0.219770
33.677094 -1.470374 -0.235338
31.293158 -1.503118 0.218723
33.650383 -1.616344 0.235199
32.036030 -1.538801 0.671833
33.783630 -1.622744 0.708482
30.940742 -1.621536 -0.649006
33.117275 -1.735603 -0.694660
30.747053 -1.611385 -0.214953
32.147427 -1.825463 0.224797
33.615028 -1.908800 0.235059
31.901600 -1.811504 0.669320
33.798126 -1.919197 0.709110
30.775726 -1.882324 -0.645864
33.849308 -2.070312 -0.710367
30.492275 -1.864987 -0.213278
32.298855 -1.975483 -0.225914
33.806004 -2.067664 -0.236455
30.354128 -1.989515 0.212370
32.269970 -2.115086 0.225774
33.866505 -2.219728 0.236944
32.104057 -2.104211 0.673927
30.438978 -2.128501 -0.639163
34.059341 -2.381661 -0.715184
30.165602 -2.109384 -0.211113
29.188801 -2.169103 0.204341
34.214821 -2.542600 0.239527
29.372547 -2.182757 0.616964
34.168270 -2.539141 0.717697
30.199970 -2.376789 -0.634555
34.386105 -2.706245 -0.722513
29.508034 -2.322333 -0.206645
28.600733 -2.376538 0.200362
28.704756 -2.385181 0.603351
30.018723 -2.626298 -0.631205
32.658062 -2.857210 -0.686702
29.646032 -2.593692 -0.207762
28.887596 -2.654397 0.202526
28.643024 -2.631924 0.602513
30.903006 -2.839587 0.650053
37.234936 -3.421410 0.783247
28.820353 -2.775084 -0.606492
28.935463 -2.786168 -0.202945
28.296215 -2.849279 0.198547
28.390173 -2.858740 0.597697
29.613716 -2.981945 0.623456
37.342926 -3.760235 0.786178
28.347601 -2.979453 -0.597068
28.392908 -2.984215 -0.199315
28.071466 -3.074326 0.197151
29.482992 -3.228913 0.207064
27.986486 -3.065019 0.589739
32.309685 -3.538486 0.680838
37.368320 -4.092497 0.787435
27.774176 -3.164468 -0.585550
27.988237 -3.188857 -0.196662
27.993917 -3.313298 0.196802
32.452686 -3.841028 0.228148
37.537071 -4.442805 0.263892
27.660820 -3.273874 0.583456
27.894354 -3.424996 -0.588691
28.167774 -3.458568 -0.198128
28.023457 -3.565034 0.197221
30.374451 -3.864118 0.213766
27.710539 -3.525226 0.585131
27.774193 -3.656542 -0.586807
31.411997 -4.135468 -0.663665
28.275318 -3.722516 -0.199106
37.654160 -4.957264 -0.265148
28.585785 -3.890355 0.201409
32.321259 -4.398730 0.227729
37.632168 -5.121513 0.265148
27.559843 -3.750730 0.582618
27.909534 -3.922429 -0.590367
28.004099 -3.935719 -0.197430
31.172878 -4.381063 -0.219770
28.263754 -4.098050 0.199385
30.965437 -4.489775 0.218444
37.704800 -5.466936 0.265986
27.991098 -4.058516 0.592461
37.558929 -5.445786 0.794974
27.963234 -4.179133 -0.592252
30.880192 -4.615076 -0.654032
27.909348 -4.171080 -0.197011
30.411497 -4.545029 -0.214674
27.722864 -4.266957 0.195824
29.264671 -4.504264 0.206715
28.132481 -4.330003 0.596231
27.668959 -4.382332 -0.586807
27.733612 -4.392573 -0.196034
31.466984 -4.983881 -0.222423
27.911577 -4.545689 0.197430
31.050150 -5.056838 0.219630
37.722080 -6.143431 0.266824
27.560762 -4.488555 0.584922
29.475115 -4.800327 0.625550
37.675255 -6.135805 0.799582
27.728268 -4.640121 -0.588901
27.782988 -4.649278 -0.196662
27.969398 -4.806022 0.198128
27.481131 -4.722122 0.584084
30.111988 -5.174186 0.640000
27.755642 -4.894069 -0.590367
30.778339 -5.427052 -0.654660
27.790598 -4.900232 -0.197011
27.641029 -4.998312 0.196104
28.048847 -5.072058 0.597068
28.036280 -5.196218 -0.597278
30.985397 -5.742804 -0.660105
38.092770 -7.060078 -0.811519
27.943424 -5.179008 -0.198407
30.686638 -5.687432 -0.217885
38.001877 -7.043231 -0.269826
27.399874 -5.202029 0.194707
27.669558 -5.253230 0.589948
27.616930 -5.368187 -0.589320
27.661579 -5.376866 -0.196732
38.027309 -7.391760 -0.270454
27.392666 -5.448740 0.194987
27.250046 -5.420371 0.581990
27.667004 -5.628916 -0.591414
31.291931 -6.366415 -0.668901
27.819384 -5.659918 -0.198198
38.059349 -7.743262 -0.271152
27.549667 -5.730339 0.196453
28.131596 -5.851380 0.601885
31.626022 -6.578222 0.676650
32.673370 -6.796071 0.699058
27.616831 -5.870139 -0.591414
27.827621 -5.914944 -0.198617
28.309696 -6.146637 0.202247
29.599609 -6.426705 0.211462
33.352085 -7.241447 0.238270
27.932909 -6.064829 0.598744
27.896420 -6.184487 -0.598534
38.320976 -8.495556 -0.822199
27.804234 -6.164050 -0.198826
27.572256 -6.238965 0.197360
31.873411 -7.212216 0.228148
27.527876 -6.228922 0.591205
27.480951 -6.344478 -0.590786
27.476566 -6.343465 -0.196872
38.194374 -8.817866 -0.273665
27.341557 -6.438082 0.196104
27.423811 -6.457450 0.590157
27.502312 -6.602721 -0.592461
27.556292 -6.615680 -0.197849
30.113562 -7.229627 -0.216210
31.358166 -7.528430 -0.225146
27.634008 -6.761999 0.198617
27.958805 -6.841476 0.602932
28.695053 -7.154480 -0.619477
30.169579 -7.522121 -0.651309
38.444386 -9.585262 -0.829948
27.526619 -6.863157 -0.198058
27.341337 -6.943815 0.196941
29.706203 -7.544415 0.213976
27.423220 -6.964611 0.592671
27.886217 -7.211866 -0.603351
27.455997 -7.100604 -0.197989
27.908266 -7.347633 0.201479
27.525761 -7.246928 0.596231
27.233135 -7.297096 -0.590576
30.391020 -8.143249 -0.659058
27.228785 -7.295931 -0.196802
27.524712 -7.504097 0.199175
29.338467 -7.998584 0.212300
28.117382 -7.665679 0.610472
27.081711 -7.510423 -0.588691
29.509527 -8.183716 -0.641466
31.908442 -8.848994 -0.693613
27.404982 -7.600074 -0.198547
31.076324 -8.618228 -0.225146
29.113562 -8.210874 0.211183
28.357336 -7.997596 0.617173
29.965567 -8.592488 -0.652985
27.875910 -7.993289 -0.202457
29.538853 -8.470130 -0.214534
29.136803 -8.492603 0.211881
28.056103 -8.177608 0.612147
30.119509 -8.921805 -0.658011
29.751451 -8.812781 -0.216629
38.629906 -11.442699 -0.281275
28.467903 -8.567866 0.207553
28.203865 -8.488400 0.616964
32.004589 -9.632288 0.700105
38.514648 -11.591593 0.842514
29.916214 -9.146304 -0.655288
30.103741 -9.203637 -0.219770
38.719837 -11.837842 -0.282671
28.831350 -8.952372 0.210764
29.751896 -9.238209 0.652566
29.377575 -9.262713 -0.645236
32.953228 -10.390113 -0.723770
29.945982 -9.441932 -0.219212
32.034573 -10.100462 -0.234501
38.786724 -12.229407 -0.283928
30.056879 -9.621283 0.220329
29.660624 -9.494440 0.652356
29.904167 -9.716453 -0.658639
32.338337 -10.507363 -0.712252
29.367910 -9.542212 -0.215581
29.221531 -9.635816 0.214813
29.424721 -9.702818 0.649006
30.093191 -10.069041 -0.664712
30.231821 -10.115426 -0.222563
38.927738 -13.025039 -0.286581
29.268896 -9.935452 0.215791
30.897577 -10.488315 0.227799
29.443068 -9.994575 0.651309
38.720947 -13.143991 0.856545
29.805662 -10.262913 -0.660315
31.592300 -10.878101 -0.699896
30.114033 -10.369093 -0.222353
32.165756 -11.075559 -0.237502
38.888233 -13.390292 -0.287139
29.983536 -10.470719 0.221725
38.838875 -13.563143 0.287209
29.770037 -10.396162 0.660524
38.755795 -13.534129 0.859896
30.176762 -10.686152 -0.670576
29.174044 -10.331071 -0.216070
29.636911 -10.640738 0.219840
29.414709 -10.560960 0.654660
26.606258 -9.683887 -0.593089
26.874554 -9.781538 -0.199664
29.063984 -10.578425 -0.215930
29.533543 -10.895499 0.219770
29.377708 -10.838009 0.655917
39.189037 -14.457599 0.874974
26.764219 -10.006732 -0.598534
26.872471 -10.047205 -0.200292
39.217510 -14.662826 -0.292305
26.959291 -10.213962 0.201270
29.250317 -11.081954 0.218374
26.944687 -10.208428 0.603561
29.740128 -11.267527 0.666178
26.629208 -10.221995 -0.597487
26.438353 -10.148733 -0.197709
26.850492 -10.441586 0.201130
26.845259 -10.439549 0.603351
30.945192 -12.033927 0.695498
26.799452 -10.556584 -0.603351
26.683725 -10.510999 -0.200223
27.167017 -10.838541 0.204202
29.674742 -11.839022 0.223051
29.399662 -11.729276 0.663037
27.234688 -11.003528 -0.615288
29.811693 -12.044705 -0.673508
26.553898 -10.728472 -0.199943
27.136187 -11.101707 0.204691
29.755402 -12.173256 0.224448
32.217281 -13.180437 0.243018
29.740347 -12.167097 0.673089
39.077003 -15.986824 0.884398
27.285416 -11.301990 -0.618639
30.019499 -12.434484 -0.680629
28.251547 -11.702174 -0.213487
30.006876 -12.429255 -0.226751
29.961580 -12.563933 0.226821
29.854319 -12.518954 0.678116
27.029299 -11.473256 -0.615079
30.323982 -12.871767 -0.690053
29.777607 -12.639844 -0.225844
31.692209 -13.452545 -0.240365
30.062117 -12.915704 0.228427
31.348392 -13.468332 0.238201
29.743935 -12.779003 0.678116
27.478262 -11.947888 -0.627644
27.446939 -11.934269 -0.208949
29.693682 -12.911180 -0.226053
29.728592 -13.080894 0.226751
31.284584 -13.765547 0.238619
29.512321 -12.985732 0.675393
31.150370 -13.706491 0.712880
27.546488 -12.264486 -0.631623
29.707775 -13.226753 -0.227031
39.519012 -17.594999 -0.302009
30.050945 -13.536963 0.230102
39.359810 -17.730301 0.301381
29.853659 -13.448092 0.685864
32.086987 -14.454133 0.737173
39.260979 -17.685781 0.901990
28.066149 -12.790481 -0.646074
30.285967 -13.802111 -0.697173
39.620121 -18.055929 -0.912042
30.182680 -13.755039 -0.231568
39.518654 -18.009689 -0.303196
31.620775 -14.577376 0.243087
39.403374 -18.165203 0.302917
32.195694 -14.842419 0.742618
39.323055 -18.128176 0.907016
27.473225 -12.810975 -0.634974
30.037514 -14.006722 -0.694241
39.751003 -18.536198 -0.918744
30.179314 -14.072845 -0.232476
39.640938 -18.484873 -0.305360
39.505638 -18.632069 0.304941
39.362297 -18.564465 0.911624
27.576958 -13.153534 -0.640000
30.257048 -14.431871 -0.702199
39.768211 -18.968464 -0.922932
27.437923 -13.087218 -0.212230
30.651049 -14.619801 -0.237084
39.586426 -18.881756 -0.306198
39.485649 -19.045616 0.306058
39.378895 -18.994125 0.915812
30.345617 -14.800547 -0.707226
39.780888 -19.402435 -0.927121
30.468376 -14.860419 -0.236665
39.635853 -19.331696 -0.307874
30.519836 -15.050717 0.237572
39.560093 -19.508879 0.307943
39.462711 -19.460855 0.921676
30.134779 -15.024647 -0.705341
39.833740 -19.860371 -0.932357
30.462824 -15.188204 -0.237642
39.653576 -19.770544 -0.309340
39.575863 -19.947876 0.309409
39.434231 -19.876488 0.925027
39.917248 -20.338852 -0.938430
39.764652 -20.261103 -0.311574
39.720318 -20.457308 0.311923
39.579250 -20.384653 0.932566
39.986546 -20.815680 -0.944294
39.834686 -20.736626 -0.313528
39.752674 -20.914894 0.313598
39.612206 -20.840990 0.937592
40.015236 -21.276478 -0.949320
39.899429 -21.214903 -0.315483
39.815292 -21.393528 0.315553
39.710651 -21.337303 0.944294
40.074059 -21.758438 -0.955184
39.993992 -21.714966 -0.317717
39.907631 -21.894075 0.317787
39.768368 -21.817675 0.950158
40.153728 -22.257576 -0.961676
40.047859 -22.198891 -0.319672
39.959343 -22.378307 0.319742
39.855598 -22.320208 0.956859
40.245121 -22.769594 -0.968587
40.131123 -22.705097 -0.321906
39.970898 -22.845251 0.321417
39.867626 -22.786226 0.961885
40.278667 -23.254898 -0.974241
40.130638 -23.169436 -0.323512
40.080990 -23.374542 0.323930
39.909084 -23.274290 0.967749
40.349857 -23.767883 -0.980943
40.245716 -23.706539 -0.326095
40.116116 -23.866579 0.325885
40.048149 -23.826143 0.976126
40.415146 -24.283869 -0.987644
40.311596 -24.221651 -0.328329
40.214073 -24.402500 0.328398
40.078026 -24.319942 0.981990
40.474476 -24.802792 -0.994346
40.337421 -24.718805 -0.330283
40.263195 -24.915623 0.330563
40.136326 -24.837111 0.988692
40.527809 -25.324585 -1.001048
40.416988 -25.255337 -0.332727
40.323318 -25.442120 0.332866
40.222450 -25.378475 0.996231
40.608826 -25.870674 -1.008587
40.473370 -25.784380 -0.335031
40.394119 -25.982370 0.335310
40.302158 -25.923220 1.003770
40.750450 -26.463652 -1.017802
40.582279 -26.354441 -0.337823
40.500351 -26.553194 0.338102
40.341957 -26.449347 1.010472
40.751400 -26.972763 -1.023665
40.617588 -26.884195 -0.340057
40.566414 -27.105612 0.340616
40.433811 -27.017010 1.018639
40.846012 -27.550983 -1.032043
40.704754 -27.455702 -0.342780
40.625896 -27.661188 0.343129
40.502277 -27.577021 1.026388
40.966568 -28.155542 -1.041257
40.826218 -28.059082 -0.345852
40.719830 -28.248352 0.345991
40.580456 -28.151665 1.034556
40.981377 -28.695471 -1.047959
40.841927 -28.597824 -0.348086
40.757587 -28.804615 0.348435
40.659832 -28.735527 1.042933
41.120094 -29.330679 -1.058011
40.949013 -29.208647 -0.351157
40.894215 -29.439623 0.351786
40.732079 -29.322901 1.051309
41.178020 -29.917583 -1.066179
41.016163 -29.799986 -0.353950
40.934132 -30.014147 0.354369
40.764896 -29.890059 1.058849
41.244888 -30.519611 -1.074765
41.108238 -30.418495 -0.357022
40.983135 -30.603558 0.357091
40.854980 -30.507862 1.068063
41.224506 -31.064896 -1.081257
41.152683 -31.010773 -0.359744
41.096581 -31.250566 0.360442
40.913486 -31.111340 1.076650
41.340508 -31.721687 -1.091519
41.237503 -31.642649 -0.362886
41.201828 -31.901865 0.363793
41.011978 -31.754866 1.086493
41.400883 -32.345917 -1.100524
41.306519 -32.272186 -0.365958
41.204575 -32.483067 0.366307
41.086620 -32.390079 1.095917
41.437840 -32.961143 -1.109111
41.367661 -32.905323 -0.369029
41.325073 -33.166878 0.369937
41.137680 -33.016479 1.104922
41.257401 -33.409584 -1.112043
41.451954 -33.567131 -0.372380
41.374790 -33.804623 0.373009
41.219624 -33.677845 1.114974
40.632553 -33.494892 -1.103037
41.697163 -34.372486 -1.131938
41.527824 -34.232895 -0.375731
41.478004 -34.496895 0.376639
41.323872 -34.368702 1.125865
40.154903 -33.693962 -1.098011
41.747925 -35.030666 -1.141571
41.595200 -34.902515 -0.379082
41.511204 -35.141827 0.379711
41.419174 -35.063919 1.136755
39.540039 -33.770386 -1.089215
41.851170 -35.744274 -1.152880
41.676834 -35.595379 -0.382643
41.589306 -35.835636 0.383271
41.490307 -35.750336 1.147226
39.017475 -33.917374 -1.082933
41.764610 -36.305424 -0.386343
41.515007 -36.407684 1.156650
38.690056 -34.230068 -1.082095
41.888073 -37.059437 -0.390462
41.763275 -37.275146 0.390811
38.330433 -34.512878 -1.080419
41.949505 -37.771503 -0.394092
41.799099 -37.967628 0.394232
42.236725 -38.702827 -1.200001
38.079445 -34.893383 -0.360582
41.913197 -38.406368 -0.396885
41.789276 -38.629608 0.397304
28.933304 -26.745670 0.825341
42.255661 -39.404041 -1.210262
37.685738 -35.142521 -0.359744
28.764343 -27.058792 0.827226
33.751518 -32.028996 -0.974660
42.222034 -40.067215 -1.219268
37.435658 -35.525112 -0.360303
28.779890 -27.550751 0.834555
33.326897 -32.183411 -0.970472
36.372925 -35.432938 0.354508
41.901634 -40.818764 1.225341
29.728889 -29.214499 -0.873089
33.016254 -32.444981 -0.969634
42.266193 -41.534870 -0.413709
35.813774 -35.502598 0.352065
32.710655 -32.710655 -0.969006
29.259365 -29.259365 -0.288885
35.270279 -35.579422 0.349761
29.193476 -29.707497 -0.872461
32.360889 -32.930683 -0.967121
32.444298 -33.015560 -0.323163
31.995892 -33.132717 -0.964817
32.043808 -33.182335 -0.322046
34.222389 -35.749172 1.036650
31.595428 -33.294632 -0.961466
31.987057 -33.707325 -0.324419
36.512245 -38.813660 1.116231
31.882647 -34.189953 -0.326374
30.926167 -33.455738 0.954346
41.337051 -45.111477 -1.281676
31.664141 -34.555347 -0.327212
30.801090 -33.909355 0.959582
31.481829 -34.964111 -0.328468
34.857918 -39.054996 1.096545
31.732101 -35.866615 -0.334333
34.324608 -39.139713 1.090472
28.066608 -32.286942 -0.896126
33.857750 -39.293850 1.086493
27.204716 -31.852629 -0.292445
0.151872 -0.210963 0.005445
0.148196 -0.213623 0.001815
0.136769 -0.197152 0.005026
0.146297 -0.214866 0.005445
0.155556 -0.232806 0.001955
0.138862 -0.207822 0.005236
0.148007 -0.225748 0.005654
0.151469 -0.235485 0.001955
0.140623 -0.218622 0.005445
0.128064 -0.202970 0.001676
0.117369 -0.186019 0.004607
0.147336 -0.238093 0.001955
0.136786 -0.221043 0.005445
0.134878 -0.222272 0.001815
0.119292 -0.196587 0.004817
0.138046 -0.232034 0.001885
0.127795 -0.214804 0.005236
0.130953 -0.224548 0.005445