# This PCD file was generated using the MATLAB® pcwrite function
# from Computer Vision System Toolbox®.
# .PCD v.7 - Point Cloud Data file format
VERSION .7
FIELDS x y z
SIZE 4 4 4
TYPE F F F
COUNT 1 1 1
WIDTH 772
HEIGHT 1
VIEWPOINT 0 0 0 1 0 0 0
POINTS 772
DATA ascii
0.367312 0.422545 -0.011728
0.406747 0.467909 -0.004328
0.377611 0.426811 -0.011937
0.470449 0.531746 -0.004957
0.408080 0.453219 -0.012775
0.388086 0.431013 -0.004049
0.418774 0.457012 -0.012984
0.459390 0.501336 -0.004747
0.388654 0.416780 -0.011937
0.436468 0.468055 -0.004468
0.426686 0.449633 -0.012984
0.468070 0.493243 -0.004747
0.395868 0.409934 -0.011937
0.444571 0.460366 -0.004468
0.406438 0.413595 -0.012147
0.469598 0.477866 -0.004677
0.402962 0.402962 -0.011937
0.452537 0.452537 -0.004468
0.413595 0.406438 -0.012147
0.456469 0.448571 -0.004468
0.409934 0.395868 -0.011937
0.460366 0.444571 -0.004468
0.420625 0.399158 -0.012147
0.456975 0.433653 -0.004398
0.387532 0.361380 -0.011099
0.468055 0.436468 -0.004468
0.420156 0.385002 -0.011937
0.449728 0.412100 -0.004259
0.401210 0.361251 -0.011309
0.475601 0.428233 -0.004468
0.396859 0.351112 -0.011099
0.471831 0.417440 -0.004398
0.399908 0.347635 -0.011099
0.483002 0.419868 -0.004468
0.402927 0.344132 -0.011099
0.479044 0.409142 -0.004398
0.398256 0.334176 -0.010890
0.459615 0.385663 -0.004189
0.385728 0.317969 -0.010471
0.486112 0.400720 -0.004398
0.404027 0.327175 -0.010890
0.466276 0.377583 -0.004189
0.414691 0.329860 -0.011099
0.461728 0.367275 -0.004119
0.386041 0.301608 -0.010262
0.441275 0.344762 -0.003910
0.396590 0.304314 -0.010471
0.476000 0.365248 -0.004189
0.391246 0.294825 -0.010262
0.415280 0.312936 -0.003630
0.401840 0.297346 -0.010471
0.417995 0.309300 -0.003630
0.396331 0.287952 -0.010262
0.453038 0.329152 -0.003910
0.406968 0.290288 -0.010471
0.455894 0.325186 -0.003910
0.335779 0.235115 -0.008586
0.393183 0.275310 -0.003351
0.525841 0.364789 0.004468
0.427163 0.296333 0.010890
0.411973 0.283141 -0.010471
0.453258 0.311516 -0.003840
0.421468 0.286968 0.010681
0.372985 0.251582 -0.009424
0.397928 0.268406 -0.003351
0.457297 0.305556 0.003840
0.440582 0.294388 0.011099
0.383503 0.253835 -0.009634
0.458626 0.303558 -0.003840
0.476671 0.312520 0.003979
0.443134 0.290532 0.011099
0.402474 0.261369 -0.010052
0.461258 0.299544 -0.003840
0.470970 0.302938 0.003910
0.487696 0.313696 0.012147
0.354147 0.225616 -0.008796
0.404818 0.257898 -0.003351
0.439768 0.277473 0.003630
0.439682 0.277419 0.010890
0.381538 0.238411 -0.009424
0.440974 0.275551 -0.003630
0.476186 0.294673 0.003910
0.425083 0.263049 0.010471
0.392128 0.240297 -0.009634
0.468941 0.287367 -0.003840
0.487288 0.295694 0.003979
0.427362 0.259330 0.010471
0.385641 0.231716 -0.009424
0.437145 0.262663 -0.003560
0.481256 0.286317 0.003910
0.455386 0.270926 0.011099
0.396262 0.233416 -0.009634
0.482501 0.284215 -0.003910
0.414631 0.241806 0.003351
0.414550 0.241758 0.010052
0.424259 0.244946 -0.010262
0.450322 0.259994 -0.003630
0.451452 0.258026 0.003630
0.434004 0.248054 0.010471
0.391574 0.221542 -0.009424
0.452574 0.256054 -0.003630
0.453687 0.254077 0.003630
0.453598 0.254027 0.010890
0.332283 0.184187 -0.007958
0.349839 0.193919 -0.002793
0.455887 0.250108 0.003630
0.438267 0.240442 0.010471
0.395381 0.214674 -0.009424
0.465762 0.252888 -0.003700
0.458052 0.246120 0.003630
0.457963 0.246072 0.010890
0.406067 0.215910 -0.009634
0.388487 0.206562 -0.003072
0.460182 0.242114 0.003630
0.451245 0.237411 0.010681
0.399067 0.207741 -0.009424
0.434625 0.226251 -0.003421
0.426718 0.219774 0.003351
0.426635 0.219731 0.010052
0.409773 0.208790 -0.009634
0.392033 0.199751 -0.003072
0.464338 0.234045 0.003630
0.455319 0.229500 0.010681
0.402632 0.200745 -0.009424
0.438507 0.218632 -0.003421
0.466362 0.229985 0.003630
0.466272 0.229940 0.010890
0.377411 0.184076 -0.008796
0.359509 0.175344 -0.002793
0.477358 0.230250 0.003700
0.459255 0.221518 0.010681
0.406074 0.193687 -0.009424
0.442256 0.210945 -0.003421
0.470305 0.221810 0.003630
0.470214 0.221767 0.010890
0.380566 0.177461 -0.008796
0.362514 0.169043 -0.002793
0.472223 0.217698 0.003630
0.453972 0.209284 0.010471
0.409393 0.186571 -0.009424
0.445870 0.203195 -0.003421
0.446753 0.201247 0.003421
0.446665 0.201208 0.010262
0.420139 0.187058 -0.009634
0.411085 0.183027 -0.003142
0.475950 0.209423 0.003630
0.457555 0.201329 0.010471
0.412587 0.179398 -0.009424
0.476860 0.207344 -0.003630
0.477760 0.205262 0.003630
0.440923 0.189435 0.010052
0.340512 0.144539 -0.007749
0.368193 0.156289 -0.002793
0.479533 0.201085 0.003630
0.424119 0.177848 0.009634
0.378708 0.156866 -0.008586
0.452690 0.187510 -0.003421
0.444249 0.181747 0.003351
0.481176 0.196854 0.010890
0.389332 0.157300 -0.008796
0.445037 0.179807 -0.003351
0.492257 0.196391 0.003700
0.473589 0.188943 0.010681
0.418596 0.164889 -0.009424
0.455893 0.179581 -0.003421
0.484632 0.188463 0.003630
0.484538 0.188426 0.010890
0.354683 0.136150 -0.007958
0.373423 0.143344 -0.002793
0.458205 0.173598 0.003421
0.439417 0.166480 0.009843
0.318399 0.119044 -0.007120
0.384026 0.143582 -0.002862
0.450321 0.166132 0.003351
0.450233 0.166100 0.010052
0.347610 0.126520 -0.007749
0.375868 0.136805 -0.002793
0.451753 0.162196 0.003351
0.432846 0.155408 0.009634
0.386398 0.136831 -0.008586
0.461883 0.163561 -0.003421
0.415389 0.145060 0.003072
0.453063 0.158217 0.010052
0.340312 0.117179 -0.007539
0.453838 0.156269 -0.003351
0.426108 0.144644 0.003142
0.435492 0.147830 0.009634
0.398209 0.133239 -0.008796
0.483633 0.161821 -0.003560
0.455844 0.150315 0.003351
0.455756 0.150286 0.010052
0.342305 0.111222 -0.007539
0.485027 0.157595 -0.003560
0.428568 0.137186 0.003142
0.447528 0.143255 0.009843
0.352798 0.111237 -0.007749
0.448236 0.141328 -0.003281
0.496598 0.154198 0.003630
0.458309 0.142309 0.010052
0.344194 0.105231 -0.007539
0.449452 0.137411 -0.003281
0.469199 0.141213 0.003421
0.488254 0.146948 0.010681
0.402616 0.119260 -0.008796
0.527338 0.156205 -0.003840
0.460813 0.134315 0.003351
0.470321 0.137086 0.010262
0.345978 0.099208 -0.007539
0.422945 0.121277 -0.003072
0.471592 0.133003 0.003421
0.490745 0.138404 0.010681
0.404636 0.112216 -0.008796
0.472167 0.130944 -0.003421
0.463087 0.126252 0.003351
0.434059 0.118338 0.009424
0.405600 0.108680 -0.008796
0.424997 0.113878 -0.003072
0.473841 0.124752 0.003421
0.454412 0.119637 0.009843
0.406533 0.105137 -0.008796
0.493743 0.127691 -0.003560
0.503988 0.127997 0.003630
0.465129 0.118128 0.010052
0.397734 0.099166 -0.008586
0.465731 0.116120 -0.003351
0.475946 0.116463 0.003421
0.456431 0.111688 0.009843
0.408306 0.098026 -0.008796
0.505620 0.121389 -0.003630
0.467211 0.110014 0.003351
0.476851 0.112284 0.010262
0.350696 0.080965 -0.007539
0.428712 0.098976 -0.003072
0.477906 0.108139 0.003421
0.458310 0.103705 0.009843
0.409954 0.090885 -0.008796
0.458848 0.101724 -0.003281
0.469059 0.101843 0.003351
0.508049 0.110308 0.010890
0.352056 0.074832 -0.007539
0.430374 0.091479 -0.003072
0.479721 0.099782 0.003421
0.499204 0.103835 0.010681
0.411478 0.083716 -0.008796
0.499749 0.101675 -0.003560
0.470765 0.093641 0.003351
0.441257 0.087771 0.009424
0.353308 0.068676 -0.007539
0.431905 0.083954 -0.003072
0.481389 0.091395 0.003421
0.461650 0.087647 0.009843
0.412876 0.076522 -0.008796
0.481783 0.089293 -0.003421
0.472328 0.085411 0.003351
0.472236 0.085394 0.010052
0.374145 0.065972 -0.007958
0.433305 0.076403 -0.003072
0.482911 0.082979 0.003421
0.502523 0.086349 0.010681
0.414149 0.069305 -0.008796
0.473406 0.079221 -0.003351
0.473747 0.077155 0.003351
0.483522 0.078747 0.010262
0.355490 0.056304 -0.007539
0.434572 0.068829 -0.003072
0.484285 0.074539 0.003421
0.464428 0.071482 0.009843
0.415296 0.062066 -0.008796
0.474716 0.070947 -0.003351
0.514606 0.074614 0.003630
0.474928 0.068861 0.010052
0.336617 0.047308 -0.007120
0.356488 0.050101 -0.002513
0.445879 0.060681 0.003142
0.465605 0.063366 0.009843
0.366754 0.048284 -0.007749
0.406482 0.053514 -0.002862
0.476151 0.060574 0.003351
0.515729 0.065609 0.010890
0.377085 0.046300 -0.007958
0.397009 0.048747 -0.002793
0.486592 0.057592 0.003421
0.456711 0.054055 0.009634
0.407275 0.046403 -0.008586
0.486838 0.055468 -0.003421
0.477135 0.052255 0.003351
0.437289 0.047891 0.009215
0.357949 0.037622 -0.007539
0.437579 0.045991 -0.003072
0.447725 0.045084 0.003142
0.457585 0.046076 0.009634
0.378168 0.036413 -0.007958
0.437964 0.042171 -0.003072
0.477975 0.043920 0.003351
0.438058 0.040252 0.009215
0.328672 0.028755 -0.006911
0.358621 0.031375 -0.002513
0.448444 0.037263 0.003142
0.468283 0.038911 0.009843
0.338878 0.026670 -0.007120
0.438633 0.034521 -0.003072
0.438779 0.032607 0.003072
0.448664 0.033342 0.009424
0.378991 0.026502 -0.007958
0.399016 0.027902 -0.002793
0.488939 0.032047 0.003421
0.498820 0.032694 0.010471
0.409146 0.025024 -0.008586
0.449150 0.027471 -0.003142
0.479216 0.027212 0.003351
0.449178 0.025506 0.009424
0.369412 0.019360 -0.007749
0.399442 0.020934 -0.002793
0.449471 0.021590 0.003142
0.469356 0.022545 0.009843
0.409520 0.017880 -0.008586
0.489522 0.021373 -0.003421
0.479618 0.018844 0.003351
0.489515 0.019233 0.010262
0.379685 0.013259 -0.007958
0.399747 0.013959 -0.002793
0.449779 0.013742 0.003142
0.469678 0.014350 0.009843
0.369792 0.009683 -0.007749
0.449835 0.011779 -0.003142
0.439885 0.009598 0.003072
0.439799 0.009596 0.009215
0.409848 0.007154 -0.008586
0.439922 0.007679 -0.003072
0.449950 0.005890 0.003142
0.459860 0.006020 0.009634
0.419892 0.003664 -0.008796
0.509968 0.004450 -0.003560
0.439985 0.001920 0.003072
0.439899 0.001919 0.009215
0.359921 0.000000 -0.007539
0.439989 0.000000 -0.003072
0.479984 -0.002094 0.003351
0.459895 -0.002007 0.009634
0.419892 -0.003664 -0.008796
0.479970 -0.004189 -0.003351
0.479947 -0.006283 0.003351
0.489851 -0.006412 0.010262
0.359866 -0.006281 -0.007539
0.439922 -0.007679 -0.003072
0.489871 -0.010689 0.003421
0.469785 -0.010251 0.009843
0.419764 -0.010992 -0.008796
0.479824 -0.012565 -0.003351
0.519745 -0.015880 0.003630
0.489664 -0.014961 0.010262
0.409660 -0.014306 -0.008586
0.439721 -0.015355 -0.003072
0.489610 -0.019237 0.003421
0.429574 -0.016878 0.009005
0.409520 -0.017880 -0.008586
0.489522 -0.021373 -0.003421
0.479436 -0.023029 0.003351
0.489328 -0.023504 0.010262
0.419332 -0.021976 -0.008796
0.439386 -0.023027 -0.003072
0.489200 -0.027779 0.003421
0.509068 -0.028907 0.010681
0.339291 -0.020752 -0.007120
0.429188 -0.026250 -0.003002
0.478961 -0.031393 0.003351
0.488844 -0.032041 0.010262
0.329124 -0.023015 -0.006911
0.399016 -0.027902 -0.002793
0.488641 -0.036312 0.003421
0.468605 -0.034823 0.009843
0.418613 -0.032946 -0.008796
0.488478 -0.038444 -0.003421
0.478340 -0.039747 0.003351
0.488210 -0.040567 0.010262
0.408350 -0.035726 -0.008586
0.438315 -0.038348 -0.003072
0.487933 -0.044835 0.003421
0.467926 -0.042996 0.009843
0.408023 -0.039288 -0.008586
0.487732 -0.046963 -0.003421
0.477573 -0.048089 0.003351
0.477480 -0.048080 0.010052
0.367892 -0.038667 -0.007749
0.437579 -0.045991 -0.003072
0.487076 -0.053343 0.003421
0.467104 -0.051156 0.009843
0.367541 -0.041876 -0.007749
0.427226 -0.048676 -0.003002
0.476661 -0.056417 0.003351
0.486497 -0.057581 0.010262
0.357238 -0.043863 -0.007539
0.436710 -0.053621 -0.003072
0.446391 -0.056788 0.003142
0.466140 -0.059301 0.009843
0.416316 -0.054809 -0.008796
0.505625 -0.066567 -0.003560
0.475604 -0.064727 0.003351
0.515137 -0.070107 0.010890
0.356418 -0.050091 -0.007539
0.435707 -0.061235 -0.003072
0.475021 -0.068875 0.003351
0.455140 -0.065992 0.009634
0.444960 -0.066500 -0.009424
0.484606 -0.072425 -0.003421
0.434868 -0.066933 0.003072
0.474309 -0.073003 0.010052
0.414738 -0.065688 -0.008796
0.395066 -0.062572 -0.002793
0.444138 -0.072332 0.003142
0.453919 -0.073925 0.009634
0.404288 -0.067655 -0.008586
0.483268 -0.080871 -0.003421
0.473055 -0.081286 0.003351
0.472963 -0.081270 0.010052
0.403683 -0.071180 -0.008586
0.433305 -0.076403 -0.003072
0.472328 -0.085411 0.003351
0.452559 -0.081836 0.009634
0.442368 -0.081988 -0.009424
0.481783 -0.089293 -0.003421
0.471565 -0.089529 0.003351
0.471473 -0.089512 0.010052
0.333680 -0.064861 -0.007120
0.353377 -0.068690 -0.002513
0.470765 -0.093641 0.003351
0.451062 -0.089722 0.009634
0.440869 -0.089696 -0.009424
0.480151 -0.097688 -0.003421
0.430770 -0.089600 0.003072
0.469839 -0.097727 0.010052
0.410732 -0.087304 -0.008796
0.430374 -0.091479 -0.003072
0.469059 -0.101843 0.003351
0.449428 -0.097580 0.009634
0.361150 -0.080065 -0.007749
0.400272 -0.088738 -0.002862
0.468153 -0.105932 0.003351
0.507067 -0.114737 0.010890
0.399404 -0.092210 -0.008586
0.428712 -0.098976 -0.003072
0.467211 -0.110014 0.003351
0.447656 -0.105409 0.009634
0.408306 -0.098026 -0.008796
0.476450 -0.114385 -0.003421
0.466233 -0.114086 0.003351
0.504987 -0.123570 0.010890
0.436537 -0.108841 -0.009424
0.426920 -0.106443 -0.003072
0.436143 -0.110766 0.003142
0.445748 -0.113206 0.009634
0.406533 -0.105137 -0.008796
0.474381 -0.122683 -0.003421
0.464171 -0.122206 0.003351
0.464080 -0.122182 0.010052
0.405600 -0.108680 -0.008796
0.424997 -0.113878 -0.003072
0.501677 -0.136773 0.003630
0.520871 -0.142006 0.011309
0.366099 -0.101528 -0.007958
0.423987 -0.117582 -0.003072
0.461967 -0.130288 0.003351
0.461877 -0.130263 0.010052
0.403641 -0.115742 -0.008796
0.422945 -0.121277 -0.003072
0.508814 -0.148306 0.003700
0.441526 -0.128693 0.009634
0.440960 -0.130618 -0.009634
0.498574 -0.147684 -0.003630
0.497925 -0.149858 0.003630
0.497828 -0.149829 0.010890
0.353755 -0.108154 -0.007749
0.382513 -0.116946 -0.002793
0.458398 -0.142336 0.003351
0.439213 -0.136379 0.009634
0.438614 -0.138294 -0.009634
0.524532 -0.165384 -0.003840
0.495234 -0.158526 0.003630
0.457050 -0.146303 0.010052
0.427882 -0.139027 -0.009424
0.485027 -0.157595 -0.003560
0.465341 -0.153447 0.003421
0.484240 -0.159679 0.010681
0.398209 -0.133239 -0.008796
0.493116 -0.164994 -0.003630
0.454515 -0.154287 0.003351
0.454427 -0.154257 0.010052
0.425390 -0.146474 -0.009424
0.482203 -0.166036 -0.003560
0.462592 -0.161544 0.003421
0.481380 -0.168105 0.010681
0.433520 -0.153517 -0.009634
0.518440 -0.183589 -0.003840
0.489400 -0.175712 0.003630
0.451665 -0.162164 0.010052
0.422769 -0.153875 -0.009424
0.479232 -0.174426 -0.003560
0.459703 -0.169593 0.003421
0.478373 -0.176481 0.010681
0.468233 -0.175065 -0.010471
0.515157 -0.192609 -0.003840
0.486258 -0.184227 0.003630
0.486164 -0.184191 0.010890
0.420019 -0.161230 -0.009424
0.476114 -0.182763 -0.003560
0.503272 -0.195712 0.003770
0.503174 -0.195674 0.011309
0.390690 -0.153897 -0.008796
0.446590 -0.175916 -0.003351
0.482969 -0.192685 0.003630
0.492161 -0.196352 0.011099
0.417141 -0.168536 -0.009424
0.445037 -0.179807 -0.003351
0.499780 -0.204465 0.003770
0.499682 -0.204425 0.011309
0.424891 -0.175996 -0.009634
0.508121 -0.210471 -0.003840
0.479533 -0.201085 0.003630
0.479439 -0.201046 0.010890
0.414136 -0.175790 -0.009424
0.469446 -0.199268 -0.003560
0.450197 -0.193420 0.003421
0.496038 -0.213115 0.011309
0.421755 -0.183384 -0.009634
0.504371 -0.219307 -0.003840
0.475950 -0.209423 0.003630
0.475858 -0.209382 0.010890
0.411005 -0.182991 -0.009424
0.465897 -0.207431 -0.003560
0.446753 -0.201247 0.003421
0.464897 -0.209421 0.010681
0.454881 -0.207301 -0.010471
0.500467 -0.228076 -0.003840
0.508548 -0.234444 0.003910
0.472131 -0.217655 0.010890
0.407749 -0.190137 -0.009424
0.462206 -0.215530 -0.003560
0.479350 -0.226076 0.003700
0.461171 -0.217502 0.010681
0.415098 -0.197992 -0.009634
0.496410 -0.236775 -0.003840
0.468352 -0.225906 0.003630
0.468260 -0.225862 0.010890
0.368425 -0.179693 -0.008586
0.431411 -0.210413 -0.003351
0.475331 -0.234407 0.003700
0.484205 -0.238784 0.011309
0.447369 -0.223050 -0.010471
0.501151 -0.249865 -0.003910
0.464338 -0.234045 0.003630
0.464247 -0.234000 0.010890
0.427589 -0.217868 -0.010052
0.463312 -0.236069 -0.003630
0.506727 -0.260982 0.003979
0.506629 -0.260931 0.011937
0.443408 -0.230824 -0.010471
0.523324 -0.272425 -0.004119
0.460182 -0.242114 0.003630
0.468941 -0.246722 0.011099
0.423722 -0.225297 -0.010052
0.494439 -0.262898 -0.003910
0.502095 -0.269786 0.003979
0.510805 -0.274465 0.012147
0.439312 -0.238527 -0.010471
0.492126 -0.267202 -0.003910
0.490955 -0.269347 0.003910
0.455798 -0.250059 0.010890
0.419725 -0.232658 -0.010052
0.454791 -0.252095 -0.003630
0.497311 -0.278507 0.003979
0.471045 -0.263798 0.011309
0.435082 -0.246158 -0.010471
0.487387 -0.275750 -0.003910
0.486180 -0.277874 0.003910
0.451364 -0.257976 0.010890
0.354993 -0.204955 -0.008586
0.415682 -0.239994 -0.003351
0.492374 -0.287144 0.003979
0.466369 -0.271978 0.011309
0.430720 -0.253714 -0.010471
0.456652 -0.268989 -0.003700
0.481256 -0.286317 0.003910
0.489754 -0.291373 0.011937
0.445629 -0.267761 -0.010890
0.480002 -0.288414 -0.003910
0.521484 -0.316444 0.004259
0.461551 -0.280076 0.011309
0.451800 -0.276864 -0.011099
0.511572 -0.313491 -0.004189
0.476186 -0.294673 0.003910
0.442086 -0.273571 0.010890
0.440888 -0.275498 -0.010890
0.474895 -0.296748 -0.003910
0.439768 -0.277473 0.003630
0.456593 -0.288089 0.011309
0.379443 -0.241732 -0.009424
0.463854 -0.295508 -0.003840
0.504611 -0.324577 0.004189
0.437244 -0.281245 0.010890
0.402474 -0.261369 -0.010052
0.469644 -0.304990 -0.003910
0.468309 -0.307037 0.003910
0.493301 -0.323422 0.012356
0.441863 -0.292462 -0.011099
0.491981 -0.325635 -0.004119
0.465612 -0.311112 0.003910
0.473834 -0.316606 0.011937
0.431005 -0.290717 -0.010890
0.497410 -0.335508 -0.004189
0.471145 -0.320791 0.003979
0.479317 -0.326355 0.012147
0.436691 -0.300129 -0.011099
0.519187 -0.356827 -0.004398
0.460111 -0.319190 0.003910
0.468236 -0.324827 0.011937
0.425866 -0.298194 -0.010890
0.491479 -0.344137 -0.004189
0.498139 -0.352050 0.004259
0.506207 -0.357752 0.012984
0.431387 -0.307705 -0.011099
0.512880 -0.365834 -0.004398
0.486933 -0.350541 0.004189
0.462496 -0.332949 0.011937
0.355889 -0.258569 -0.009215
0.453038 -0.329152 -0.003910
0.459662 -0.337038 0.003979
0.499886 -0.366532 0.012984
0.401840 -0.297346 -0.010471
0.474264 -0.350937 -0.004119
0.480741 -0.358986 0.004189
0.488658 -0.364898 0.012775
0.367292 -0.276774 -0.009634
0.415280 -0.312936 -0.003630
0.485549 -0.369220 0.004259
0.501371 -0.381252 0.013194
0.452112 -0.346918 -0.011937
0.515667 -0.395685 -0.004538
0.506029 -0.391810 0.004468
0.474310 -0.367250 0.012565
0.425432 -0.332384 -0.011309
0.441275 -0.344762 -0.003910
0.479032 -0.377638 0.004259
0.494641 -0.389944 0.013194
0.445989 -0.354756 -0.011937
0.493031 -0.392175 -0.004398
0.467919 -0.375545 0.004189
0.436640 -0.350440 0.011728
0.419567 -0.339758 -0.011309
0.411877 -0.333532 -0.003700
0.464624 -0.379614 0.004189
0.480018 -0.392191 0.012984
0.439730 -0.362485 -0.011937
0.501544 -0.413441 -0.004538
0.492047 -0.409231 0.004468
0.430457 -0.358007 0.011728
0.413573 -0.347029 -0.011309
0.428974 -0.359952 -0.003910
0.488457 -0.413509 0.004468
0.473100 -0.400509 0.012984
0.433336 -0.370104 -0.011937
0.479044 -0.409142 -0.004398
0.484830 -0.417756 0.004468
0.454439 -0.391570 0.012565
0.430090 -0.373872 -0.011937
0.430174 -0.373945 -0.003979
0.481166 -0.421971 0.004468
0.466038 -0.408705 0.012984
0.456763 -0.404110 -0.012775
0.501788 -0.443945 -0.004677
0.477465 -0.426154 0.004468
0.447536 -0.399441 0.012565
0.423500 -0.381321 -0.011937
0.475601 -0.428233 -0.004468
0.473728 -0.430304 0.004468
0.495837 -0.450387 0.014031
0.457012 -0.418774 -0.012984
0.523454 -0.479657 -0.004957
0.469955 -0.434422 0.004468
0.477205 -0.441124 0.013613
0.416780 -0.388654 -0.011937
0.468055 -0.436468 -0.004468
0.473430 -0.445358 0.004538
0.487902 -0.458972 0.014031
0.449633 -0.426686 -0.012984
0.515003 -0.488720 -0.004957
0.462302 -0.442558 0.004468
0.440545 -0.421730 0.012775
0.431509 -0.416704 -0.012565
0.489139 -0.472356 -0.004747
0.458422 -0.446575 0.004468
0.479817 -0.467417 0.014031
0.442118 -0.434468 -0.012984
0.506395 -0.497633 -0.004957
0.482914 -0.478718 0.004747
0.461519 -0.457509 0.013613
0.424171 -0.424171 -0.012565
0.480821 -0.480821 -0.004747
0.450558 -0.454508 0.004468
0.471586 -0.475720 0.014031
0.462499 -0.470642 -0.013822
0.525669 -0.534925 -0.005236
0.474486 -0.487073 0.004747
0.453464 -0.465494 0.013613
0.416704 -0.431509 -0.012565
0.500142 -0.517912 -0.005027
0.477132 -0.498419 0.004817
0.463212 -0.483878 0.014031
0.454214 -0.478642 -0.013822
0.523137 -0.551271 -0.005306
0.465913 -0.495280 0.004747
0.445271 -0.473337 0.013613
0.450020 -0.482588 -0.013822
0.463748 -0.497308 -0.004747
0.434422 -0.469955 0.004468
0.475056 -0.513913 0.014660
0.445792 -0.486496 -0.013822
0.493169 -0.538199 -0.005096
0.484092 -0.532944 0.005027
0.457109 -0.503238 0.014241
0.434840 -0.482938 -0.013613
0.454998 -0.505326 -0.004747
0.459447 -0.514767 0.004817
0.446043 -0.499749 0.014031
0.457108 -0.516666 -0.014450
0.450571 -0.509277 -0.004747
0.501091 -0.571384 0.005306
0.448257 -0.511139 0.014241
0.426345 -0.490454 -0.013613
0.472351 -0.543378 -0.005027
0.496085 -0.575735 0.005306
0.456832 -0.530179 0.014660
0.422049 -0.494155 -0.013613
0.487074 -0.570291 -0.005236
0.465198 -0.549514 0.005027
0.445728 -0.526515 0.014450
0.411294 -0.490161 -0.013403
0.475651 -0.566859 -0.005166
0.479568 -0.576617 0.005236
0.473081 -0.568818 0.015497
0.468099 -0.572925 0.015497
0.469431 -0.584899 0.005236
0.438050 -0.545799 0.014660
0.476691 -0.604679 0.005376
0.451839 -0.573156 0.015288
0.459152 -0.593003 0.005236
0.428458 -0.553361 0.014660
0.472118 -0.620866 0.005445
0.441768 -0.580954 0.015288
0.448733 -0.600926 0.005236
0.472573 -0.632852 0.016545
0.473036 -0.645140 0.005585
0.425650 -0.580513 0.015079
0.403122 -0.559972 0.004817
0.408885 -0.567977 0.014660
0.409683 -0.579688 0.014869
0.193794 -0.279353 0.002374
0.233647 -0.336801 0.008586
0.168804 -0.247923 0.006283
0.155556 -0.232806 0.001955
0.166635 -0.249386 0.006283
0.148007 -0.225748 0.005654
0.151469 -0.235485 0.001955
0.140623 -0.218622 0.005445
0.149408 -0.236798 0.001955
0.117369 -0.186019 0.004607
0.147336 -0.238093 0.001955
0.136786 -0.221043 0.005445
0.114127 -0.188076 0.001536
0.119292 -0.196587 0.004817
0.138046 -0.232034 0.001885
0.127795 -0.214804 0.005236
0.130953 -0.224548 0.005445