# This PCD file was generated using the MATLAB® pcwrite function
# from Computer Vision System Toolbox®.
# .PCD v.7 - Point Cloud Data file format
VERSION .7
FIELDS x y z
SIZE 4 4 4
TYPE F F F
COUNT 1 1 1
WIDTH 1161
HEIGHT 1
VIEWPOINT 0 0 0 1 0 0 0
POINTS 1161
DATA ascii
32.401455 34.746307 -0.995184
32.216816 34.548306 -0.329795
32.414391 34.157639 -0.986388
32.131607 33.859650 -0.325885
32.468155 33.621761 -0.979058
32.238308 33.383747 -0.324000
32.423958 32.994862 -0.969006
32.248051 32.815853 -0.321208
32.286484 32.286484 -0.956440
31.826101 31.826101 -0.314227
32.310291 31.751234 -0.948901
31.959974 31.406979 -0.312830
32.298466 31.190266 -0.940524
32.146511 31.043526 -0.311993
32.395367 30.742056 -0.935498
32.075272 30.438297 -0.308711
32.428425 30.239994 -0.928796
32.339672 30.157232 -0.308711
32.455200 29.739714 -0.922095
32.336197 29.630665 -0.306198
32.512886 29.274733 -0.916440
32.355736 29.133236 -0.303964
32.467598 28.724905 -0.908063
32.369076 28.637741 -0.301730
32.385033 28.151878 -0.898849
32.285690 28.065521 -0.298658
32.447010 27.712364 -0.893822
32.255634 27.548914 -0.296145
32.319984 27.119688 -0.883770
32.310966 27.112122 -0.294470
32.431984 26.734863 -0.880419
32.337997 26.657389 -0.292585
32.477577 26.299824 -0.875393
32.375111 26.216848 -0.290839
32.455467 25.816244 -0.868692
32.234844 25.640753 -0.287558
32.427410 25.335070 -0.861990
32.268253 25.210724 -0.285883
32.520351 24.953745 -0.858639
32.296627 24.782074 -0.284207
32.481369 24.476465 -0.851938
32.319992 24.354860 -0.282532
32.468693 24.025570 -0.846074
32.362488 23.946981 -0.281066
32.426376 23.559143 -0.839582
32.157642 23.363894 -0.277505
32.427250 23.130133 -0.834346
32.230049 22.989470 -0.276388
32.464066 22.731583 -0.830158
32.322952 22.632774 -0.275481
32.496407 22.334162 -0.825969
32.354404 22.236567 -0.274084
32.491146 21.915554 -0.820943
32.356548 21.824768 -0.272479
32.185406 21.505600 0.270245
32.046124 21.412535 0.807330
32.447720 21.476677 -0.815079
32.345642 21.409115 -0.270803
32.104244 21.048464 0.268011
31.964209 20.956654 0.800629
32.466202 21.083797 -0.810890
32.321575 20.989878 -0.269058
32.185780 20.702589 0.267173
31.986107 20.574156 0.796650
32.412857 20.649267 -0.805027
32.309540 20.583447 -0.267452
32.170704 20.298201 0.265567
32.029144 20.208885 0.793299
32.320503 20.196093 -0.798325
32.216560 20.131142 -0.265218
32.168041 19.906187 0.264101
32.042747 19.828653 0.789320
32.427319 19.871487 -0.796650
32.280170 19.781313 -0.264311
32.178097 19.526150 0.262775
22.727121 13.791156 0.556859
32.035069 19.439358 0.784922
22.290031 13.393203 -0.544712
32.350967 19.438423 -0.790576
32.211563 19.354660 -0.262356
32.166798 19.137234 0.261309
32.040237 19.061937 0.780943
21.174200 12.472557 -0.514765
32.424610 19.099554 -0.788273
32.275841 19.011923 -0.261518
32.159813 18.755049 0.259912
32.023994 18.675842 0.776545
32.382248 18.695898 -0.783247
22.213011 12.824687 -0.179069
32.267319 18.629545 -0.260122
22.971981 13.129569 0.184724
32.218071 18.414146 0.259075
32.055550 18.321257 0.773404
32.396236 18.328909 -0.779686
22.393707 12.669749 -0.179628
32.280704 18.263544 -0.258935
23.085682 12.928603 0.184724
32.141968 18.000368 0.257190
32.074642 17.962662 0.770053
25.428364 14.095172 -0.609006
32.310112 17.909786 -0.773822
23.071905 12.788966 -0.184166
32.211460 17.855103 -0.257120
32.122486 17.622999 0.255793
32.019806 17.566666 0.765027
21.552656 11.702137 -0.513718
32.324593 17.550821 -0.770472
32.216652 17.492214 -0.255933
32.134109 17.266281 0.254676
31.995741 17.191933 0.760838
23.401808 12.442962 -0.555184
32.370586 17.211746 -0.767959
24.271637 12.905458 -0.191915
32.262119 17.154074 -0.255095
32.097721 16.887426 0.253210
31.967590 16.818964 0.756650
24.289898 12.644521 -0.573613
32.377663 16.854744 -0.764608
20.294313 10.564550 -0.159731
23.247988 12.102137 -0.182979
32.295277 16.811857 -0.254188
26.483175 13.639731 0.207972
32.172745 16.570053 0.252652
32.059814 16.511890 0.755393
20.399574 10.394102 -0.479581
25.753349 13.121986 -0.605445
32.327534 16.471703 -0.760000
20.359003 10.373430 -0.159522
26.319691 13.410553 -0.206226
32.262562 16.438595 -0.252791
25.931477 13.070540 0.202736
32.137527 16.198648 0.251256
21.774981 10.975493 0.510786
32.033058 16.145990 0.751414
20.328449 10.135391 -0.475812
25.016876 12.472955 -0.585550
32.317940 16.113131 -0.756440
20.511396 10.226604 -0.160010
25.961412 12.943883 -0.202526
32.270546 16.089500 -0.251744
27.748566 13.684078 0.216000
32.098293 15.829126 0.249859
24.165419 11.917066 0.564398
32.002369 15.781821 0.747435
20.946295 10.216190 -0.488168
25.816690 12.591640 -0.601676
32.250645 15.729690 -0.751623
24.320774 11.862034 -0.188913
32.220982 15.715222 -0.250278
22.327765 10.769635 0.173065
24.750584 11.938265 0.191845
32.145138 15.504973 0.249161
24.655708 11.892503 0.573403
32.030811 15.449829 0.744922
24.761509 11.810634 -0.574660
32.341560 15.426134 -0.750576
20.334751 9.699179 -0.157288
24.748285 11.804327 -0.191426
32.320793 15.416226 -0.249999
24.844778 11.717558 0.191775
32.080242 15.130025 0.247625
22.081951 10.414524 0.511414
26.033552 12.278220 0.602932
32.010689 15.097221 0.741362
32.293724 15.058811 -0.746388
22.185873 10.345443 -0.170901
32.245644 15.036391 -0.248393
32.111160 14.803448 0.246857
23.688259 10.920437 0.546388
32.059502 14.779634 0.739477
20.587908 9.382450 -0.473927
22.762238 10.373349 -0.523979
32.314735 14.726673 -0.743875
32.239143 14.692224 -0.247346
23.951405 10.789321 0.183398
32.093243 14.456951 0.245740
32.032291 14.429495 0.735917
20.678133 9.206498 -0.474136
32.286751 14.374987 -0.740315
20.545137 9.147285 -0.157009
32.174286 14.324916 -0.245880
24.008036 10.563788 0.183118
32.135803 14.140092 0.245112
32.074631 14.113175 0.734032
23.517431 10.225671 -0.537173
23.953026 10.415071 -0.182351
32.224705 14.011701 -0.245321
21.526754 9.248623 0.163571
32.083408 13.784120 0.243786
31.250422 13.426241 0.712461
24.213171 10.277882 -0.550995
32.247417 13.688216 -0.733822
21.925892 9.306989 -0.166294
30.937414 13.132154 -0.234640
32.161655 13.651813 -0.243925
22.390493 9.389113 0.169505
32.082588 13.453346 0.242878
22.054209 9.248097 0.500943
31.652216 13.272876 0.718953
22.094351 9.151780 -0.500943
32.254799 13.360374 -0.731309
21.341097 8.839772 -0.161267
22.551350 9.341075 -0.170413
32.205654 13.340019 -0.243367
24.313356 9.946856 0.183398
31.800797 13.010050 0.239876
21.949005 8.979575 0.496754
31.766836 12.996156 0.718953
22.609055 9.134651 -0.510786
32.184765 13.003489 -0.727121
22.381672 9.042783 -0.168528
32.135410 12.983548 -0.241970
24.232050 9.667608 0.182141
31.690210 12.643111 0.238201
24.208754 9.658314 0.545969
31.591171 12.603600 0.712461
22.613491 8.907691 -0.509110
32.222595 12.692818 -0.725445
31.949760 12.585345 -0.239736
31.668856 12.315345 0.237223
31.634727 12.302073 0.710995
32.042786 12.300074 -0.718953
21.350464 8.195675 -0.159661
31.684948 12.162712 -0.236944
21.638502 8.198094 0.161546
31.578747 11.964117 0.235757
31.441700 11.912194 0.704294
31.802412 11.890434 -0.711205
21.561668 8.061578 -0.160709
31.733681 11.864737 -0.236525
31.569368 11.646555 0.234919
31.431896 11.595839 0.701780
22.575861 8.216942 -0.503246
31.801619 11.574842 -0.708901
21.170759 7.705526 -0.157288
31.760836 11.559999 -0.235967
31.519217 11.316555 0.233802
23.373684 8.392011 0.520210
31.259010 11.223131 0.695707
22.326279 7.906150 -0.496126
21.755636 7.704074 -0.161127
31.728539 11.235665 -0.234989
31.616772 11.041071 0.233802
23.351641 8.154757 0.518115
31.355759 10.949922 0.695707
21.543642 7.418071 -0.477278
31.847534 10.965985 -0.705550
21.339834 7.347894 -0.157567
31.768650 10.938824 -0.234570
21.201248 7.196854 0.156310
25.121445 8.527581 0.185213
31.664572 10.748673 0.233453
31.374382 10.650167 0.694032
31.894611 10.671787 -0.704503
22.047987 7.377153 -0.162314
31.701687 10.607236 -0.233384
21.842548 7.202592 0.160569
31.757164 10.471943 0.233453
25.275446 8.334592 0.557487
31.580065 10.413544 0.696545
21.403587 6.954447 -0.471414
31.634710 10.278741 -0.696754
31.716963 10.305466 -0.232825
21.580763 6.908057 0.158195
31.742579 10.160879 0.232685
21.328987 6.827463 0.469110
25.737612 8.238675 0.566074
31.555475 10.100987 0.694032
22.464643 7.083075 -0.493403
27.756611 8.751626 -0.609634
31.513432 9.936147 -0.692147
31.805685 10.028294 -0.232825
31.791840 9.871629 0.232406
25.703499 7.981148 0.563770
31.632872 9.822268 0.693822
22.554281 6.895536 -0.494032
27.401684 8.377535 -0.600210
31.828403 9.730920 -0.697173
22.396112 6.847178 -0.163501
31.815483 9.726970 -0.232267
25.681438 7.729236 0.187237
31.761868 9.559237 0.231568
25.398796 7.644170 0.555602
31.631220 9.519917 0.691938
22.220568 6.582032 -0.485445
27.310783 8.089823 -0.596650
31.940866 9.461316 -0.697801
31.822451 9.426240 -0.231708
22.464619 6.547839 0.163361
25.795912 7.518822 0.187586
31.748075 9.253720 0.230870
22.642609 6.599719 0.494032
31.732286 9.249118 0.692356
31.916500 9.151909 -0.695498
25.838085 7.408952 -0.187656
31.932335 9.156450 -0.231917
31.740999 8.951888 0.230242
22.785942 6.426300 0.495917
31.619343 8.917577 0.688168
22.177908 6.150478 -0.482094
25.704021 7.128356 -0.558744
31.908442 8.848994 -0.693613
21.902786 6.074180 -0.158684
25.603037 7.100350 -0.185492
31.799030 8.818651 -0.230382
25.566240 6.970157 0.185003
31.653900 8.629844 0.229055
31.580210 8.609754 0.685655
25.765249 6.903778 -0.558744
31.762333 8.510692 -0.688796
25.586752 6.855949 -0.184934
31.671936 8.486469 -0.228916
25.606752 6.741695 0.184864
31.563610 8.310005 0.227868
25.350384 6.674199 0.549110
31.538120 8.303294 0.683142
31.796675 8.223179 -0.687958
31.667337 8.189731 -0.228357
31.528313 8.007172 0.227100
31.493095 7.998228 0.680629
31.828421 7.935717 -0.687121
31.727898 7.910653 -0.228287
31.674692 7.750748 0.227659
21.733868 5.318244 0.468691
31.561693 7.723097 0.680629
26.831524 6.441679 -0.578011
31.818687 7.638991 -0.685445
31.756828 7.624140 -0.228008
31.750858 7.476335 0.227729
21.915693 5.160461 0.471623
31.588961 7.438213 0.679791
31.806206 7.343041 -0.683770
31.627281 7.301733 -0.226612
23.807526 5.387093 0.170413
31.688099 7.170285 0.226821
21.579592 4.882963 0.463456
31.496647 7.126964 0.676440
27.027708 5.991899 -0.579896
31.917877 7.076023 -0.684817
31.728848 7.034116 -0.226891
31.632200 6.868024 0.225983
21.953568 4.766587 0.470576
24.435190 5.305400 0.523770
31.528332 6.845472 0.675812
31.900177 6.780592 -0.683142
24.110750 5.124898 -0.172088
31.681429 6.734096 -0.226123
24.827988 5.164229 0.177045
31.641979 6.581541 0.225634
22.170517 4.611474 0.474346
24.862301 5.171366 0.531937
31.577080 6.568042 0.675602
31.830770 6.476044 -0.680419
24.605310 5.006007 -0.175299
31.738987 6.457370 -0.226123
24.872108 4.947370 0.177045
31.541286 6.273952 0.224517
24.220083 4.817674 0.517278
31.515526 6.268828 0.673089
23.308533 4.530720 -0.497382
31.729046 6.167502 -0.677068
25.011251 4.861695 -0.177883
31.745050 6.170612 -0.225774
31.417997 5.964893 0.223261
30.459105 5.782842 0.649424
23.130915 4.287062 -0.492775
25.205126 4.671494 -0.536964
31.781660 5.890382 -0.677068
26.625895 4.934818 -0.189053
31.660036 5.867841 -0.224797
30.760363 5.562380 0.218234
22.057354 3.988619 0.469529
23.660988 4.278604 0.503665
29.878761 5.402960 0.636021
25.185858 4.440946 -0.535707
24.028723 4.236912 -0.170343
31.316124 5.521877 -0.222004
24.056837 4.133721 0.170413
29.891188 5.136245 0.211742
24.140827 4.148153 0.513089
30.614511 5.260535 0.650681
21.614639 3.617050 -0.459058
23.744549 3.973475 -0.504293
30.854109 5.163207 -0.655288
21.589266 3.612804 -0.152820
24.577639 4.112886 -0.173973
27.368759 4.579959 -0.193730
23.845251 3.883446 0.168667
30.003958 4.886455 0.212230
23.870205 3.887510 0.506597
24.074560 3.813036 -0.510576
26.859230 4.254084 -0.569634
30.167261 4.778025 -0.639791
26.558292 4.206420 -0.187726
30.024994 4.755492 -0.212230
23.897999 3.678254 0.168807
26.349075 4.055511 0.186120
30.490210 4.692892 0.215372
21.600843 3.324688 0.457801
23.498081 3.616701 0.498011
30.770828 4.736084 0.652147
21.348169 3.190505 -0.452147
30.118816 4.501287 -0.637906
21.530350 3.217732 -0.151982
26.593988 3.974498 -0.187726
30.263147 4.522858 -0.213627
21.653044 3.139542 0.152750
30.233112 4.383593 0.213278
23.083504 3.346949 0.488587
30.138170 4.369827 0.637906
22.058334 3.100097 -0.466597
30.156950 4.238283 -0.637906
21.478392 3.018591 -0.151424
30.628244 4.304519 -0.215930
23.661301 3.220162 0.166712
30.181040 4.107459 0.212649
22.666040 3.084713 0.479163
30.234594 4.114748 0.639163
22.163845 2.917926 -0.468273
30.787523 4.053255 -0.650472
21.850912 2.876727 -0.153867
24.081610 3.170404 -0.169575
30.525843 4.018804 -0.214953
23.261950 2.959294 0.163711
30.572847 3.889357 0.215162
30.656149 3.899955 0.647330
22.148771 2.719527 -0.467435
30.444637 3.738132 -0.642513
22.589800 2.773679 -0.158893
30.549826 3.751047 -0.214883
23.326609 2.760886 0.163990
30.516251 3.611836 0.214534
22.299425 2.639311 0.470367
30.599657 3.621708 0.645445
22.151793 2.523878 -0.467016
30.128426 3.432700 -0.635184
21.599726 2.460978 -0.151773
22.712500 2.587762 -0.159592
30.541655 3.479782 -0.214604
23.260351 2.547423 0.163361
30.665892 3.358461 0.215372
21.248264 2.327063 0.447749
30.719543 3.364337 0.647330
22.351950 2.349284 -0.470786
24.609018 2.586512 -0.518325
30.047861 3.158157 -0.632880
22.525372 2.367512 -0.158126
30.332178 3.188040 -0.212928
23.042910 2.320299 0.161686
30.574638 3.078704 0.214534
21.426922 2.157578 0.451100
30.777575 3.099139 0.647958
22.719912 2.187679 -0.478115
24.451521 2.354414 -0.514555
30.213600 2.909239 -0.635812
23.222027 2.236027 -0.162873
30.358845 2.923224 -0.212928
22.693842 2.085271 0.159103
30.889116 2.838311 0.216559
21.892948 2.011679 0.460524
30.674021 2.818547 0.645236
24.182302 2.115677 -0.508482
30.765705 2.691650 -0.646911
22.872072 2.001047 -0.160290
30.980900 2.710478 -0.217117
22.481970 1.868108 0.157497
30.733332 2.553743 0.215302
22.637003 1.880990 0.475812
30.826975 2.561524 0.647958
22.854301 1.798673 -0.480210
31.037197 2.442680 -0.652147
22.888664 1.801377 -0.160290
30.923622 2.433742 -0.216559
22.327887 1.659249 0.156310
30.933947 2.298789 0.216559
30.848154 2.292414 0.647958
23.008755 1.608929 -0.483142
30.997492 2.167556 -0.650890
22.863611 1.598779 -0.160010
30.873856 2.158910 -0.216070
23.239569 1.523202 0.162594
30.932873 2.027448 0.216419
30.827078 2.020514 0.647121
23.071815 1.411133 -0.484189
30.985289 1.895141 -0.650262
23.116238 1.413850 -0.161686
31.051216 1.899174 -0.217187
22.852629 1.297666 0.159801
30.859535 1.752331 0.215791
23.197535 1.317251 0.486702
30.763683 1.746889 0.645445
22.863602 1.198231 -0.479581
31.090504 1.629384 -0.652147
22.848087 1.197417 -0.159731
30.976734 1.623422 -0.216559
23.312553 1.119782 0.162943
30.843687 1.481529 0.215581
22.768749 1.093661 0.477487
30.727825 1.475963 0.644398
31.103539 1.358010 -0.652147
22.757765 0.993625 -0.159033
30.989721 1.353040 -0.216559
22.871796 0.898635 0.159801
30.855440 1.212314 0.215581
22.577623 0.887077 0.473299
30.789484 1.209722 0.645445
23.010923 0.803559 -0.482304
31.114204 1.086532 -0.652147
22.595676 0.789058 -0.157846
30.980360 1.081858 -0.216419
22.768820 0.695650 0.159033
30.824865 0.941785 0.215302
30.758896 0.939769 0.644608
22.757206 0.595918 -0.476859
31.072531 0.813663 -0.651100
23.761276 0.622211 -0.165945
30.938641 0.810157 -0.216070
23.343874 0.509365 0.163012
30.841908 0.672973 0.215372
30.715950 0.670224 0.643561
22.961464 0.400794 -0.481047
31.068451 0.542302 -0.650890
23.685814 0.413437 -0.165386
30.954531 0.540313 -0.216140
23.257441 0.304457 0.162384
30.846605 0.403804 0.215372
30.720629 0.402155 0.643561
22.804129 0.199009 -0.477697
30.992022 0.270463 -0.649215
30.918070 0.269818 -0.215861
30.848955 0.134605 0.215372
30.732965 0.134099 0.643770
31.013197 0.000000 -0.649634
30.919247 0.000000 -0.215861
30.848955 -0.134605 0.215372
30.732965 -0.134099 0.643770
30.932037 -0.269940 -0.647958
30.868073 -0.269382 -0.215512
30.756615 -0.402626 0.214744
30.690638 -0.401762 0.642932
30.928503 -0.539859 -0.647958
30.834551 -0.538219 -0.215302
30.761929 -0.671228 0.214813
30.685963 -0.669570 0.642932
30.912621 -0.809475 -0.647749
30.868666 -0.808324 -0.215581
30.744904 -0.939342 0.214744
30.718924 -0.938548 0.643770
30.904379 -1.079205 -0.647749
30.850443 -1.077321 -0.215512
30.785496 -1.209565 0.215093
30.709564 -1.206582 0.643770
30.983679 -1.352777 -0.649634
30.889818 -1.348679 -0.215861
30.773769 -1.478170 0.215093
30.697865 -1.474524 0.643770
30.970694 -1.623105 -0.649634
30.876873 -1.618188 -0.215861
30.799633 -1.748930 0.215372
30.673847 -1.741787 0.643561
30.985289 -1.895141 -0.650262
30.901501 -1.890017 -0.216140
30.733305 -2.014367 0.215023
30.667456 -2.010051 0.643770
30.967571 -2.165463 -0.650262
30.883831 -2.159608 -0.216140
30.764418 -2.286191 0.215372
30.688629 -2.280559 0.644608
30.917593 -2.433267 -0.649634
30.863808 -2.429034 -0.216140
30.743296 -2.554571 0.215372
30.667559 -2.548278 0.644608
30.895182 -2.702978 -0.649634
30.841436 -2.698276 -0.216140
30.709875 -2.821841 0.215302
30.683977 -2.819461 0.645445
30.989840 -2.983982 -0.652147
30.886391 -2.974021 -0.216629
30.773626 -3.098741 0.215930
30.658205 -3.087119 0.645445
30.962620 -3.254303 -0.652147
30.859262 -3.243439 -0.216629
30.785175 -3.371525 0.216210
30.669851 -3.358895 0.646283
30.933043 -3.524375 -0.652147
30.839720 -3.513742 -0.216698
30.754581 -3.640044 0.216210
30.629442 -3.625233 0.646074
30.940802 -3.799053 -0.652985
30.887283 -3.792482 -0.217257
30.751404 -3.912073 0.216419
30.685902 -3.903740 0.647958
30.896559 -4.067609 -0.652775
30.882755 -4.065792 -0.217466
30.765636 -4.187019 0.216768
30.650667 -4.171373 0.647958
30.909389 -4.344031 -0.653822
30.856001 -4.336528 -0.217536
30.727926 -4.455338 0.216768
30.613098 -4.438688 0.647958
30.909855 -4.619509 -0.654660
30.846653 -4.610063 -0.217746
30.727411 -4.729401 0.217047
30.652250 -4.717833 0.649634
30.937489 -4.900017 -0.656126
30.844755 -4.885329 -0.218025
30.724447 -5.003794 0.217327
30.649384 -4.991569 0.650472
30.903412 -5.171458 -0.656335
30.840399 -5.160913 -0.218304
30.719034 -5.278495 0.217606
30.644072 -5.265615 0.651309
30.847260 -5.439204 -0.656126
30.794188 -5.429846 -0.218304
30.711163 -5.553483 0.217885
30.675659 -5.547063 0.652985
30.887094 -5.724585 -0.658011
30.784962 -5.705655 -0.218583
30.691002 -5.826869 0.218095
30.626085 -5.814544 0.652985
30.865404 -5.999627 -0.658639
30.822342 -5.991256 -0.219212
30.727255 -6.112031 0.218723
30.613401 -6.089384 0.653822
30.860859 -6.278713 -0.659686
30.808083 -6.267975 -0.219491
30.662956 -6.377904 0.218653
30.637402 -6.372589 0.655498
30.883127 -6.564411 -0.661362
30.791336 -6.544900 -0.219770
30.694080 -6.664338 0.219281
30.668556 -6.658796 0.657383
30.902752 -6.850976 -0.663037
30.801388 -6.828504 -0.220259
30.722534 -6.951800 0.219910
30.570276 -6.917347 0.656545
30.919724 -7.138381 -0.664712
30.818575 -7.115028 -0.220817
30.660700 -7.219636 0.219910
30.547674 -7.193022 0.657383
30.934025 -7.426602 -0.666388
30.823376 -7.400038 -0.221306
30.596529 -7.486923 0.219910
30.483740 -7.459324 0.657383
30.897141 -7.703523 -0.667016
30.699409 -7.654222 -0.220887
30.559105 -7.761024 0.220119
30.456247 -7.734901 0.658220
30.780342 -7.960338 -0.665969
30.708895 -7.941860 -0.221446
30.557907 -8.045225 0.220608
30.493940 -8.028384 0.660524
30.757990 -8.241579 -0.667016
30.667398 -8.217304 -0.221655
30.573366 -8.335256 0.221236
30.461302 -8.304704 0.661362
30.733070 -8.523034 -0.668063
30.642702 -8.497973 -0.222004
30.537960 -8.612596 0.221515
30.426161 -8.581064 0.662199
30.695965 -8.801927 -0.668901
30.644276 -8.787105 -0.222563
30.500040 -8.889951 0.221795
30.426907 -8.868634 0.663875
30.646744 -9.077979 -0.669529
30.556841 -9.051349 -0.222493
30.488329 -9.175945 0.222283
30.424944 -9.156869 0.665550
30.652407 -9.371381 -0.671414
30.553192 -9.341048 -0.223051
30.502594 -9.471307 0.222981
30.735350 -9.543580 0.674137
30.683880 -9.674590 -0.673927
30.632643 -9.658435 -0.224238
30.866396 -9.880411 0.226263
30.831812 -9.869341 0.678116
30.702879 -9.975970 -0.676231
30.680336 -9.968645 -0.225215
30.921450 -10.196365 0.227310
30.858452 -10.175591 0.680629
30.794798 -10.303795 -0.680210
30.980978 -10.366091 -0.228078
30.954391 -10.507600 0.228217
30.844217 -10.470201 0.682304
31.015661 -10.679548 -0.687121
31.012253 -10.678375 -0.228985
30.899281 -10.790512 0.228497
30.864941 -10.778520 0.684817
31.072073 -11.003199 -0.690472
31.012150 -10.981978 -0.229683
30.926291 -11.103673 0.229404
30.844984 -11.074481 0.686493
31.040634 -11.297867 -0.691938
30.915134 -11.252189 -0.229683
30.903269 -11.400818 0.229963
30.869104 -11.388214 0.689215
31.062603 -11.613832 -0.694660
31.012461 -11.595084 -0.231150
30.942869 -11.723205 0.231010
30.871393 -11.696124 0.691519
31.025408 -11.909538 -0.696126
30.984779 -11.893943 -0.231708
30.876669 -12.007279 0.231289
30.842695 -11.994068 0.693194
31.050528 -12.231128 -0.699058
31.000757 -12.211523 -0.232616
30.919317 -12.335556 0.232406
30.848286 -12.307219 0.695707
31.128006 -12.576530 -0.703246
30.995001 -12.522793 -0.233384
30.958576 -12.665487 0.233523
30.850754 -12.621376 0.698220
31.118675 -12.889777 -0.705550
31.032358 -12.854023 -0.234501
30.920645 -12.966103 0.234082
30.813198 -12.921046 0.699896
31.124647 -13.211629 -0.708273
31.038668 -13.175133 -0.235408
30.843069 -13.251228 0.234361
30.809498 -13.236805 0.702409
31.035675 -13.494696 -0.708901
30.995874 -13.477390 -0.235967
30.872704 -13.584314 0.235478
30.793476 -13.549454 0.704712
31.108534 -13.850411 -0.713299
30.977571 -13.792104 -0.236735
30.935331 -13.935351 0.236874
27.264822 -12.281907 0.626388
30.829029 -13.887465 0.708273
31.050167 -14.150376 -0.714765
23.012360 -10.487336 -0.176556
31.010725 -14.132401 -0.237921
23.129843 -10.663004 0.177813
30.885197 -14.238271 0.237433
26.975016 -12.435653 0.622199
30.806540 -14.202009 0.710576
23.132963 -10.787078 -0.534660
31.088600 -14.496853 -0.718534
22.983406 -10.717338 -0.177045
31.013096 -14.461644 -0.238899
26.047674 -12.284881 0.201060
30.895435 -14.571233 0.238480
26.331957 -12.418958 0.609843
30.780901 -14.517216 0.712880
23.209402 -11.070317 -0.538639
31.069197 -14.819246 -0.721048
23.015364 -10.977765 -0.178022
30.994024 -14.783391 -0.239736
23.120359 -11.151938 0.179209
26.317760 -12.694181 0.203992
30.893196 -14.901109 0.239457
23.485058 -11.327847 0.546178
26.204571 -12.639585 0.609424
30.824139 -14.867800 0.716859
23.040026 -11.237371 -0.536964
22.900715 -11.169425 -0.177883
27.035067 -13.185883 -0.209996
31.025614 -15.132203 -0.240993
23.004225 -11.344428 0.179069
26.071455 -12.857018 0.202945
23.107342 -11.395280 0.539686
22.923189 -11.429081 -0.536545
22.891863 -11.413462 -0.178581
26.122498 -13.024197 -0.203783
30.972923 -15.442530 -0.241621
22.823986 -11.504236 0.178441
26.020773 -13.115549 0.203434
22.899887 -11.542493 0.537173
30.809944 -15.529490 0.722723
22.582062 -11.506135 -0.530890
31.071491 -15.831716 -0.730472
22.844851 -11.640033 -0.179000
30.970633 -15.780325 -0.242669
22.731615 -11.707551 0.178511
22.807177 -11.746468 0.537382
30.771023 -15.848119 0.725027
22.454189 -11.688910 -0.530262
22.414217 -11.668103 -0.176416
30.991404 -16.133104 -0.243925
22.593184 -11.886849 0.178232
22.933849 -12.066081 0.542828
24.977722 -13.141416 0.591205
30.755424 -16.181211 0.727959
22.368984 -11.893801 -0.530681
22.461639 -11.943066 -0.177603
25.048613 -13.318583 -0.198058
30.920071 -16.440493 -0.244484
22.761662 -12.230282 0.180396
25.386652 -13.640740 0.201200
30.892086 -16.598917 0.244833
23.091890 -12.407720 0.549110
30.789186 -16.543627 0.732147
23.134180 -12.560835 -0.551414
24.812353 -13.472008 -0.591414
22.444443 -12.186337 -0.178301
24.799614 -13.465092 -0.197011
30.977549 -16.819437 -0.246089
21.452980 -11.769508 0.170831
23.057352 -12.649696 0.183607
25.117609 -13.779992 0.200013
23.035326 -12.637612 0.550367
24.832222 -13.623424 0.593299
30.792656 -16.893429 0.735707
22.158003 -12.282381 -0.530681
23.320992 -12.927037 -0.558534
31.024702 -17.197273 -0.743037
22.984446 -12.740486 -0.183468
30.943291 -17.152147 -0.246997
21.349457 -11.956270 0.170831
23.260178 -13.026325 0.186120
24.900429 -13.944910 0.199245
22.662476 -12.691596 0.544084
21.980364 -12.435891 -0.529006
24.878012 -14.075302 -0.598744
31.056183 -17.570742 -0.747435
22.106497 -12.507254 -0.177324
30.983908 -17.529852 -0.248533
21.443989 -12.256249 0.172437
22.004013 -12.576329 0.530890
30.753538 -17.577095 0.741990
21.758446 -12.562244 -0.526283
31.031544 -17.916069 -0.750576
21.849289 -12.614693 -0.176137
30.976974 -17.884563 -0.249720
21.569447 -12.578930 0.174322
30.872728 -18.004444 0.249510
23.085258 -13.462925 0.559791
24.389364 -14.223457 0.591414
30.754436 -17.935457 0.745760
21.596306 -12.721196 -0.525026
31.020462 -18.272448 -0.754137
21.531588 -12.683075 -0.174462
30.957581 -18.235409 -0.250837
20.934629 -12.454796 0.170063
30.860533 -18.360086 0.250697
21.016470 -12.503486 0.512252
30.768595 -18.305389 0.749948
21.578739 -12.965815 -0.527330
31.065500 -18.666035 -0.759163
21.908663 -13.164052 -0.178441
30.942986 -18.592421 -0.252023
21.141455 -12.828950 0.172647
22.680260 -13.762719 0.185213
30.835920 -18.711695 0.251814
20.966389 -12.722717 0.513718
23.846809 -14.470599 0.584294
30.735889 -18.650995 0.753089
21.447721 -13.143181 -0.526911
23.254923 -14.250635 -0.571309
31.037819 -19.020000 -0.762514
21.213171 -12.999448 -0.173694
22.892830 -14.028745 -0.187447
30.958611 -18.971460 -0.253490
20.960672 -12.970857 0.172088
30.816013 -19.069529 0.253001
20.778049 -12.857848 0.511833
23.609102 -14.609756 0.581571
24.773829 -15.330511 0.610262
21.374603 -13.356335 -0.527958
23.138157 -14.458325 -0.571519
31.006317 -19.374897 -0.765864
21.166765 -13.226462 -0.174252
30.953001 -19.341581 -0.254816
20.981997 -13.238653 0.173205
30.842941 -19.460447 0.254607
20.580500 -12.985329 0.509739
20.759743 -13.225415 -0.515602
22.614798 -14.407215 -0.561676
20.704756 -13.190384 -0.171390
22.374630 -14.254211 -0.185213
30.977013 -19.734533 -0.256422
20.487211 -13.177817 0.170063
30.798098 -19.810003 0.255654
20.567303 -13.229334 0.512252
30.716417 -19.757463 0.765027
20.685465 -13.433298 -0.516649
23.016459 -14.947062 -0.574869
30.990465 -20.125444 -0.774032
20.882389 -13.561181 -0.173833
22.459051 -14.585078 -0.186958
30.912643 -20.074905 -0.257329
20.672489 -13.553478 0.172577
30.808031 -20.198631 0.257190
20.635015 -13.528909 0.516859
21.905891 -14.362132 0.548691
30.735136 -20.150839 0.769843
22.843460 -15.119757 -0.573822
31.005413 -20.522036 -0.778849
20.888330 -13.825685 -0.174881
22.497692 -14.890897 -0.188354
30.936411 -20.476362 -0.259005
20.960838 -14.005585 0.175998
30.813513 -20.588932 0.258725
20.266783 -13.541832 0.510576
22.776957 -15.363251 -0.575498
31.015781 -20.920410 -0.783665
24.265339 -16.367178 -0.204341
30.980379 -20.896530 -0.260890
20.308815 -13.827780 0.171530
20.544514 -13.988262 0.520629
22.007257 -14.984208 0.557697
24.155920 -16.447180 0.612147
20.821102 -14.309946 -0.529215
31.021545 -21.320518 -0.788482
20.915813 -14.375040 -0.177184
22.720606 -15.615439 -0.192473
30.928701 -21.256708 -0.262007
20.877541 -14.483265 0.177394
30.843874 -21.397158 0.262076
21.078836 -14.622910 0.537382
30.706427 -21.301805 0.782828
20.507069 -14.359204 -0.524398
22.538120 -15.781362 -0.576335
31.022675 -21.722311 -0.793299
20.740425 -14.522601 -0.176766
22.714533 -15.904887 -0.193590
30.963192 -21.680660 -0.263892
22.726582 -16.061560 0.194288
24.065840 -17.008055 0.205738
30.851967 -21.804014 0.263752
20.387068 -14.408154 0.522932
30.698988 -21.695900 0.787435
31.002859 -22.114124 -0.797697
20.580339 -14.679813 -0.176486
20.775787 -14.956427 0.178720
30.822828 -22.189262 0.265148
20.666256 -14.877575 0.533403
23.051760 -16.594893 0.594974
31.043262 -22.554251 -0.803770
20.119762 -14.617863 -0.173624
30.911785 -22.458727 -0.266754
23.870178 -17.502338 0.206645
30.821562 -22.599304 0.266824
20.616266 -15.116471 0.535498
30.702675 -22.512133 0.797487
19.939314 -14.754316 -0.519581
30.989922 -22.931335 -0.807540
20.023586 -14.816674 -0.173903
30.907543 -22.870378 -0.268429
20.703894 -15.460331 0.180396
30.791433 -22.993053 0.268290
20.467545 -15.283841 0.535079
30.737366 -22.952681 0.803561
19.849724 -14.957840 -0.520629
31.044138 -23.393436 -0.814241
19.637968 -14.798271 -0.171669
30.898455 -23.283655 -0.270105
20.202038 -15.361987 0.177184
30.836367 -23.448517 0.270454
21.057594 -16.012566 0.554136
19.615326 -15.051369 -0.517906
20.963730 -16.086037 -0.553508
31.076767 -23.846043 -0.820524
20.023750 -15.364764 -0.176207
30.940025 -23.741117 -0.272269
20.336040 -15.745845 0.179558
22.257370 -17.233496 0.196522
30.820328 -23.863647 0.272130
20.347885 -15.755016 0.539058
20.050476 -15.665148 -0.532985
19.951946 -15.588169 -0.176766
22.197721 -17.342762 -0.196662
21.030275 -16.578932 0.186958
22.380987 -17.643747 0.198966
30.830791 -24.305037 0.274084
20.201773 -15.925794 0.538848
25.674232 -20.239933 0.684817
21.204029 -16.866447 -0.567540
31.007959 -24.664845 -0.829948
20.902954 -16.626961 -0.186469
30.904444 -24.582504 -0.275690
20.323294 -16.311169 0.181932
22.070192 -17.713203 0.197570
30.804686 -24.723375 0.275760
20.030838 -16.076447 0.538011
26.401096 -21.189121 0.709110
20.931721 -16.950172 -0.564189
20.741520 -16.796152 -0.186330
20.652548 -16.873840 0.186190
30.812332 -25.174732 0.277784
20.036886 -16.370823 0.541990
25.982918 -21.228933 0.702828
20.806150 -17.151268 -0.564817
30.997076 -25.552017 -0.841466
20.802492 -17.148251 -0.188215
20.727470 -17.238855 0.188215
25.424980 -21.145733 0.230870
18.017700 -14.985163 0.490890
20.131552 -16.743235 0.548482
21.038626 -17.653503 -0.575288
20.514170 -17.213432 -0.186958
24.926479 -20.915798 -0.227170
17.943157 -15.190004 0.164129
21.957663 -18.588533 0.200851
25.071575 -21.224655 0.229334
17.832830 -15.096605 0.489424
21.754986 -18.416954 0.597068
18.686680 -15.959932 -0.514765
21.385529 -18.264967 -0.589110
18.021183 -15.391543 -0.165456
20.264326 -17.307369 -0.186051
21.868742 -18.677671 -0.200781
17.938702 -15.456974 0.165316
20.067408 -17.291185 0.184934
18.147276 -15.636694 0.501780
20.040773 -17.268234 0.554136
20.153872 -17.519493 -0.559372
21.579960 -18.759172 -0.598953
30.943851 -26.899080 -0.858849
18.452200 -16.040253 -0.170692
20.180443 -17.542591 -0.186679
21.033243 -18.283920 -0.194568
18.103861 -15.876660 0.168109
17.739529 -15.557149 0.494241
21.046898 -18.457634 0.586388
21.864710 -19.344261 -0.611519
17.914585 -15.849485 -0.166992
21.839016 -19.321529 -0.203574
17.733351 -15.827621 0.165945
17.700058 -15.797907 0.496964
17.957870 -16.169340 -0.506178
19.637011 -17.681244 -0.553508
17.968803 -16.179184 -0.168807
30.839758 -27.768244 -0.289722
30.755314 -27.936159 0.290071
18.094364 -16.435762 0.512042
23.629982 -21.463964 0.668691
30.660511 -27.850048 0.867644
17.985622 -16.480785 -0.510995
19.150265 -17.547985 -0.544084
17.826931 -16.335373 -0.168807
19.765924 -18.112133 -0.187168
30.905912 -28.320051 -0.292654
19.385641 -17.919903 0.184305
21.713387 -20.071650 0.206436
17.869490 -16.518387 0.509739
17.899612 -16.691658 -0.512670
30.936789 -28.849022 -0.886074
19.358461 -18.052057 -0.184794
30.840433 -28.759171 -0.294400
17.779102 -16.724909 0.170413
17.746508 -16.694248 0.510367
21.511360 -20.235867 0.618639
18.783075 -17.824474 -0.542409
20.175489 -19.145824 -0.582618
30.944937 -29.365648 -0.893613
17.691450 -16.788559 -0.170273
19.606392 -18.605770 -0.188703
21.847744 -20.732735 -0.210276
17.596357 -16.844847 0.170063
17.527927 -16.779341 0.508273
18.648390 -18.008541 -0.543037
20.014835 -19.328102 -0.582828
17.752874 -17.143751 -0.172298
17.627762 -17.172205 0.171809
20.001926 -19.485014 0.584922
21.820934 -21.257011 0.638116
19.866800 -19.523050 -0.583456
17.631121 -17.326056 -0.172577
17.576660 -17.423941 0.172786
30.743176 -30.476055 0.302219
30.616478 -30.350456 0.903037
19.723953 -19.723953 -0.584294
22.268978 -22.268978 -0.659686
17.472183 -17.472183 -0.172507
17.311300 -17.463034 0.171669
30.750614 -31.020142 0.304941
17.005266 -17.154316 0.505969
30.617924 -30.886288 0.910995
19.621155 -19.966633 -0.586388
22.592360 -22.990150 -0.675184
17.508287 -17.816563 -0.174392
19.716097 -20.063246 -0.196383
30.734121 -31.275270 -0.306128
21.379778 -21.946957 0.213906
30.681099 -31.495029 0.306966
17.175833 -17.631487 0.515602
30.542566 -31.352821 0.916859
17.751574 -18.382294 -0.535288
30.905518 -32.003601 -0.931938
30.744831 -31.837204 -0.308991
17.460279 -18.239246 0.176277
17.035145 -17.795145 0.516021
30.495951 -31.856485 0.923770
17.218855 -18.144886 -0.523979
19.868439 -20.936966 -0.604608
30.927870 -32.591175 -0.941152
17.153378 -18.075890 -0.173973
30.754932 -32.408936 -0.311923
17.190823 -18.274382 0.175160
17.166920 -18.248974 0.524817
20.646381 -22.140533 -0.634136
30.915024 -33.152306 -0.949529
17.192760 -18.436977 -0.175998
30.750557 -32.975933 -0.314785
16.874575 -18.254812 0.173554
30.647106 -33.153854 0.315204
18.215015 -19.704893 0.562095
30.854193 -33.671444 -0.956650
20.490152 -22.361076 -0.211742
30.758873 -33.567421 -0.317857
20.405836 -22.465073 0.211881
19.326305 -21.276604 0.602095
30.880295 -34.296043 -0.966702
18.153070 -20.161028 -0.189402
30.759184 -34.161533 -0.320929
30.623152 -34.310341 0.321068
18.440876 -20.661257 0.580105
20.391481 -22.846725 0.641466
30.838198 -34.856243 -0.974870
18.055956 -20.408546 -0.190239
30.698439 -34.698273 -0.323442
30.606087 -34.899555 0.324070
19.090467 -21.768505 0.606492
30.821453 -35.456024 -0.984084
30.709375 -35.327095 -0.326793
20.561432 -23.862715 0.219910
30.581049 -35.491055 0.327072
19.650286 -22.805279 0.630576
30.796566 -36.058144 -0.993299
30.685673 -35.928307 -0.329865
20.643158 -24.384684 0.223051
30.535074 -36.069489 0.329934
19.056477 -22.510420 0.617801
30.750641 -36.647186 -1.002095
19.257448 -22.950132 -0.209159
30.615229 -36.485809 -0.332517
19.048424 -22.903240 0.207972
30.500498 -36.672863 0.333006
19.178963 -23.060196 0.628273
30.464020 -37.286098 0.336148
30.363195 -37.162693 1.005236
30.387844 -37.862469 0.338940
30.263020 -37.706944 1.012775
30.303911 -38.440327 0.341733
30.205158 -38.315060 1.021990
30.285650 -39.114460 0.345363
30.090000 -38.861774 1.029529
30.046061 -39.512577 0.346550
29.961533 -39.401417 1.036859
29.825922 -39.941753 1.044189
0.128507 -0.178507 0.004607
29.416361 -40.861900 1.054660
0.153895 -0.221839 0.001885
0.153865 -0.221796 0.005654
0.135044 -0.198338 0.005026
0.155556 -0.232806 0.001955
0.166635 -0.249386 0.006283
0.153518 -0.234154 0.001955
0.148007 -0.225748 0.005654
0.151469 -0.235485 0.001955
0.162257 -0.252256 0.006283
0.128064 -0.202970 0.001676
0.117369 -0.186019 0.004607
0.147336 -0.238093 0.001955
0.136786 -0.221043 0.005445
0.129690 -0.213723 0.001745
0.119292 -0.196587 0.004817
0.138046 -0.232034 0.001885
0.127795 -0.214804 0.005236
0.110806 -0.190002 0.004607