# This PCD file was generated using the MATLAB® pcwrite function
# from Computer Vision System Toolbox®.
# .PCD v.7 - Point Cloud Data file format
VERSION .7
FIELDS x y z
SIZE 4 4 4
TYPE F F F
COUNT 1 1 1
WIDTH 754
HEIGHT 1
VIEWPOINT 0 0 0 1 0 0 0
POINTS 754
DATA ascii
27.679615 30.206999 -0.858220
27.847149 30.389832 -0.287768
27.689878 29.693760 -0.850472
27.872593 29.889698 -0.285324
27.679548 29.168159 -0.842304
27.836380 29.333426 -0.282322
27.634394 28.616253 -0.833299
27.792604 28.780085 -0.279320
27.693859 28.181477 -0.827644
27.790375 28.279692 -0.276807
27.677158 27.677158 -0.819896
27.710840 27.710840 -0.273596
27.625263 27.147270 -0.811309
27.709105 27.229662 -0.271222
27.602207 26.655142 -0.803770
27.657942 26.708963 -0.268429
27.637955 26.227440 -0.798116
27.628836 26.218786 -0.265916
27.602547 25.739792 -0.790576
27.593302 25.731171 -0.263403
27.560753 25.254778 -0.783037
27.588245 25.279970 -0.261239
27.542337 24.799231 -0.776335
27.532845 24.790686 -0.258656
27.518085 24.345945 -0.769634
27.508472 24.337440 -0.256422
27.488041 23.894989 -0.762932
27.508493 23.912769 -0.254467
27.452238 23.446426 -0.756231
27.480402 23.470480 -0.252303
27.449011 23.032455 -0.750576
27.431383 23.017664 -0.249999
27.432953 22.613981 -0.744712
27.415154 22.599308 -0.248044
27.349539 22.147219 -0.737173
27.339329 22.138952 -0.245601
27.385279 21.783234 -0.732985
27.374966 21.775032 -0.244204
27.353733 21.371078 -0.727121
27.374826 21.387558 -0.242529
27.277437 20.930714 -0.720210
27.266890 20.922621 -0.239946
27.299360 20.571543 -0.716021
27.296696 20.569536 -0.238619
27.220661 20.142229 -0.709320
27.209892 20.134260 -0.236316
27.241716 19.792265 -0.705341
27.230848 19.784369 -0.234989
27.209913 19.408642 -0.700105
27.207077 19.406620 -0.233314
27.255402 19.084436 -0.696964
27.211567 19.053745 -0.231917
27.181961 18.681644 -0.690890
27.170778 18.673958 -0.230172
27.153315 18.315142 -0.686074
27.142029 18.307529 -0.228566
27.138506 18.133371 0.227868
27.124903 18.124281 0.683351
27.112019 17.945055 -0.681047
27.100628 17.937515 -0.226891
27.086649 17.758785 0.226123
27.073008 17.749842 0.678116
27.133427 17.620653 -0.677697
27.088400 17.591412 -0.225495
27.072386 17.413544 0.224727
27.100742 17.431784 0.674974
27.083792 17.254278 -0.672671
27.072206 17.246897 -0.224098
27.054174 17.069912 0.223331
27.091177 17.093260 0.670995
27.029844 16.890121 -0.667644
27.052074 16.904013 -0.222702
27.040543 16.733194 0.222004
27.001263 16.708889 0.665131
27.039814 16.570019 -0.664294
27.062140 16.583700 -0.221585
27.040203 16.408398 0.220817
27.052027 16.415573 0.662828
27.011988 16.230440 -0.660105
27.034397 16.243904 -0.220189
27.010485 16.069550 0.219421
26.979443 16.051083 0.657592
26.980307 15.892615 -0.655917
26.933870 15.865263 -0.218234
26.985563 15.737515 0.218095
27.023485 15.759630 0.655288
27.022724 15.601578 -0.653613
26.967375 15.569620 -0.217396
26.982962 15.422033 0.216978
26.986382 15.423987 0.651100
26.905497 15.222397 -0.647540
26.893335 15.215517 -0.215721
26.907122 15.068712 0.215302
26.910599 15.070660 0.646074
26.967356 14.948250 -0.645864
26.963869 14.946317 -0.215232
26.932390 14.775615 0.214464
26.935904 14.777543 0.643561
26.894691 14.602627 -0.641047
26.908724 14.610245 -0.213766
26.875322 14.440631 0.212998
26.843660 14.423619 0.638325
26.844547 14.273499 -0.636859
26.832123 14.266893 -0.212160
26.867569 14.135713 0.211951
26.906572 14.156232 0.636859
26.888269 13.997148 -0.634974
26.911253 14.009111 -0.211811
26.918783 13.864084 0.211393
26.886871 13.847649 0.633508
26.866863 13.689350 -0.631623
26.889921 13.701099 -0.210694
26.895870 13.556635 0.210276
26.863844 13.540492 0.630157
26.779510 13.351771 -0.626807
26.829479 13.376684 -0.209298
26.833778 13.232955 0.208879
26.801647 13.217110 0.625969
26.895006 13.117571 -0.626807
26.882275 13.111362 -0.208809
26.840153 12.946154 0.208042
26.843925 12.947973 0.624294
26.864071 12.813504 -0.623456
26.851257 12.807393 -0.207692
26.843575 12.660252 0.207204
26.811214 12.644989 0.620943
26.748339 12.472955 -0.618220
26.771679 12.483839 -0.206226
26.807734 12.358534 0.206087
26.847904 12.377053 0.619267
26.828873 12.226622 -0.617592
26.770409 12.199978 -0.205389
26.805151 12.074840 0.205249
26.772579 12.060167 0.615079
26.742744 11.906637 -0.613194
26.729689 11.900825 -0.204272
26.726444 11.759916 0.203853
26.730385 11.761651 0.611728
26.818125 11.660852 -0.612566
26.814182 11.659139 -0.204132
26.791298 11.510450 0.203574
26.795261 11.512153 0.610890
26.734802 11.348249 -0.608377
26.721605 11.342649 -0.202666
26.706289 11.198876 0.202177
26.710302 11.200560 0.606702
26.758921 11.083908 -0.606702
26.745661 11.078415 -0.202107
26.728958 10.935105 0.201619
26.695988 10.921617 0.604189
26.706308 10.790049 -0.603351
26.730059 10.799644 -0.201270
26.711912 10.656972 0.200781
26.753134 10.673418 0.603351
26.678524 10.508950 -0.600629
26.711637 10.521994 -0.200432
26.692055 10.379972 0.199943
26.696169 10.381573 0.600000
26.666544 10.236327 -0.598325
26.699749 10.249074 -0.199664
26.632002 10.089963 0.198826
26.645508 10.095080 0.596859
26.679937 9.975220 -0.596650
26.666407 9.970161 -0.198756
26.643984 9.829485 0.198268
26.648170 9.831029 0.594974
26.690813 9.714662 -0.594974
26.667828 9.706295 -0.198128
26.653456 9.569569 0.197709
26.657669 9.571081 0.593299
26.623781 9.427976 -0.591623
26.610121 9.423138 -0.197081
26.632103 9.300346 0.196941
26.636349 9.301829 0.590995
26.601057 9.159478 -0.589320
26.606245 9.161264 -0.196453
26.598619 9.029015 0.196104
26.631302 9.040109 0.589110
26.604126 8.901616 -0.587644
26.628279 8.909698 -0.196034
26.552940 8.755847 0.195196
26.604733 8.772925 0.586807
26.604725 8.644400 -0.585969
26.581383 8.636814 -0.195126
26.590242 8.511603 0.194917
26.556494 8.500800 0.584084
26.602867 8.387852 -0.584294
26.588980 8.383473 -0.194638
26.558458 8.246620 0.194149
26.553280 8.245012 0.582409
26.598564 8.131997 -0.582618
26.584625 8.127735 -0.194079
26.552807 7.991488 0.193590
26.557203 7.992811 0.580943
26.543896 7.862660 -0.579896
26.616188 7.884074 -0.193800
26.535131 7.734285 0.192962
26.539557 7.735575 0.579058
26.505783 7.600411 -0.577592
26.530176 7.607406 -0.192683
26.534245 7.483431 0.192473
26.538694 7.484686 0.577592
26.571098 7.368818 -0.577592
26.557009 7.364910 -0.192404
26.521357 7.230552 0.191915
26.487249 7.221253 0.575079
26.508848 7.103024 -0.574869
26.494699 7.099234 -0.191496
26.506083 6.978469 0.191356
26.510584 6.979654 0.574241
26.540787 6.863914 -0.574241
26.555643 6.867756 -0.191496
26.488436 6.727206 0.190798
26.492962 6.728355 0.572566
26.522068 6.612694 -0.572566
26.546644 6.618822 -0.191007
26.507278 6.486290 0.190519
26.550669 6.496907 0.572566
26.452383 6.350655 -0.569843
26.525604 6.368234 -0.190449
26.523939 6.245558 0.190239
26.489573 6.237466 0.570053
26.428862 6.101583 -0.568168
26.424273 6.100524 -0.189332
26.460392 5.987376 0.189402
26.503990 5.997241 0.569215
26.481102 5.870719 -0.568168
26.466740 5.867535 -0.189262
26.423685 5.737144 0.188773
26.477156 5.748754 0.567540
26.501986 5.633171 -0.567540
26.487591 5.630111 -0.189053
26.443375 5.500230 0.188564
26.448008 5.501194 0.565864
26.471758 5.385740 -0.565864
26.447523 5.380809 -0.188424
26.411903 5.253654 0.188005
26.406755 5.252630 0.563979
26.439236 5.139267 -0.564189
26.424759 5.136453 -0.187936
26.407623 5.013644 0.187656
26.382830 5.008937 0.562513
26.404434 4.893773 -0.562513
26.429247 4.898372 -0.187656
26.371649 4.768771 0.187098
26.425537 4.778515 0.562513
26.406752 4.656223 -0.561676
26.431597 4.660604 -0.187377
26.372837 4.531682 0.186819
26.387403 4.534185 0.560838
26.357632 4.410755 -0.559791
26.382498 4.414916 -0.186749
26.371901 4.294937 0.186539
26.386494 4.297314 0.560000
26.316122 4.168064 -0.558115
26.350883 4.173570 -0.186260
26.339191 4.053989 0.186051
26.383465 4.060803 0.559163
26.321829 3.933824 -0.557487
26.336851 3.936069 -0.185911
26.284500 3.811071 0.185422
26.299164 3.813197 0.556650
26.355154 3.703975 -0.557487
26.330585 3.700523 -0.185632
26.287031 3.577508 0.185213
26.291813 3.578159 0.555812
26.346825 3.468625 -0.556650
26.332134 3.466691 -0.185422
26.317249 3.347977 0.185213
26.282366 3.343539 0.554974
26.286781 3.227611 -0.554765
26.321682 3.231896 -0.185143
26.256090 3.107613 0.184585
26.260900 3.108182 0.553927
26.284145 2.994700 -0.554136
26.309141 2.997548 -0.184864
26.292149 2.879459 0.184654
26.296963 2.879986 0.554136
26.269506 2.761036 -0.553299
26.284573 2.762620 -0.184515
26.236681 2.641895 0.184096
26.241512 2.642381 0.552461
26.282648 2.530731 -0.553089
26.277819 2.530266 -0.184305
26.258736 2.412839 0.184096
26.263573 2.413283 0.552461
26.234013 2.295179 -0.551623
26.249090 2.296498 -0.183956
26.199068 2.176975 0.183537
26.203924 2.177378 0.550786
26.163342 2.059100 -0.549739
26.188379 2.061070 -0.183398
26.217068 1.948265 0.183537
26.271780 1.952330 0.551833
26.180313 1.830706 -0.549739
26.165468 1.829668 -0.183118
26.193159 1.716790 0.183258
26.198029 1.717109 0.549948
26.195292 1.602173 -0.549739
26.220362 1.603706 -0.183398
26.127274 1.483614 0.182700
26.132162 1.483892 0.548273
26.168339 1.371425 -0.548901
26.153471 1.370645 -0.182839
26.139225 1.255557 0.182700
26.184061 1.257711 0.549110
26.099405 1.139525 -0.547225
26.084513 1.138874 -0.182281
26.149187 1.027404 0.182700
26.114119 1.026026 0.547435
26.148321 0.913119 -0.548063
26.163414 0.913647 -0.182769
26.157156 0.799173 0.182700
26.122078 0.798102 0.547435
26.125311 0.684115 -0.547435
26.140402 0.684511 -0.182560
26.083157 0.569137 0.182141
26.128048 0.570116 0.547435
26.080305 0.455233 -0.546388
26.095388 0.455497 -0.182211
26.127125 0.342023 0.182420
26.132029 0.342087 0.547435
26.093283 0.227713 -0.546597
26.118368 0.227932 -0.182351
26.089115 0.113836 0.182141
26.094027 0.113857 0.546597
26.164261 0.000000 -0.548063
26.149363 0.000000 -0.182560
26.089115 -0.113836 0.182141
26.104025 -0.113901 0.546807
26.093283 -0.227713 -0.546597
26.118368 -0.227932 -0.182351
26.087130 -0.341499 0.182141
26.092041 -0.341564 0.546597
26.080305 -0.455233 -0.546388
26.105387 -0.455671 -0.182281
26.043165 -0.568264 0.181862
26.098061 -0.569462 0.546807
26.085335 -0.683069 -0.546597
26.070427 -0.682678 -0.182071
26.037216 -0.795509 0.181862
26.042133 -0.795659 0.545759
26.068388 -0.910328 -0.546388
26.063478 -0.910157 -0.182071
25.989313 -1.021123 0.181583
25.994238 -1.021316 0.544922
26.069439 -1.138216 -0.546597
26.054543 -1.137566 -0.182071
26.019367 -1.249800 0.181862
26.024281 -1.250036 0.545759
26.048531 -1.365146 -0.546388
26.043623 -1.364888 -0.182071
26.007469 -1.476811 0.181862
26.012381 -1.477090 0.545759
26.005688 -1.590576 -0.545759
26.020741 -1.591497 -0.182001
25.953678 -1.701094 0.181583
25.998501 -1.704032 0.545759
26.020739 -1.819547 -0.546388
26.015837 -1.819204 -0.182071
25.977734 -1.930479 0.181862
25.982639 -1.930844 0.545759
26.003868 -2.046549 -0.546388
25.998970 -2.046163 -0.182071
25.999760 -2.160414 0.182141
26.014618 -2.161648 0.546807
25.985020 -2.273395 -0.546388
26.010010 -2.275581 -0.182281
25.940086 -2.383559 0.181862
25.984808 -2.387668 0.546597
25.974142 -2.501025 -0.546597
25.959301 -2.499596 -0.182071
25.918299 -2.609835 0.181862
25.923193 -2.610328 0.545759
25.871784 -2.719234 -0.544922
25.886774 -2.720810 -0.181722
25.894537 -2.835913 0.181862
25.899427 -2.836448 0.545759
25.926538 -2.953956 -0.546597
25.951464 -2.956796 -0.182351
25.908525 -3.066476 0.182141
25.913403 -3.067053 0.546597
25.899773 -3.180092 -0.546597
25.924673 -3.183150 -0.182351
25.920458 -3.297499 0.182420
25.925322 -3.298118 0.547435
25.910685 -3.411206 -0.547435
25.925652 -3.413177 -0.182560
25.930328 -3.528963 0.182700
25.945086 -3.530971 0.548482
25.879930 -3.637187 -0.547435
25.894878 -3.639288 -0.182560
25.898546 -3.755111 0.182700
25.863813 -3.750074 0.547435
25.837317 -3.861413 -0.547225
25.822575 -3.859210 -0.182281
25.864790 -3.980972 0.182700
25.909155 -3.987800 0.549110
25.891508 -4.100812 -0.549110
25.866928 -4.096919 -0.182839
25.829065 -4.206531 0.182700
25.873369 -4.213746 0.549110
25.844875 -4.324949 -0.548901
25.830191 -4.322492 -0.182839
25.909637 -4.452090 0.183537
25.875027 -4.446143 0.549948
25.845533 -4.557265 -0.549739
25.830877 -4.554681 -0.183118
25.830439 -4.670904 0.183258
25.835241 -4.671772 0.549948
25.834272 -4.788099 -0.550367
25.819645 -4.785388 -0.183328
25.827991 -4.903597 0.183537
25.832779 -4.904506 0.550786
25.791504 -5.013361 -0.550367
25.776901 -5.010522 -0.183328
25.784216 -5.128799 0.183537
25.788996 -5.129750 0.550786
25.746773 -5.238240 -0.550367
25.820387 -5.253217 -0.183956
25.816799 -5.369902 0.184096
25.821556 -5.370891 0.552461
25.748978 -5.473114 -0.551414
25.734436 -5.470023 -0.183677
25.768957 -5.594989 0.184096
25.773703 -5.596019 0.552461
25.827127 -5.725736 -0.554136
25.812637 -5.722524 -0.184585
25.758163 -5.828477 0.184375
25.753141 -5.827341 0.553089
25.805403 -5.957646 -0.554765
25.790947 -5.954309 -0.184794
25.784187 -6.071371 0.184934
25.788893 -6.072478 0.554974
25.752430 -6.182611 -0.554765
25.747728 -6.181483 -0.184864
25.730225 -6.296146 0.184934
25.734919 -6.297295 0.554974
25.707197 -6.409524 -0.554974
25.692804 -6.405936 -0.184864
25.713070 -6.530288 0.185213
25.717747 -6.531476 0.555812
25.727720 -6.653641 -0.556650
25.752100 -6.659946 -0.185702
25.693785 -6.764609 0.185492
25.737118 -6.776018 0.557487
25.707306 -6.888252 -0.557487
25.731636 -6.894771 -0.185981
25.710955 -7.009611 0.186051
25.677006 -7.000355 0.557487
25.684753 -7.123013 -0.558325
25.670490 -7.119057 -0.185981
25.687304 -7.244569 0.186330
25.730410 -7.256726 0.560000
25.612005 -7.344124 -0.558115
25.684286 -7.364851 -0.186539
25.661507 -7.479647 0.186609
25.666103 -7.480987 0.560000
25.700319 -7.612782 -0.561466
25.734095 -7.622786 -0.187377
25.671862 -7.726354 0.187168
25.676432 -7.727729 0.561676
25.642469 -7.839689 -0.561676
25.666594 -7.847065 -0.187377
25.641661 -7.961947 0.187447
25.646210 -7.963360 0.562513
25.639824 -8.084206 -0.563142
25.625750 -8.079768 -0.187586
25.685490 -8.221990 0.188285
25.651917 -8.211243 0.564189
25.644369 -8.332360 -0.564817
25.630348 -8.327806 -0.188145
25.612761 -8.445822 0.188285
25.617264 -8.447307 0.565026
25.618086 -8.571692 -0.565864
25.604115 -8.567017 -0.188494
25.575960 -8.681869 0.188564
25.580441 -8.683390 0.565864
25.580122 -8.807942 -0.566702
25.632383 -8.825937 -0.189262
25.574749 -8.931102 0.189122
25.579201 -8.932657 0.567540
25.568254 -9.054193 -0.568168
25.592093 -9.062635 -0.189541
25.580542 -9.184353 0.189751
25.613192 -9.196075 0.570053
25.591614 -9.314586 -0.570472
25.577810 -9.309562 -0.190030
25.527565 -9.417616 0.189960
25.531967 -9.419240 0.570053
25.593637 -9.569069 -0.572356
25.579895 -9.563931 -0.190658
25.556622 -9.682538 0.190798
25.560989 -9.684193 0.572566
25.555826 -9.809962 -0.573403
25.570145 -9.815459 -0.191217
25.536394 -9.930560 0.191287
25.550051 -9.935871 0.574241
25.534361 -10.058252 -0.574869
25.520733 -10.052884 -0.191496
25.495201 -10.171554 0.191636
25.499517 -10.173276 0.575079
25.519773 -10.310658 -0.576545
25.515478 -10.308922 -0.192124
25.433233 -10.405010 0.191845
25.483795 -10.425695 0.576754
25.475010 -10.552094 -0.577592
25.461500 -10.546498 -0.192404
25.461348 -10.676829 0.192753
25.465605 -10.678615 0.578430
25.455580 -10.805253 -0.579267
25.478954 -10.815174 -0.193241
25.440708 -10.930191 0.193311
25.444935 -10.932007 0.580105
25.470341 -11.074820 -0.581780
25.493649 -11.084954 -0.194079
25.454191 -11.200112 0.194149
25.458380 -11.201956 0.582618
25.409260 -11.312932 -0.582618
25.432486 -11.323272 -0.194358
25.428423 -11.454670 0.194707
25.423466 -11.452436 0.584084
25.382351 -11.567404 -0.584294
25.405500 -11.577953 -0.194917
25.400146 -11.709627 0.195266
25.404274 -11.711531 0.585969
25.425419 -11.856068 -0.587644
25.412251 -11.849927 -0.195755
25.369349 -11.964962 0.195824
25.373446 -11.966894 0.587644
25.393179 -12.111925 -0.589320
25.380079 -12.105677 -0.196313
25.372051 -12.238025 0.196662
25.376110 -12.239983 0.590157
25.358406 -12.368120 -0.590995
25.381325 -12.379299 -0.197151
25.371912 -12.512042 0.197500
25.375933 -12.514025 0.592671
25.312141 -12.620168 -0.592461
25.334974 -12.631553 -0.197639
25.333195 -12.768982 0.198058
25.328257 -12.766492 0.594136
25.343576 -12.913197 -0.595812
25.366337 -12.924794 -0.198756
25.283031 -13.021617 0.198547
25.295879 -13.028234 0.596021
25.238792 -13.138483 -0.596021
25.225973 -13.131810 -0.198547
25.283482 -13.302282 0.199455
25.287399 -13.304344 0.598534
25.264418 -13.433330 -0.599372
25.251686 -13.426559 -0.199664
25.263330 -13.574477 0.200223
25.311247 -13.600224 0.601885
25.286810 -13.729617 -0.602723
25.274164 -13.722752 -0.200781
25.222815 -13.837709 0.200851
25.252958 -13.854247 0.603351
25.235989 -13.988537 -0.604398
25.258402 -14.000960 -0.201619
25.240694 -14.135468 0.201968
25.244497 -14.137597 0.606074
25.252182 -14.286998 -0.607749
25.239700 -14.279935 -0.202457
25.220560 -14.414738 0.202806
25.259045 -14.436733 0.609424
25.152521 -14.521814 -0.608377
25.140104 -14.514647 -0.202666
25.197468 -14.694729 0.203643
25.235737 -14.717047 0.611938
25.197126 -14.842241 -0.612566
25.227886 -14.860361 -0.204411
25.197182 -14.990748 0.204691
25.200861 -14.992937 0.614241
25.212332 -15.149097 -0.616126
25.200104 -15.141750 -0.205249
25.167992 -15.272312 0.205528
25.180180 -15.279708 0.616964
25.138844 -15.405104 -0.617592
25.169325 -15.423781 -0.206087
25.135799 -15.554504 0.206366
25.181910 -15.583038 0.620314
25.139111 -15.708660 -0.620943
25.160975 -15.722322 -0.207134
25.176704 -15.885317 0.207832
25.171795 -15.882220 0.623456
25.102257 -15.991901 -0.623456
25.132452 -16.011139 -0.208042
25.138044 -16.169333 0.208670
25.099508 -16.144547 0.625131
25.062365 -16.275690 -0.625969
25.084026 -16.289757 -0.208809
25.062885 -16.431948 0.209228
25.091444 -16.450670 0.628482
25.061110 -16.587587 -0.629529
25.082674 -16.601860 -0.209996
25.076513 -16.755590 0.210555
25.113188 -16.780096 0.632671
25.072886 -16.911875 -0.633508
25.061195 -16.903990 -0.211043
25.061590 -17.063829 0.211672
25.031912 -17.043623 0.634346
24.990265 -17.175333 -0.635184
24.978657 -17.167355 -0.211602
25.018539 -17.355978 0.212579
25.046520 -17.375389 0.638534
24.970469 -17.484510 -0.638534
24.999910 -17.505127 -0.213068
24.988623 -17.660212 0.213627
25.024574 -17.685621 0.641885
24.987865 -17.823671 -0.642932
24.968315 -17.809725 -0.214115
24.995869 -17.994452 0.215023
24.966654 -17.973419 0.644398
24.985054 -18.152704 -0.646911
24.973745 -18.144489 -0.215512
24.902403 -18.259197 0.215581
24.970112 -18.308844 0.648587
24.986429 -18.488985 -0.651100
24.975224 -18.480694 -0.216908
24.974472 -18.649323 0.217606
25.001648 -18.669615 0.653613
24.919949 -18.778528 -0.653613
24.940779 -18.794226 -0.218025
24.930176 -18.957346 0.218653
24.933273 -18.959702 0.656126
24.913763 -19.117002 -0.657801
24.902754 -19.108555 -0.219142
24.890301 -19.272131 0.219770
24.924974 -19.298977 0.660315
24.903557 -19.456791 -0.661990
24.892653 -19.448273 -0.220538
24.878235 -19.612419 0.221166
24.912642 -19.639544 0.664503
24.850183 -19.766729 -0.665131
24.878508 -19.789259 -0.221934
24.862112 -19.953955 0.222563
24.865061 -19.956322 0.667854
24.808828 -20.089792 -0.668691
24.836979 -20.112589 -0.223121
24.810936 -20.271385 0.223680
24.837069 -20.292736 0.671833
24.817719 -20.458149 -0.673718
24.830275 -20.468498 -0.224657
24.817610 -20.640589 0.225355
24.789711 -20.617386 0.675393
24.783762 -20.796045 -0.677697
24.773273 -20.787245 -0.225774
24.751026 -20.953291 0.226402
24.791985 -20.987965 0.680419
24.722979 -21.115419 -0.681047
24.743008 -21.132524 -0.227170
24.756620 -21.331669 0.228148
24.759369 -21.334036 0.684608
24.718863 -21.487780 -0.686074
24.746325 -21.511652 -0.228916
24.682299 -21.645796 0.229195
24.752655 -21.707497 0.689634
24.710117 -21.861666 -0.691100
24.737404 -21.885807 -0.230591
24.738659 -22.080097 0.231499
24.733837 -22.075794 0.694451
24.696716 -22.237022 -0.696126
24.723825 -22.261433 -0.232267
24.656065 -22.395992 0.232546
24.688261 -22.425238 0.698639
24.649147 -22.586782 -0.700315
24.668699 -22.604698 -0.233593
24.665293 -22.800362 0.234501
24.667826 -22.802704 0.703665
24.655838 -22.991941 -0.706178
24.646019 -22.982784 -0.235268
24.640190 -23.179176 0.236176
24.642668 -23.181507 0.708691
24.621059 -23.364513 -0.710995
24.618607 -23.362185 -0.236944
24.610340 -23.559277 0.237852
24.612764 -23.561596 0.713718
24.567259 -23.724325 -0.715393
24.586435 -23.742844 -0.238619
24.575720 -23.940607 0.239527
24.606737 -23.970821 0.719582
24.587482 -24.162050 -0.722095
24.578012 -24.152744 -0.240574
24.564714 -24.351276 0.241482
24.538624 -24.325413 0.723770
24.517084 -24.517084 -0.726283
24.507723 -24.507723 -0.241970
24.520235 -24.735153 0.243157
24.557686 -24.772934 0.730681
24.498413 -24.929768 -0.732147
24.489172 -24.920362 -0.243925
24.498825 -25.148748 0.245112
24.528933 -25.179653 0.736335
24.523008 -25.394318 -0.739477
24.520844 -25.392076 -0.246438
24.478966 -25.571060 0.247137
24.474194 -25.566076 0.741362
24.472521 -25.788656 -0.744712
24.435991 -25.750162 -0.247835
24.446733 -25.987642 0.249091
24.435118 -25.975294 0.747016
24.430641 -26.198656 -0.750367
24.428585 -26.196451 -0.250069
24.402292 -26.398251 0.250976
24.431467 -26.429813 0.753927
24.390211 -26.617247 -0.756231
24.415236 -26.644554 -0.252303
24.386150 -26.847057 0.253210
24.408285 -26.871426 0.760419
24.397840 -27.096548 -0.763770
24.369143 -27.064674 -0.254258
24.337381 -27.267733 0.255165
24.359266 -27.292252 0.766283
24.345945 -27.518085 -0.769634
24.337440 -27.508472 -0.256422
24.335861 -27.749731 0.257678
24.331116 -27.744322 0.772985
24.341011 -28.001129 -0.777173
24.339197 -27.999043 -0.259005
24.327763 -28.233759 0.260192
24.296915 -28.197958 0.779686
24.271044 -28.417742 -0.782828
24.269281 -28.415678 -0.260890
24.261364 -28.658680 0.262146
24.256634 -28.653093 0.786388
24.226074 -28.871511 -0.263124
24.189388 -29.084578 0.264101
24.210243 -29.109655 0.793089
24.181408 -29.596565 0.266824
24.183020 -29.598537 0.800629
24.153799 -30.095009 0.269407
24.149090 -30.089142 0.808168
24.131695 -30.610909 0.272130
24.102232 -30.573534 0.815498
24.073225 -31.091002 0.823665
0.151872 -0.210963 0.005445
0.153895 -0.221839 0.001885
0.136769 -0.197152 0.005026
0.151924 -0.223130 0.005654
0.155556 -0.232806 0.001955
0.166635 -0.249386 0.006283
0.148007 -0.225748 0.005654
0.129831 -0.201844 0.001676
0.140623 -0.218622 0.005445
0.128064 -0.202970 0.001676
0.117369 -0.186019 0.004607
0.126288 -0.204080 0.001676
0.115742 -0.187036 0.004607
0.114127 -0.188076 0.001536
0.119292 -0.196587 0.004817
0.117595 -0.197659 0.001606
0.102236 -0.171844 0.004188
0.130953 -0.224548 0.005445