# This PCD file was generated using the MATLAB® pcwrite function
# from Computer Vision System Toolbox®.
# .PCD v.7 - Point Cloud Data file format
VERSION .7
FIELDS x y z
SIZE 4 4 4
TYPE F F F
COUNT 1 1 1
WIDTH 894
HEIGHT 1
VIEWPOINT 0 0 0 1 0 0 0
POINTS 894
DATA ascii
30.615011 32.830578 -0.940315
30.518682 32.727280 -0.312411
30.514948 32.156044 -0.928587
30.396997 32.031750 -0.308292
30.467979 31.550516 -0.918744
30.265528 31.340872 -0.304173
30.545935 31.083769 -0.912880
30.425730 30.961447 -0.303057
30.561522 30.561522 -0.905341
30.532127 30.532127 -0.301451
30.484770 29.957300 -0.895288
30.362331 29.836981 -0.297192
29.882013 28.856726 -0.870158
30.369785 29.327763 -0.294749
29.820852 28.298933 -0.861152
29.899202 28.373283 -0.287768
30.183661 28.146717 -0.864503
29.853130 27.838495 -0.284975
30.450247 27.902512 -0.865131
30.065437 27.549898 -0.284696
30.462255 27.428339 -0.858639
30.453333 27.420303 -0.286092
30.460836 26.949472 -0.851938
30.511713 26.994482 -0.284417
30.393034 26.420261 -0.843561
30.564993 26.569744 -0.282741
30.531206 26.076113 -0.841048
30.674028 26.198095 -0.281624
30.573788 25.654453 -0.836021
30.625711 25.698023 -0.279111
30.680779 25.291283 -0.832880
30.547873 25.181723 -0.276388
30.776001 24.921913 -0.829529
30.704288 24.863842 -0.275830
30.765404 24.471907 -0.823456
30.732273 24.445555 -0.274154
30.765072 24.036308 -0.817801
30.786829 24.053308 -0.272758
30.592928 23.474779 -0.807749
30.646492 23.515881 -0.269686
30.477232 22.966242 -0.799372
30.626925 23.079044 -0.267731
30.346977 22.455582 -0.790786
30.320742 22.436169 -0.263333
30.388102 22.078249 -0.786807
30.377848 22.070799 -0.262146
30.652866 21.864477 -0.788692
30.439037 21.711954 -0.261029
30.473963 21.338099 -0.779267
29.873747 20.917824 -0.254607
29.760910 20.454107 -0.756440
29.857365 20.520397 -0.252931
30.773186 20.952717 0.259912
30.601906 20.836096 0.775498
30.104040 20.305431 -0.760629
30.342035 20.465961 -0.255514
30.755312 20.550041 0.258237
30.682812 20.501600 0.772985
30.596897 20.251644 -0.768587
30.744621 20.349421 -0.257399
30.699316 20.127354 0.256282
30.735136 20.150839 0.769843
30.839539 20.027430 -0.770262
30.828779 20.020443 -0.256631
30.814919 19.820822 0.255793
30.649149 19.714195 0.763351
30.878222 19.671597 -0.766911
30.799906 19.621704 -0.254956
30.783743 19.423096 0.254118
30.684732 19.360624 0.760000
30.777395 19.231850 -0.760210
30.766436 19.225002 -0.253280
30.816013 19.069529 0.253001
30.758997 19.034245 0.757697
30.875854 18.920748 -0.758534
30.822191 18.887863 -0.252373
30.844469 18.716883 0.251884
30.855551 18.723608 0.756021
30.928383 18.583647 -0.755812
30.917271 18.576971 -0.251814
30.972252 18.426554 0.251605
30.940437 18.407625 0.754137
30.882631 18.191259 -0.750786
30.983429 18.250635 -0.251046
31.002300 18.080008 0.250557
30.970348 18.061373 0.750995
30.944960 17.866081 -0.748482
30.968313 17.879564 -0.249650
30.941853 17.684725 0.248812
30.987900 17.711044 0.747644
30.960464 17.516588 -0.745131
30.949095 17.510155 -0.248254
30.999027 17.360291 0.248044
30.992985 17.356905 0.744084
31.042191 17.206966 -0.743456
31.030750 17.200626 -0.247695
31.009069 17.012157 0.246927
31.011789 17.013651 0.740943
30.971510 16.816158 -0.738220
31.003912 16.833752 -0.246299
31.050642 16.684113 0.246089
31.018167 16.666662 0.737592
30.984663 16.474838 -0.735079
31.034851 16.501524 -0.245391
31.018061 16.319391 0.244693
31.012014 16.316210 0.734032
30.985361 16.129959 -0.731728
30.964794 16.119251 -0.243716
31.017052 15.974832 0.243576
30.984341 15.957984 0.730053
30.866606 15.727321 -0.725655
30.899353 15.744007 -0.242110
30.905249 15.577527 0.241621
30.908152 15.578991 0.725027
30.868464 15.390449 -0.722513
30.892382 15.402373 -0.240993
30.860640 15.218783 0.240225
30.863590 15.220238 0.720838
30.893763 15.067895 -0.720000
30.908773 15.075216 -0.240086
30.884190 14.896765 0.239387
30.914188 14.911235 0.718953
30.951885 14.763292 -0.718325
30.975971 14.774781 -0.239597
30.904480 14.575499 0.238550
29.243664 13.792208 0.677278
30.934563 14.425023 -0.714974
30.949657 14.432062 -0.238410
29.132523 13.430277 0.223959
30.939684 14.263390 0.237852
29.145002 13.436030 0.672252
30.950092 14.104770 -0.712461
30.965227 14.111667 -0.237572
29.157440 13.134469 0.223261
29.261143 13.181184 0.672252
30.889332 13.752816 -0.708273
29.187067 12.994919 -0.223051
29.270948 12.879525 0.223261
29.823460 13.122636 0.682513
29.247801 12.717305 -0.668063
29.198481 12.695861 -0.222283
29.850800 12.824915 0.226821
30.001141 12.889507 0.683979
29.192011 12.391273 -0.664294
29.556690 12.546071 -0.224168
29.712591 12.459523 0.224936
29.928078 12.549885 0.679791
29.650028 12.281444 -0.672252
30.126978 12.479003 -0.227659
30.042313 12.290634 0.226612
30.036455 12.288239 0.679791
30.145407 12.179535 -0.681047
30.225456 12.211877 -0.227589
30.101984 12.009474 0.226263
30.105402 12.010838 0.678953
30.306356 11.937991 -0.682304
30.247137 11.914664 -0.226961
30.093801 11.702839 0.225425
30.097252 11.704181 0.676440
30.400045 11.669484 -0.682095
30.312618 11.635923 -0.226682
30.194780 11.439779 0.225425
30.244989 11.458801 0.677487
30.191689 11.288210 -0.675184
30.169476 11.279905 -0.224866
30.227789 11.151620 0.224936
30.146856 11.121762 0.673089
30.336020 11.041409 -0.676231
30.294952 11.026461 -0.225076
30.126310 10.816450 0.223470
30.280401 10.871775 0.673927
30.318127 10.736212 -0.673718
30.305185 10.731629 -0.224448
30.219553 10.553141 0.223470
30.298611 10.580749 0.672252
30.259411 10.419151 -0.670367
30.142397 10.378860 -0.222563
30.263149 10.272955 0.223121
30.266716 10.274166 0.669529
30.121635 10.078558 -0.665341
30.307686 10.140810 -0.223121
30.237682 9.970893 0.222283
30.241283 9.972079 0.667016
30.255981 9.830764 -0.666388
30.271391 9.835772 -0.222214
30.209259 9.670060 0.221446
30.212891 9.671223 0.664503
30.264338 9.542309 -0.664712
30.327459 9.562211 -0.222004
30.254295 9.394208 0.221166
30.267492 9.398306 0.663875
30.260408 9.251535 -0.662828
30.247183 9.247492 -0.220817
30.220215 9.095253 0.220329
30.223898 9.096361 0.661152
30.215370 8.950200 -0.660105
30.250025 8.960465 -0.220259
30.183231 8.797609 0.219491
30.225340 8.809883 0.659477
30.225050 8.666894 -0.658639
30.221331 8.665828 -0.219491
30.181860 8.512165 0.218932
30.185598 8.513220 0.656964
30.183920 8.370742 -0.656126
30.209078 8.377719 -0.218863
30.177813 8.227416 0.218374
30.181574 8.228441 0.655288
30.188219 8.088909 -0.654660
30.242401 8.103427 -0.218583
30.209780 7.953571 0.218095
30.213558 7.954566 0.654451
30.180223 7.805136 -0.652985
30.166746 7.801651 -0.217536
30.210192 7.672411 0.217606
30.243063 7.680759 0.653613
30.208382 7.531796 -0.652147
30.233679 7.538103 -0.217536
30.227428 7.396605 0.217257
30.240959 7.399915 0.652147
30.156300 7.239887 -0.649634
30.220520 7.255305 -0.216978
30.174021 7.105039 0.216419
30.177872 7.105945 0.649424
30.218330 6.976451 -0.649634
30.204737 6.973313 -0.216419
30.166603 6.826005 0.215930
30.238731 6.842327 0.649424
30.199974 6.695173 -0.647958
30.176575 6.689985 -0.215791
30.137074 6.543400 0.215302
30.140968 6.544246 0.646074
30.169235 6.412669 -0.646074
30.194681 6.418077 -0.215512
30.193027 6.280159 0.215302
30.196928 6.280970 0.646074
30.184858 6.141179 -0.645236
30.210342 6.146364 -0.215232
30.207451 6.008636 0.215023
30.221172 6.011365 0.645445
30.207859 5.871813 -0.644608
30.223564 5.874866 -0.214953
30.219439 5.737339 0.214744
30.223370 5.738086 0.644398
30.208797 5.598869 -0.643561
30.195023 5.596317 -0.214395
30.189632 5.459175 0.214185
30.232939 5.467006 0.643561
30.226967 5.329830 -0.642932
30.252558 5.334342 -0.214464
30.196701 5.188742 0.213906
30.249935 5.197889 0.642932
30.223024 5.057600 -0.641885
30.248642 5.061887 -0.214115
30.201353 4.918602 0.213627
30.254671 4.927286 0.642095
30.157387 4.776461 -0.639582
30.222527 4.786778 -0.213627
30.253008 4.656384 0.213696
30.256992 4.656997 0.641257
30.148479 4.505721 -0.638534
30.213697 4.515468 -0.213278
30.243010 4.385028 0.213347
30.247007 4.385607 0.640210
30.236155 4.249414 -0.639582
30.251953 4.251635 -0.213278
30.250399 4.116899 0.213138
30.254408 4.117444 0.639582
30.232437 3.980176 -0.638744
30.218502 3.978341 -0.212789
30.275253 3.851499 0.213068
30.328857 3.858318 0.640419
30.216402 3.710108 -0.637697
30.252069 3.714487 -0.212789
30.238197 3.578927 0.212579
30.321659 3.588805 0.639582
30.257561 3.447414 -0.637906
30.243589 3.445822 -0.212510
30.268278 3.314916 0.212579
30.272316 3.315358 0.637906
30.246721 3.179059 -0.637068
30.262564 3.180724 -0.212440
30.216457 3.042637 0.212021
30.260303 3.047052 0.637068
30.263359 2.914030 -0.636859
30.299122 2.917474 -0.212510
30.271732 2.781581 0.212230
30.285742 2.782869 0.637068
30.257757 2.647211 -0.636231
30.273619 2.648598 -0.212160
30.264957 2.514824 0.212021
30.308874 2.518473 0.637068
30.279707 2.383065 -0.636231
30.305548 2.385098 -0.212230
30.285749 2.250620 0.212021
30.289816 2.250922 0.636231
30.249481 2.115250 -0.635184
30.275331 2.117057 -0.211881
30.304237 1.986245 0.212021
30.308306 1.986511 0.636231
30.236851 1.849365 -0.634555
30.262709 1.850947 -0.211672
30.320415 1.721718 0.212021
30.324488 1.721949 0.636231
30.281792 1.587001 -0.635184
30.317654 1.588881 -0.211951
30.294333 1.455141 0.211742
30.338358 1.457256 0.636231
30.344429 1.324866 -0.636231
30.320375 1.323816 -0.211881
30.305878 1.190721 0.211742
30.279989 1.189704 0.634765
30.304876 1.058270 -0.635184
30.340767 1.059523 -0.211951
30.285130 0.925294 0.211532
30.199280 0.922671 0.632880
30.312958 0.793773 -0.635184
30.338860 0.794451 -0.211881
30.242064 0.659884 0.211183
30.246164 0.659974 0.633718
30.318729 0.529215 -0.635184
30.254654 0.528097 -0.211253
30.206676 0.395427 0.210904
30.210783 0.395481 0.632880
30.232216 0.263833 -0.633299
30.228113 0.263797 -0.211043
30.208977 0.131812 0.210904
30.213085 0.131830 0.632880
30.213373 0.000000 -0.632880
30.229263 0.000000 -0.211043
30.208977 -0.131812 0.210904
22.734797 -0.099200 0.476231
30.243078 -0.131961 0.633508
30.212221 -0.263658 -0.632880
30.228113 -0.263797 -0.211043
30.206676 -0.395427 0.210904
22.783051 -0.298246 0.477278
30.190790 -0.395219 0.632461
30.208771 -0.527296 -0.632880
30.194664 -0.527050 -0.210834
30.162085 -0.658139 0.210625
22.799570 -0.497488 0.477697
30.166201 -0.658229 0.632042
30.163042 -0.789847 -0.632042
30.188915 -0.790525 -0.210834
30.195173 -0.922546 0.210904
30.199280 -0.922671 0.632880
30.194967 -1.054431 -0.632880
30.180868 -1.053939 -0.210834
30.185974 -1.186010 0.210904
30.190079 -1.186171 0.632880
30.104710 -1.314400 -0.631205
30.120569 -1.315092 -0.210485
30.214428 -1.451303 0.211183
30.657921 -1.472605 0.642932
30.171967 -1.581246 -0.632880
30.187836 -1.582077 -0.211043
30.560024 -1.735324 0.213696
30.643902 -1.740087 0.642932
30.157019 -1.844482 -0.632880
30.212805 -1.847894 -0.211323
29.755428 -1.950274 0.208181
30.627550 -2.007436 0.642932
30.109854 -2.105486 -0.632252
29.966093 -2.095433 -0.209717
30.525084 -2.268406 0.213696
30.608866 -2.274632 0.642932
30.628551 -2.410519 -0.643561
30.614586 -2.409420 -0.214395
30.593815 -2.542150 0.214325
30.587851 -2.541654 0.642932
30.606350 -2.677709 -0.643561
30.562508 -2.673873 -0.214185
30.560509 -2.808116 0.214255
30.604330 -2.812143 0.643770
30.551962 -2.941819 -0.642932
30.617641 -2.948143 -0.214744
30.574638 -3.078704 0.214534
30.578625 -3.079106 0.643770
30.564898 -3.212500 -0.643770
30.620583 -3.218353 -0.214953
30.626129 -3.354107 0.215093
30.630096 -3.354541 0.645445
30.605236 -3.487026 -0.645236
30.591331 -3.485442 -0.214953
30.595694 -3.621239 0.215093
30.599657 -3.621708 0.645445
30.623257 -3.760063 -0.646283
30.609377 -3.758359 -0.215302
30.602608 -3.893143 0.215372
30.606558 -3.893646 0.646283
30.589277 -4.027155 -0.646283
30.615070 -4.030550 -0.215581
30.567469 -4.160050 0.215372
30.611042 -4.165980 0.647121
30.632174 -4.305071 -0.647958
30.618343 -4.303127 -0.215861
30.569586 -4.432379 0.215651
30.613098 -4.438688 0.647958
30.544001 -4.564831 -0.646911
30.569735 -4.568677 -0.215791
30.608810 -4.711146 0.216210
30.652250 -4.717833 0.649634
30.552376 -4.839021 -0.647958
30.607716 -4.847786 -0.216349
30.566532 -4.978076 0.216210
30.609913 -4.985141 0.649634
30.647034 -5.128554 -0.650890
30.633284 -5.126254 -0.216838
30.640192 -5.264948 0.217047
30.644072 -5.265615 0.651309
30.601112 -5.395802 -0.650890
30.636623 -5.402063 -0.217187
30.632441 -5.539248 0.217327
30.636307 -5.539947 0.652147
30.611843 -5.673570 -0.652147
30.666973 -5.683787 -0.217746
30.582935 -5.806352 0.217327
30.626085 -5.814544 0.652985
30.629866 -5.953843 -0.653613
30.655470 -5.958820 -0.218025
30.609562 -6.088621 0.217885
30.652624 -6.097186 0.654660
30.655119 -6.236855 -0.655288
30.641499 -6.234083 -0.218304
30.633587 -6.371795 0.218444
30.637402 -6.372589 0.655498
30.648422 -6.514524 -0.656335
30.673962 -6.519952 -0.218932
30.615904 -6.647365 0.218723
30.619705 -6.648190 0.656335
30.668493 -6.799041 -0.658011
30.654947 -6.796038 -0.219212
30.595743 -6.923110 0.219002
30.638535 -6.932793 0.658011
30.607992 -7.066412 -0.658011
30.633448 -7.072289 -0.219491
30.650967 -7.217344 0.219840
30.654722 -7.218229 0.659686
30.652100 -7.358918 -0.660315
30.638630 -7.355684 -0.219980
30.625669 -7.494053 0.220119
30.629410 -7.494969 0.660524
30.674023 -7.647892 -0.662199
30.699409 -7.654222 -0.220887
30.626951 -7.778255 0.220608
30.640360 -7.781660 0.662199
30.644833 -7.925292 -0.663037
30.631445 -7.921830 -0.220887
30.683620 -8.078323 0.221515
30.687305 -8.079293 0.664712
30.651762 -8.213115 -0.664712
30.667398 -8.217304 -0.221655
30.611956 -8.345778 0.221515
30.654217 -8.357299 0.665550
30.655996 -8.501660 -0.666388
30.642702 -8.497973 -0.222004
30.653452 -8.645167 0.222353
30.695589 -8.657051 0.668063
30.657522 -8.790903 -0.668063
30.644276 -8.787105 -0.222563
30.615244 -8.923530 0.222632
30.695662 -8.946969 0.669739
30.570055 -9.055263 -0.667854
30.604780 -9.065549 -0.222842
30.651112 -9.224937 0.223470
30.654711 -9.226021 0.670576
30.604601 -9.356766 -0.670367
30.677509 -9.379056 -0.223959
30.684044 -9.527649 0.224308
30.687609 -9.528756 0.673089
30.645741 -9.662565 -0.673089
30.632643 -9.658435 -0.224238
30.675920 -9.819440 0.224866
30.669941 -9.817526 0.674555
30.636320 -9.954344 -0.674765
30.651804 -9.959375 -0.225006
30.665037 -10.111813 0.225425
30.668554 -10.112972 0.676440
30.614655 -10.243521 -0.676231
30.649075 -10.255036 -0.225634
30.651381 -10.404742 0.225983
30.654873 -10.405928 0.678116
30.609177 -10.539585 -0.678116
30.671875 -10.561173 -0.226472
30.663263 -10.708091 0.226751
27.957785 -9.763295 0.620314
30.695042 -10.719189 0.681047
30.657402 -10.856356 -0.681257
30.691660 -10.868486 -0.227310
27.820484 -9.988575 0.206366
30.681591 -11.015817 0.227589
30.694427 -11.020426 0.683142
30.646051 -11.154250 -0.683142
28.190092 -10.260354 -0.209438
30.680216 -11.166685 -0.227938
30.668728 -11.314291 0.228217
27.923830 -10.301645 0.623456
30.700268 -11.325927 0.685445
28.253202 -10.563439 -0.631833
30.641193 -11.456272 -0.685236
27.771654 -10.383396 -0.206994
30.675266 -11.469012 -0.228636
27.903755 -10.571787 0.208321
30.662336 -11.616920 0.228916
27.804821 -10.534305 0.622828
27.683922 -10.626863 -0.621152
30.670725 -11.773388 -0.688168
28.016066 -10.754360 -0.209508
30.648699 -11.764933 -0.229195
27.857037 -10.833009 0.208670
27.749107 -10.791038 0.623665
27.980822 -11.021939 -0.629948
30.613327 -12.058910 -0.689215
27.874632 -10.980109 -0.209159
27.761440 -11.075692 0.208670
27.644596 -11.029076 0.623456
27.967003 -11.299402 -0.631833
27.851925 -11.252908 -0.209717
27.654476 -11.313745 0.208600
27.584311 -11.285040 0.624294
27.867332 -11.543027 -0.631833
27.752665 -11.495530 -0.209717
27.554693 -11.554642 0.208600
27.447903 -11.509860 0.623456
27.728729 -11.770147 -0.630995
27.651293 -11.737277 -0.209717
27.489563 -11.810449 0.208879
27.383160 -11.764733 0.624294
27.551611 -11.979781 -0.629320
27.428598 -11.926294 -0.208809
27.385452 -12.049888 0.208879
27.279451 -12.003245 0.624294
25.856800 -11.512189 -0.592880
27.409487 -12.203489 -0.628482
27.469643 -12.230273 -0.209927
27.324842 -12.308944 0.209228
27.210129 -12.257269 0.625131
26.501358 -12.077365 -0.610053
25.924166 -11.814322 -0.198896
27.334570 -12.457082 -0.209717
27.216387 -12.546926 0.209228
27.138447 -12.510995 0.625969
25.796925 -12.029304 -0.596231
27.219515 -12.692668 -0.629110
27.224823 -12.695143 -0.209717
26.391357 -12.446973 0.203713
26.359085 -12.431751 0.610472
25.898516 -12.352959 -0.601047
27.477694 -13.106188 -0.637697
26.282642 -12.536178 -0.203294
27.065323 -13.054762 0.209787
27.033031 -13.039186 0.628691
25.690886 -12.530282 -0.598744
27.784616 -13.551463 -0.647540
30.651140 -14.949560 -0.714346
26.172245 -12.765057 -0.203294
26.170109 -12.905669 0.203713
26.918215 -13.274594 0.628691
30.644779 -15.278923 -0.717278
27.482765 -13.702401 -0.214395
26.895870 -13.556635 0.210276
26.801348 -13.508992 0.628691
25.851339 -13.171915 -0.607749
30.679535 -15.632004 -0.721257
27.700718 -14.114221 -0.217047
30.685516 -15.635052 -0.240435
27.123253 -13.969393 0.212998
26.744659 -13.774405 0.630157
25.841827 -13.452404 -0.610262
30.648371 -15.954533 -0.723770
25.589640 -13.321123 -0.201409
30.663218 -15.962260 -0.241342
26.664028 -14.028624 0.210345
26.800396 -14.100370 0.634346
26.270758 -13.968410 -0.623246
30.693356 -16.319946 -0.728168
25.816759 -13.727014 -0.204132
30.699339 -16.323128 -0.242738
26.567017 -14.274973 0.210555
26.931730 -14.470941 0.640419
25.102299 -13.629436 -0.598325
30.725494 -16.682583 -0.732356
25.678410 -13.942239 -0.203992
26.917513 -14.615017 -0.213836
30.713909 -16.676292 -0.243995
27.765259 -15.232543 0.221097
30.746058 -16.867865 0.244833
27.172569 -14.907382 0.649215
30.718651 -17.027626 -0.735707
25.984318 -14.403343 -0.207413
30.733387 -17.035795 -0.245321
26.104445 -14.619191 0.208879
30.737286 -17.213707 0.245950
26.570400 -14.880138 0.637906
24.982431 -14.134379 -0.601257
27.323175 -15.458709 -0.657592
30.708117 -17.373816 -0.739058
30.670588 -17.352583 -0.246020
27.139233 -15.511350 0.218234
27.133944 -15.508326 0.654660
27.273817 -15.746546 -0.659686
30.641918 -17.691120 -0.741152
27.149235 -15.674618 -0.218863
30.751812 -17.754568 -0.247905
26.890545 -15.682102 0.217327
26.971666 -15.729411 0.654032
25.421101 -14.974173 -0.618011
26.851091 -15.816502 -0.652775
28.031263 -16.511677 -0.681466
27.054497 -15.936316 -0.219212
30.707714 -18.088226 -0.248812
26.924547 -16.018421 0.218723
27.005220 -16.066418 0.658220
25.435146 -15.282977 -0.621571
26.977709 -16.209843 -0.659267
30.714138 -18.454916 -0.750576
25.517248 -15.332310 -0.207832
27.565828 -16.563221 -0.224517
30.728699 -18.463665 -0.250278
26.860676 -16.299459 0.219351
26.949459 -16.353334 0.660315
25.437202 -15.587937 -0.624922
26.741455 -16.387186 -0.656964
30.705362 -18.816271 -0.754346
26.772249 -16.406055 -0.219212
30.745455 -18.840839 -0.251744
25.475931 -15.764985 0.209159
26.921495 -16.659527 0.221027
30.739483 -19.022169 0.252373
26.933250 -16.666801 0.663456
25.283249 -15.798727 -0.624503
27.055281 -16.906015 -0.668273
30.709566 -19.189466 -0.758534
25.330580 -15.828302 -0.208530
27.823780 -17.386227 -0.229055
30.707073 -19.187908 -0.252791
25.599558 -16.152119 0.211323
27.096458 -17.096592 0.223680
27.654625 -17.448769 0.228287
27.048899 -17.066584 0.669948
30.659365 -19.344620 0.759372
25.473269 -16.228262 -0.632671
30.718012 -19.569532 -0.762932
25.377029 -16.166952 -0.210066
27.055338 -17.236151 -0.223959
30.724001 -19.573347 -0.254327
26.466852 -17.024052 0.219700
30.713997 -19.755907 0.254956
26.898937 -17.301977 0.669948
27.099888 -17.598873 -0.676859
30.722151 -19.951199 -0.767330
26.987761 -17.526056 -0.224657
30.719755 -19.949642 -0.255724
26.425999 -17.325644 0.220608
28.065079 -18.400272 0.234291
25.191776 -16.516453 0.630995
26.713482 -17.514126 0.669110
25.377918 -16.797277 -0.637487
26.653482 -17.641556 -0.669529
26.867146 -17.782976 -0.224936
30.711266 -20.327343 -0.257120
25.167973 -16.816702 0.211323
27.836924 -18.600039 0.233733
25.163065 -16.813423 0.633927
24.915403 -16.805653 -0.629529
26.854927 -18.113876 -0.678534
30.767126 -20.752687 -0.777383
30.731674 -20.728775 -0.258795
24.838417 -16.911877 0.209787
25.031912 -17.043623 0.634346
26.511183 -18.050823 0.671833
24.726603 -16.994123 -0.628482
30.708447 -21.105331 -0.780524
26.519735 -18.226509 -0.224657
30.706194 -21.103783 -0.260122
24.780268 -17.190683 0.210555
30.778145 -21.351559 0.261518
23.452875 -16.269838 0.597906
24.816509 -17.215826 0.632671
24.945900 -17.467306 -0.637906
26.785620 -18.755493 -0.228287
30.758410 -21.537270 -0.262146
23.829020 -16.840687 0.203713
23.554941 -16.646988 0.604189
24.714319 -17.466352 0.633927
30.780634 -21.753601 0.789529
25.175070 -17.957203 -0.647749
23.437815 -16.718031 -0.200990
26.612787 -18.982718 -0.228217
23.470148 -16.896088 0.201898
23.457458 -16.886953 0.605445
23.577673 -17.130182 -0.610472
25.502712 -18.528805 -0.660315
30.695461 -22.301558 -0.794765
23.355751 -16.968946 -0.201549
23.257296 -17.052956 0.201340
26.039461 -19.092924 0.225425
23.373701 -17.138308 0.607121
30.751051 -22.547604 0.798744
23.571951 -17.442326 -0.614241
23.391665 -17.308922 -0.203155
23.372004 -17.452703 0.203643
26.144276 -19.522856 0.227799
23.407501 -17.479210 0.611938
30.769409 -22.976608 0.804398
23.338997 -17.587194 -0.612147
23.543201 -17.741074 -0.205808
26.114744 -19.678871 -0.228287
30.762690 -23.181351 -0.268918
23.186974 -17.631784 0.203364
30.764729 -23.394043 0.269826
23.787281 -18.088270 0.625969
30.766687 -23.395533 0.809634
23.224291 -17.820625 -0.613194
23.165354 -17.775400 -0.203853
22.834558 -17.680405 0.201619
23.909870 -18.512999 0.211113
23.098883 -17.885065 0.611938
23.075773 -18.028770 -0.613403
30.765072 -24.036308 -0.817801
22.922674 -17.909157 -0.203085
25.987961 -20.304020 -0.230242
30.778950 -24.047152 -0.272688
22.593018 -17.810900 0.200851
22.541504 -17.770288 0.601257
22.800200 -18.136099 -0.610262
22.859426 -18.183208 -0.203923
25.019373 -19.901308 -0.223191
30.779228 -24.482904 -0.274573
22.678488 -18.201410 0.203015
23.949669 -19.221642 0.214395
22.502529 -18.060190 0.604398
23.006245 -18.630091 -0.620105
24.591276 -19.913622 -0.662828
30.760462 -24.909330 -0.829110
21.666302 -17.545025 -0.194638
25.039032 -20.276209 -0.224936
30.782001 -24.926773 -0.276528
22.332939 -18.246777 0.201340
22.375040 -18.281174 0.605236
21.940189 -18.086098 -0.595602
24.810003 -20.451790 -0.673508
24.591076 -20.271318 -0.222493
22.165171 -18.434578 0.201270
25.009815 -20.800444 0.227100
30.768301 -25.589725 0.279390
22.460630 -18.680309 0.611938
21.597715 -18.122635 -0.590576
21.670870 -18.184019 -0.197500
24.811575 -20.819384 -0.226123
30.817217 -25.858715 -0.280856
21.774492 -18.433468 0.199175
24.315994 -20.585009 0.222423
22.342546 -18.914360 0.613194
24.135748 -20.432419 0.662409
21.712431 -18.544168 -0.598116
30.751675 -26.264412 -0.847121
21.389698 -18.268528 -0.196383
21.779463 -18.766386 0.200711
24.226337 -20.874748 0.223261
30.801842 -26.540565 0.283858
22.070602 -19.017248 0.610262
21.353598 -18.562399 -0.592671
21.486057 -18.677546 -0.198756
24.308603 -21.131145 -0.224866
30.829136 -26.799358 -0.285184
21.494576 -18.850237 0.199594
24.998064 -21.922714 0.232127
30.839718 -27.045706 0.286371
21.956425 -19.255268 0.611728
30.811155 -27.020658 0.858430
21.392973 -18.926903 -0.598325
21.981316 -19.447424 -0.204900
30.833755 -27.279402 -0.287418
21.247196 -18.963848 0.198826
21.824852 -19.479424 0.612775
21.695070 -19.534328 -0.611519
30.766878 -27.702621 -0.867226
21.193974 -19.083139 -0.199106
30.824896 -27.754862 -0.289583
20.992075 -19.067858 0.197989
21.298805 -19.346474 0.602723
21.825994 -19.999838 -0.620105
20.938166 -19.186295 -0.198268
21.236090 -19.630440 0.201898
21.107141 -19.511242 0.602095
20.480724 -19.098585 -0.586597
21.840744 -20.366823 -0.625550
21.998583 -20.514011 -0.209996
23.293047 -21.721119 -0.222353
21.333466 -20.068521 0.204481
22.775604 -21.425150 0.218304
21.948286 -20.646887 0.631205
20.429314 -19.386696 -0.589948
21.430111 -20.336416 -0.618849
21.470558 -20.374800 -0.206645
20.810799 -19.922005 0.201130
21.110067 -20.208494 0.612147
23.341682 -22.344801 0.676859
20.137096 -19.446169 -0.586388
24.459381 -23.620150 -0.712252
20.515072 -19.811174 -0.199106
20.865368 -20.326141 0.203364
20.689425 -20.154745 0.605026
20.907917 -20.546152 -0.614032
23.639067 -23.230045 -0.694241
21.047508 -20.683329 -0.206017
23.344118 -22.940201 -0.228497
20.261095 -20.085051 0.199175
20.384951 -20.207830 0.601257
20.819727 -20.819727 -0.616754
20.647015 -20.647015 -0.203853
21.070646 -21.255331 0.208949
20.482336 -20.661861 0.609424
20.391987 -20.751036 -0.609424
20.543150 -20.904861 -0.204621
20.758760 -21.309464 0.207692
24.324383 -24.969677 0.243367
20.447752 -20.990206 0.613822
20.099005 -20.813128 -0.606074
20.498869 -21.227200 -0.206017
20.502863 -21.417570 0.206994
20.229235 -21.131735 0.612775
21.079676 -22.213345 -0.641466
21.760998 -22.931307 -0.662199
20.429867 -21.528587 -0.207204
20.698874 -22.003551 0.210904
20.811295 -22.123056 0.636231
20.857754 -22.367203 -0.640629
22.153267 -23.756470 -0.680419
20.343515 -21.815750 -0.208251
20.567162 -22.249430 0.211532
22.956482 -24.834183 0.236106
21.051781 -22.773689 0.649634
20.175453 -22.017645 -0.625550
20.368547 -22.228371 -0.210485
21.885006 -24.093513 0.227240
20.906021 -23.015736 0.651309
20.042757 -22.259735 -0.627435
19.986444 -22.197195 -0.208530
21.201155 -23.753887 0.222283
21.050560 -23.585161 0.662199
19.966988 -22.568575 -0.631205
19.844986 -22.430677 -0.209089
20.037031 -22.847855 0.212160
21.008743 -23.955879 0.667435
19.782400 -22.757050 -0.631623
19.694412 -22.655830 -0.209577
20.235060 -23.483942 0.216419
20.205009 -23.449068 0.648377
21.503717 -24.956291 0.690053
22.186773 -25.977373 -0.715603
19.859638 -23.252647 -0.213487
20.055199 -23.690159 0.216698
19.818737 -23.410837 0.642513
21.440151 -25.326130 0.695079
22.768970 -27.135002 -0.741990
21.757830 -25.929972 -0.236316
19.866886 -23.887333 0.216908
23.556358 -28.323442 0.257190
19.722366 -23.713568 0.646074
20.973671 -25.670490 0.231429
22.251703 -27.234726 0.245531
20.703903 -25.340313 0.685445
21.055553 -26.234674 0.234850
20.250441 -25.231527 0.677697
20.122330 -25.525055 0.680838
21.169958 -27.341379 0.241412
20.712889 -26.751066 0.708691
20.785290 -27.334044 0.239736
20.890165 -27.471962 0.722932
21.006664 -28.131336 0.245112
0.157744 -0.219120 0.001885
0.181078 -0.251533 0.006492
20.479301 -28.447544 0.734241
0.170995 -0.246488 0.002094
0.136769 -0.197152 0.005026
0.146326 -0.214908 0.001815
0.151924 -0.223130 0.005654
0.155556 -0.232806 0.001955
0.116644 -0.174570 0.004398
0.159001 -0.242517 0.002025
0.148007 -0.225748 0.005654
0.151469 -0.235485 0.001955
0.140623 -0.218622 0.005445
0.149408 -0.236798 0.001955
0.117369 -0.186019 0.004607
0.147336 -0.238093 0.001955
0.157830 -0.255050 0.006283
0.129690 -0.213723 0.001745
0.140038 -0.230776 0.005654
0.117595 -0.197659 0.001606
0.107348 -0.180436 0.004398
0.115843 -0.198639 0.004817