# This PCD file was generated using the MATLAB® pcwrite function
# from Computer Vision System Toolbox®.
# .PCD v.7 - Point Cloud Data file format
VERSION .7
FIELDS x y z
SIZE 4 4 4
TYPE F F F
COUNT 1 1 1
WIDTH 754
HEIGHT 1
VIEWPOINT 0 0 0 1 0 0 0
POINTS 754
DATA ascii
30.446127 32.083523 -0.926493
30.461035 31.543324 -0.918535
30.426805 30.962542 -0.909320
30.495819 31.032770 -0.303755
30.441339 30.441339 -0.901781
30.426064 30.426064 -0.300404
30.392067 29.866201 -0.892566
30.383728 29.858007 -0.297402
30.363865 29.322044 -0.884189
30.333820 29.293030 -0.294400
30.401024 28.849495 -0.877906
30.435966 28.882654 -0.292934
30.351833 28.303543 -0.869320
30.357752 28.309063 -0.289792
30.302824 27.767422 -0.860943
30.293987 27.759325 -0.286860
30.335949 27.314611 -0.855079
30.327002 27.306555 -0.284905
30.333542 26.836851 -0.848377
30.384394 26.881840 -0.283230
30.294945 26.334993 -0.840838
30.315945 26.353249 -0.280437
30.280327 25.861843 -0.834137
30.331854 25.905851 -0.278482
30.313389 25.435953 -0.828901
30.311640 25.434486 -0.276248
30.295052 24.973314 -0.822409
30.316391 24.990904 -0.274294
30.232117 24.481485 -0.814870
30.284639 24.524017 -0.272060
30.256821 24.067362 -0.809843
30.278372 24.084505 -0.270105
30.245098 23.630060 -0.803980
30.266756 23.646980 -0.268150
30.228065 23.194811 -0.798116
30.281559 23.235857 -0.266475
30.245678 22.791754 -0.793299
30.259562 22.802216 -0.264520
30.242500 22.378273 -0.788063
30.264473 22.394531 -0.262844
30.145451 21.901953 -0.780524
30.167509 21.917978 -0.260331
30.172644 21.521938 -0.776335
30.202950 21.543554 -0.259005
30.162754 21.120188 -0.771309
30.250547 21.181662 -0.257818
30.148165 20.720259 -0.766283
30.170525 20.735626 -0.255584
30.128906 20.322205 -0.761257
30.184523 20.359718 -0.254188
30.171709 19.970219 -0.757906
30.227625 20.007229 -0.253071
30.205919 19.803869 0.252163
30.143595 19.575480 -0.752880
30.166245 19.590189 -0.251116
30.192564 19.420509 0.250627
30.228722 19.443768 0.752880
30.153063 19.209620 -0.748901
30.175810 19.224112 -0.249789
30.200205 19.054911 0.249301
30.253506 19.088539 0.749320
30.073669 18.792114 -0.742828
30.138895 18.832872 -0.248114
30.229284 18.706450 0.248184
30.274401 18.734367 0.745760
30.100121 18.445377 -0.739477
30.131569 18.464649 -0.246718
30.186203 18.317438 0.246508
30.180317 18.313866 0.739477
30.088543 18.079021 -0.735288
30.120125 18.097998 -0.245321
30.138649 17.930611 0.244833
30.210102 17.973122 0.736335
30.115950 17.739649 -0.732147
30.139053 17.753260 -0.244204
30.190315 17.606472 0.243995
30.227612 17.628222 0.732985
30.096441 17.376188 -0.727959
30.154270 17.409576 -0.243087
30.169174 17.243103 0.242599
30.206692 17.264547 0.728796
30.099001 17.029196 -0.724398
30.130980 17.047289 -0.241691
30.144003 16.881453 0.241203
30.190464 16.907473 0.724817
30.001621 16.630171 -0.718534
30.103676 16.686741 -0.240295
30.114830 16.521561 0.239806
30.152786 16.542385 0.720419
30.084099 16.334333 -0.717068
30.107540 16.347061 -0.239178
30.081686 16.163473 0.238410
30.155085 16.202911 0.717068
30.048944 15.977307 -0.712880
30.107779 16.008591 -0.238061
30.079996 15.825851 0.237293
30.118372 15.846043 0.712880
30.080809 15.659078 -0.710367
30.068935 15.652897 -0.236665
30.110277 15.507812 0.236455
30.184401 15.545988 0.711205
30.038151 15.305202 -0.706178
30.061827 15.317266 -0.235548
30.074799 15.158946 0.235129
30.077862 15.160491 0.705550
30.063200 14.988958 -0.703665
30.086960 15.000805 -0.234710
30.098316 14.842847 0.234291
30.137281 14.862062 0.703875
30.049082 14.655916 -0.700315
30.072916 14.667542 -0.233593
30.073582 14.505774 0.233104
30.121748 14.529007 0.700524
29.995356 14.307051 -0.696126
30.028280 14.322755 -0.232267
30.063356 14.178800 0.232057
30.138878 14.214418 0.698011
30.046576 14.010948 -0.694451
30.070560 14.022132 -0.231638
30.113295 13.882419 0.231499
30.116503 13.883898 0.694660
29.985746 13.665292 -0.690262
30.009792 13.676250 -0.230242
30.087414 13.553391 0.230382
30.118011 13.567175 0.691938
30.039921 13.374635 -0.688796
30.027508 13.369107 -0.229474
30.058096 13.225879 0.229265
30.134596 13.259540 0.689634
29.999624 13.044209 -0.685236
30.069668 13.074663 -0.228916
30.062117 12.915704 0.228427
30.065441 12.917133 0.685445
30.001877 12.735042 -0.682723
30.062956 12.760967 -0.228008
30.016911 12.587135 0.227240
30.066378 12.607879 0.682932
29.964079 12.411528 -0.679372
30.025352 12.436909 -0.226891
30.051567 12.294421 0.226682
30.064217 12.299596 0.680419
29.997089 12.119611 -0.677697
29.984396 12.114482 -0.225774
30.018393 11.976125 0.225634
30.049685 11.988608 0.677697
30.027292 11.828065 -0.676021
30.061060 11.841366 -0.225565
30.047201 11.684717 0.225076
30.050661 11.686063 0.675393
30.026695 11.526169 -0.673718
30.051222 11.535583 -0.224727
30.035810 11.379551 0.224238
30.076702 11.395043 0.673718
30.004395 11.218184 -0.670995
30.028978 11.227375 -0.223819
30.021391 11.075476 0.223400
30.024918 11.076777 0.670367
29.922646 10.890952 -0.667016
29.947273 10.899917 -0.222493
30.041607 10.786038 0.222842
30.082798 10.800828 0.669529
30.016546 10.629416 -0.667016
30.003548 10.624813 -0.222214
30.021299 10.483907 0.222004
30.024885 10.485159 0.666178
29.956913 10.314992 -0.663665
30.028938 10.339792 -0.221725
29.998016 10.182954 0.221166
30.039503 10.197038 0.664503
29.969936 10.027801 -0.661990
29.994747 10.036101 -0.220817
30.009762 9.895735 0.220608
30.051386 9.909461 0.662828
29.904167 9.716453 -0.658639
30.005102 9.749249 -0.220259
30.018784 9.609089 0.220049
30.060541 9.622455 0.661152
29.959215 9.446104 -0.658011
29.974594 9.450953 -0.219421
29.948696 9.299317 0.218932
29.990597 9.312328 0.657801
29.992701 9.169689 -0.656964
29.979424 9.165629 -0.218863
29.952103 9.014560 0.218374
29.994131 9.027209 0.656126
29.908615 8.859335 -0.653404
29.933622 8.866743 -0.217955
29.991226 8.741646 0.218095
29.994978 8.742739 0.654451
29.955956 8.589732 -0.652775
29.990635 8.599676 -0.217815
29.950876 8.447021 0.217257
30.031639 8.469798 0.653613
29.962334 8.309291 -0.651309
29.977814 8.313583 -0.217187
29.994507 8.177442 0.217047
29.998304 8.178476 0.651309
29.869534 8.003517 -0.647749
29.904335 8.012842 -0.216140
29.910002 7.874646 0.215930
29.942844 7.883293 0.648587
29.947918 7.745059 -0.647958
29.934395 7.741561 -0.215861
29.977581 7.613336 0.215930
29.981428 7.614313 0.647958
29.927057 7.461654 -0.646074
29.952299 7.467947 -0.215512
29.965172 7.332431 0.215372
29.959332 7.331002 0.646074
29.952147 7.190874 -0.645236
29.977434 7.196945 -0.215232
29.940416 7.050032 0.214744
29.944311 7.050949 0.644398
29.857893 6.893238 -0.641885
29.931919 6.910328 -0.214464
29.961786 6.779660 0.214464
30.004702 6.789371 0.644398
29.965714 6.643239 -0.642932
29.952032 6.640205 -0.214185
29.951403 6.503087 0.213976
30.023726 6.518790 0.643561
29.895414 6.354466 -0.640210
29.959930 6.368180 -0.213836
29.967852 6.233322 0.213696
30.010950 6.242287 0.642095
29.871351 6.077395 -0.638534
29.935970 6.090542 -0.213278
29.942644 5.955962 0.213138
29.976030 5.962603 0.640210
29.834921 5.799321 -0.636650
29.919268 5.815716 -0.212789
29.914886 5.679519 0.212579
29.948343 5.685871 0.638534
29.815580 5.525991 -0.635184
29.850891 5.532536 -0.211951
29.914108 5.409352 0.212230
29.927954 5.411856 0.637068
29.902052 5.272539 -0.636021
29.927578 5.277040 -0.212160
29.881332 5.134552 0.211672
29.885359 5.135244 0.635184
29.877899 4.999846 -0.634555
29.903450 5.004121 -0.211672
29.885521 4.867166 0.211393
29.929035 4.874253 0.635184
29.841396 4.726413 -0.632880
29.857090 4.728899 -0.211043
29.887323 4.600099 0.211113
29.930904 4.606807 0.634346
29.871616 4.464343 -0.632671
29.946671 4.475560 -0.211393
29.926329 4.339111 0.211113
29.930389 4.339700 0.633508
29.830233 4.192366 -0.630995
29.895464 4.201533 -0.210764
29.893696 4.068354 0.210625
29.897774 4.068909 0.632042
29.796297 3.922757 -0.629529
29.851677 3.930048 -0.210206
29.848701 3.797235 0.210066
29.932144 3.807850 0.632042
29.779778 3.656497 -0.628482
29.845135 3.664522 -0.209927
29.880701 3.536614 0.210066
29.884806 3.537100 0.630367
29.770819 3.391956 -0.627644
29.846170 3.400542 -0.209717
29.870665 3.271370 0.209787
29.864841 3.270732 0.629320
29.809227 3.133076 -0.627854
29.874710 3.139959 -0.209717
29.858278 3.006571 0.209508
29.902195 3.010993 0.629529
29.835434 2.872825 -0.627854
29.851204 2.874344 -0.209368
29.843546 2.742237 0.209228
29.927332 2.749935 0.629529
29.769730 2.604514 -0.625969
29.795458 2.606765 -0.208809
29.826479 2.478389 0.208949
29.870481 2.482046 0.627854
29.791325 2.344628 -0.625969
29.817070 2.346654 -0.208809
29.807081 2.215049 0.208670
29.851122 2.218322 0.627016
29.820623 2.085261 -0.626178
29.846390 2.087063 -0.208879
29.825277 1.954852 0.208670
29.829439 1.955125 0.626178
29.757853 1.820068 -0.624503
29.823542 1.824086 -0.208600
29.791281 1.691672 0.208321
29.845364 1.694743 0.626178
29.772602 1.560316 -0.624503
29.828337 1.563237 -0.208530
29.804909 1.431633 0.208321
29.819071 1.432313 0.625341
29.785084 1.300445 -0.624503
29.850834 1.303316 -0.208600
29.826260 1.171877 0.208391
29.830435 1.172041 0.625341
29.795298 1.040475 -0.624503
29.811102 1.041027 -0.208251
29.795370 0.910331 0.208111
29.799555 0.910459 0.624503
29.803244 0.780425 -0.624503
29.789062 0.780054 -0.208042
29.802179 0.650286 0.208111
29.846348 0.651250 0.625341
29.768934 0.519619 -0.623665
29.794735 0.520069 -0.208042
29.726728 0.389144 0.207553
29.760921 0.389592 0.623456
29.772335 0.259819 -0.623665
29.798140 0.260044 -0.208042
29.768991 0.129893 0.207832
29.813177 0.130085 0.624503
29.773468 0.000000 -0.623665
29.789274 0.000000 -0.207972
29.768991 -0.129893 0.207832
29.813177 -0.130085 0.624503
29.732346 -0.259470 -0.622828
29.758142 -0.259695 -0.207762
29.726728 -0.389144 0.207553
29.810905 -0.390246 0.624503
29.718952 -0.518746 -0.622618
29.744743 -0.519196 -0.207692
29.762190 -0.649413 0.207832
29.766384 -0.649505 0.623665
29.723289 -0.778332 -0.622828
29.779066 -0.779792 -0.207972
29.755390 -0.909109 0.207832
29.799555 -0.910459 0.624503
29.705374 -1.037334 -0.622618
29.741146 -1.038584 -0.207762
29.746323 -1.168736 0.207832
29.740524 -1.168508 0.623456
29.695190 -1.296520 -0.622618
29.720961 -1.297645 -0.207692
29.734991 -1.428274 0.207832
29.779127 -1.430394 0.624503
29.692728 -1.556130 -0.622828
29.718491 -1.557480 -0.207762
29.761330 -1.689971 0.208111
29.765511 -1.690208 0.624503
29.757853 -1.820068 -0.624503
29.783617 -1.821644 -0.208321
29.745449 -1.949620 0.208111
29.789534 -1.952509 0.625341
29.690969 -2.076195 -0.623456
29.726685 -2.078692 -0.208042
29.717331 -2.208379 0.208042
29.771360 -2.212394 0.625341
29.721556 -2.339137 -0.624503
29.707413 -2.338024 -0.208042
29.706894 -2.468452 0.208111
29.750919 -2.472111 0.625341
29.700010 -2.598414 -0.624503
29.725725 -2.600664 -0.208321
29.674263 -2.726682 0.208042
29.728214 -2.731639 0.625341
29.706060 -2.860368 -0.625131
29.731760 -2.862843 -0.208530
29.738884 -2.994548 0.208670
29.743034 -2.994966 0.626178
29.729683 -3.124716 -0.626178
29.755369 -3.127415 -0.208879
29.711620 -3.253952 0.208670
29.755520 -3.258759 0.627016
29.691349 -3.382902 -0.625969
29.717010 -3.385826 -0.208809
29.682093 -3.513107 0.208670
29.725948 -3.518298 0.627016
29.581312 -3.632128 -0.624294
29.606930 -3.635274 -0.208251
29.640385 -3.770733 0.208600
29.694115 -3.777569 0.627016
29.667437 -3.905792 -0.626807
29.653393 -3.903943 -0.208809
29.655893 -4.035990 0.208949
29.699644 -4.041944 0.627854
29.681726 -4.171494 -0.627854
29.667707 -4.169525 -0.209159
29.619545 -4.294630 0.208949
29.663242 -4.300965 0.627854
29.644194 -4.430354 -0.627854
29.630194 -4.428262 -0.209159
29.620472 -4.559027 0.209228
29.703630 -4.571826 0.629529
29.594528 -4.687313 -0.627644
29.629929 -4.692920 -0.209438
29.658518 -4.830196 0.209787
29.702076 -4.837290 0.630367
29.562357 -4.947042 -0.627854
29.577984 -4.949657 -0.209368
29.694080 -5.102376 0.210345
29.648878 -5.094609 0.630157
29.547600 -5.210039 -0.628482
29.573055 -5.214528 -0.209647
29.638584 -5.359529 0.210276
29.642643 -5.360263 0.630995
29.668125 -5.498662 -0.632042
29.693575 -5.503379 -0.210834
29.679104 -5.634754 0.210904
29.683140 -5.635520 0.632880
29.609198 -5.755445 -0.631833
29.644419 -5.762291 -0.210834
29.628801 -5.893535 0.210904
29.632832 -5.894337 0.632880
29.606831 -6.023578 -0.632880
29.632200 -6.028739 -0.211113
29.654564 -6.168159 0.211462
29.648783 -6.166956 0.634346
29.582476 -6.287949 -0.633508
29.617588 -6.295413 -0.211393
29.628925 -6.433070 0.211672
29.593838 -6.425452 0.634346
29.575281 -6.556682 -0.634555
29.629862 -6.568782 -0.211881
29.571659 -6.691383 0.211672
29.585396 -6.694492 0.635393
29.594870 -6.832514 -0.636231
29.610384 -6.836096 -0.212160
29.551075 -6.958354 0.211951
29.603703 -6.970747 0.637068
29.524399 -7.088181 -0.636021
29.549603 -7.094232 -0.212160
29.576645 -7.237359 0.212579
29.570879 -7.235948 0.637697
29.548725 -7.367325 -0.637906
29.573893 -7.373600 -0.212789
29.551130 -7.505031 0.212859
29.593821 -7.515873 0.639582
29.560745 -7.644928 -0.639582
29.576189 -7.648923 -0.213278
29.552204 -7.780446 0.213347
29.556110 -7.781475 0.640210
29.521877 -7.910363 -0.640210
29.546951 -7.917082 -0.213557
29.560364 -8.059080 0.213906
29.564245 -8.060139 0.641885
29.528795 -8.189060 -0.641885
29.563461 -8.198673 -0.214185
29.537031 -8.330304 0.214255
29.569763 -8.339536 0.643561
29.494652 -8.457456 -0.642723
29.519627 -8.464617 -0.214395
29.540014 -8.610129 0.214813
29.534256 -8.608450 0.644398
29.505999 -8.740075 -0.644608
29.569281 -8.758820 -0.215302
29.540356 -8.890638 0.215372
29.544170 -8.891787 0.646283
29.457287 -9.005997 -0.645236
29.443907 -9.001905 -0.214953
29.538048 -9.171807 0.215930
29.570480 -9.181878 0.648587
29.491995 -9.298791 -0.647749
29.526358 -9.309625 -0.216140
29.523550 -9.450563 0.216419
29.565405 -9.463961 0.650262
29.419235 -9.558889 -0.647958
29.482033 -9.579293 -0.216419
29.515930 -9.732894 0.216978
29.567144 -9.749783 0.652147
29.476915 -9.862838 -0.651100
29.549046 -9.886972 -0.217536
29.515093 -10.019024 0.217606
29.547207 -10.029925 0.653613
29.474804 -10.148989 -0.652985
29.499460 -10.157479 -0.217815
29.530384 -10.312472 0.218374
29.496311 -10.300573 0.654451
29.498207 -10.445863 -0.655498
29.513386 -10.451238 -0.218583
29.486326 -10.586673 0.218723
29.480577 -10.584609 0.656126
29.471693 -10.726819 -0.656964
29.505629 -10.739171 -0.219212
29.496017 -10.881655 0.219491
29.537167 -10.896835 0.659477
29.414421 -10.997602 -0.657801
29.485722 -11.024260 -0.219770
29.521500 -11.184695 0.220398
29.515743 -11.182515 0.661152
29.429335 -11.296864 -0.660315
29.491087 -11.320568 -0.220538
29.450731 -11.452763 0.220608
29.491579 -11.468648 0.662828
29.450560 -11.600884 -0.663037
29.465607 -11.606811 -0.221097
29.498272 -11.768618 0.221725
29.511093 -11.773732 0.665550
29.422361 -11.887405 -0.664712
29.474457 -11.908453 -0.221934
29.431471 -12.040732 0.222004
29.481253 -12.061099 0.667225
29.382162 -12.170490 -0.666178
29.452562 -12.199651 -0.222563
29.472824 -12.358981 0.223121
29.476299 -12.360438 0.669529
29.311649 -12.442057 -0.667016
29.381800 -12.471833 -0.222842
29.474104 -12.663074 0.223959
29.477543 -12.664552 0.672042
29.385330 -12.777104 -0.671205
29.409399 -12.787571 -0.223889
29.472311 -12.968127 0.224797
29.475718 -12.969625 0.674555
29.382313 -13.081848 -0.673718
29.406311 -13.092533 -0.224727
29.430962 -13.257682 0.225355
29.434340 -13.259203 0.676231
29.376205 -13.387508 -0.676231
29.400133 -13.398412 -0.225565
29.423122 -13.564245 0.226193
29.462784 -13.582529 0.679582
29.366993 -13.694054 -0.678744
29.399908 -13.709402 -0.226472
29.448341 -13.888740 0.227310
29.487814 -13.907356 0.682932
29.390755 -14.018671 -0.682095
29.414537 -14.030015 -0.227519
29.434101 -14.197325 0.228148
29.437368 -14.198901 0.684608
29.339190 -14.309679 -0.683770
29.353899 -14.316853 -0.228008
29.416710 -14.506716 0.228985
29.491674 -14.543685 0.688796
29.329515 -14.623157 -0.686493
29.308386 -14.612622 -0.228636
29.396151 -14.816879 0.229823
29.435059 -14.836491 0.690472
29.343319 -14.951167 -0.689843
29.429228 -14.994941 -0.230591
29.372410 -15.127786 0.230661
29.446678 -15.166036 0.693822
29.344751 -15.275910 -0.692985
29.368214 -15.288124 -0.231150
29.380873 -15.458025 0.231778
29.419386 -15.478288 0.696335
29.351568 -15.606506 -0.696335
29.374950 -15.618938 -0.232267
29.385799 -15.789559 0.232895
29.380070 -15.786481 0.698639
29.319695 -15.919295 -0.698849
29.342989 -15.931943 -0.233104
29.352097 -16.103111 0.233733
29.390202 -16.124016 0.702199
29.319567 -16.252102 -0.702199
29.377760 -16.284359 -0.234501
29.315151 -16.417274 0.234570
29.353052 -16.438499 0.704712
29.246239 -16.546726 -0.703875
29.338976 -16.599194 -0.235338
29.309677 -16.751862 0.235687
29.416805 -16.813089 0.709739
29.239264 -16.881296 -0.707226
29.262285 -16.894588 -0.235897
29.335138 -17.107748 0.237084
29.372602 -17.129595 0.712252
29.194208 -17.196703 -0.709739
29.251596 -17.230507 -0.237014
29.287857 -17.424444 0.237921
29.325108 -17.446606 0.714765
29.214424 -17.553797 -0.713927
29.271549 -17.588121 -0.238410
29.271469 -17.762363 0.239038
29.342688 -17.805580 0.718953
29.222095 -17.907322 -0.717906
29.244844 -17.921265 -0.239457
29.285418 -18.122366 0.240435
29.356222 -18.166182 0.723142
29.200371 -18.246416 -0.721257
29.223024 -18.260572 -0.240574
29.261469 -18.462612 0.241552
29.298042 -18.485687 0.725655
29.208672 -18.607977 -0.725445
29.231236 -18.622351 -0.241970
29.267445 -18.825453 0.242948
29.303782 -18.848825 0.729843
29.120642 -18.911165 -0.727330
29.210184 -18.969315 -0.243157
29.269302 -19.189795 0.244344
29.338846 -19.235390 0.734870
29.221289 -19.341148 -0.734032
29.210308 -19.333881 -0.244554
29.267017 -19.555595 0.245740
29.302876 -19.579556 0.738220
29.184011 -19.684864 -0.737383
29.206282 -19.699886 -0.245950
29.260565 -19.922810 0.247137
29.296181 -19.947060 0.742409
29.134710 -20.023731 -0.740524
29.189838 -20.061621 -0.247276
29.282784 -20.314190 0.248812
29.252430 -20.293133 0.745760
29.122658 -20.391905 -0.744712
29.218441 -20.458973 -0.249022
29.194223 -20.632439 0.249580
29.270180 -20.686117 0.750786
29.138943 -20.784607 -0.749739
29.193472 -20.823500 -0.250348
29.215952 -21.032475 0.251325
29.250826 -21.057581 0.754974
29.150578 -21.179134 -0.754765
29.204802 -21.218531 -0.252023
29.184519 -21.398975 0.252652
29.219143 -21.424362 0.758953
29.093237 -21.527863 -0.758116
29.179293 -21.591541 -0.253420
29.188965 -21.796434 0.254327
29.231339 -21.828077 0.764189
29.135818 -21.955414 -0.764189
29.181431 -21.989784 -0.255095
29.164803 -22.177431 0.255793
29.230742 -22.227571 0.769215
29.093819 -22.324472 -0.768168
29.115358 -22.341000 -0.256212
29.183641 -22.596390 0.257678
29.185856 -22.598104 0.773194
29.055464 -22.700615 -0.772356
29.139927 -22.766607 -0.258167
29.118843 -22.955444 0.258865
29.175978 -23.000486 0.778220
29.044044 -23.102674 -0.777383
29.096663 -23.144529 -0.259563
29.127975 -23.377672 0.260750
29.192471 -23.429436 0.784084
29.058884 -23.531420 -0.783247
29.111177 -23.573767 -0.261518
29.108709 -23.782814 0.262426
29.141747 -23.809805 0.788273
29.037579 -23.936733 -0.788273
29.089539 -23.979565 -0.263194
29.084578 -24.189388 0.264101
29.148088 -24.242208 0.794137
29.072670 -24.394867 -0.794974
29.063019 -24.386768 -0.264869
29.086081 -24.623184 0.266056
29.118563 -24.650684 0.799163
29.018330 -24.783995 -0.799372
29.062008 -24.821299 -0.266824
29.082211 -25.058836 0.268011
29.144707 -25.112686 0.805864
28.974491 -25.187141 -0.804189
29.025423 -25.231415 -0.268499
29.072937 -25.496281 0.269965
29.164988 -25.577007 0.812566
28.933302 -25.598022 -0.809215
29.013838 -25.669275 -0.270454
29.058228 -25.935459 0.271920
29.119692 -25.990318 0.817592
29.006012 -26.117130 -0.817592
29.026529 -26.135605 -0.272688
29.038050 -26.376307 0.273875
29.098993 -26.431665 0.823456
28.953903 -26.531363 -0.822618
28.996410 -26.570314 -0.274573
29.071119 -26.873066 0.276388
29.094818 -26.894974 0.829948
28.926006 -26.973938 -0.828482
29.004782 -27.047396 -0.276877
29.039442 -27.317579 0.278343
29.062910 -27.339655 0.835812
28.892576 -27.418032 -0.834346
28.912718 -27.437145 -0.278273
29.002207 -27.763573 0.280298
29.061550 -27.820383 0.842723
28.903927 -27.912197 -0.841676
28.959915 -27.966265 -0.281066
28.988033 -28.238892 0.282532
29.046835 -28.296173 0.849425
28.915962 -28.415638 -0.849215
28.935865 -28.435196 -0.283230
28.967756 -28.716061 0.284766
29.026011 -28.773809 0.856126
28.864838 -28.864838 -0.855079
28.919962 -28.919962 -0.285534
28.969500 -29.223415 0.287279
28.999044 -29.253220 0.862828
28.836090 -29.343819 -0.861781
28.918812 -29.427996 -0.288047
28.936665 -29.704317 0.289513
28.965906 -29.734335 0.869529
28.828945 -29.853247 -0.869320
28.848459 -29.873453 -0.289932
28.897627 -30.186853 0.291747
28.954216 -30.245968 0.877069
28.760029 -30.306747 -0.875184
28.834471 -30.385193 -0.292445
28.907166 -30.729223 0.294539
28.901531 -30.723232 0.883561
28.794474 -30.878294 -0.884398
28.841007 -30.928194 -0.295238
28.855116 -31.215290 0.296773
28.937716 -31.304646 0.892985
28.740059 -31.364271 -0.891100
28.840242 -31.473602 -0.298030
28.850557 -31.761986 0.299566
28.878544 -31.792797 0.899686
28.786375 -31.970509 -0.901152
28.778606 -31.961880 -0.300264
28.838633 -32.310959 0.302358
28.859640 -32.334496 0.907854
28.744778 -32.490063 -0.908692
28.790140 -32.541332 -0.303336
28.845676 -32.892189 0.305430
28.866421 -32.915844 0.917069
28.709406 -33.026394 -0.916650
28.767487 -33.093208 -0.306128
28.818642 -33.445679 0.308223
28.865232 -33.499752 0.926283
28.725281 -33.632980 -0.926493
28.737375 -33.647144 -0.308921
28.777660 -33.993546 0.310945
28.830189 -34.055595 0.934660
28.725479 -34.233692 -0.311993
28.767660 -34.589352 0.314087
28.813194 -34.644100 0.943875
28.774736 -35.218517 0.317508
24.486652 -29.970165 0.810681
28.819733 -35.273590 0.954137
24.109985 -30.040419 0.268918
24.124058 -30.057953 0.807330
23.890253 -30.304642 0.269407
23.087139 -29.285896 0.781152
22.620876 -29.215267 0.257958
22.530775 -29.098900 0.770890
22.366760 -29.413782 0.774032
22.442610 -30.054298 0.261867
22.551889 -30.200644 0.789529
22.291830 -30.402220 0.263194
22.352848 -31.050064 0.267103
0.128507 -0.178507 0.004607
23.545938 -32.707371 0.844189
0.182395 -0.262921 0.002234
0.176660 -0.254655 0.006492
0.112536 -0.165282 0.004188
0.155556 -0.232806 0.001955
0.166635 -0.249386 0.006283
0.153518 -0.234154 0.001955
0.148007 -0.225748 0.005654
0.173108 -0.269126 0.002234
0.162257 -0.252256 0.006283
0.128064 -0.202970 0.001676
0.117369 -0.186019 0.004607
0.147336 -0.238093 0.001955
0.157830 -0.255050 0.006283
0.129690 -0.213723 0.001745
0.119292 -0.196587 0.004817
0.138046 -0.232034 0.001885
0.127795 -0.214804 0.005236
0.110806 -0.190002 0.004607