# This PCD file was generated using the MATLAB® pcwrite function
# from Computer Vision System Toolbox®.
# .PCD v.7 - Point Cloud Data file format
VERSION .7
FIELDS x y z
SIZE 4 4 4
TYPE F F F
COUNT 1 1 1
WIDTH 763
HEIGHT 1
VIEWPOINT 0 0 0 1 0 0 0
POINTS 763
DATA ascii
21.300840 23.245789 -0.220119
21.205498 22.740112 -0.651309
21.257370 22.795740 -0.217606
21.176025 22.314875 -0.644398
21.228338 22.370001 -0.215302
21.175489 21.927860 -0.638534
21.207403 21.960909 -0.213138
21.155809 21.528309 -0.632252
21.173952 21.546770 -0.210904
21.088369 21.088369 -0.624712
21.134907 21.134907 -0.208670
21.100452 20.735357 -0.619686
21.090302 20.725382 -0.206436
21.021690 20.300411 -0.612147
21.068949 20.346048 -0.204481
21.002235 19.930376 -0.606492
21.020838 19.948029 -0.202317
20.992559 19.575878 -0.601257
21.040533 19.620615 -0.200851
20.956198 19.202818 -0.595393
20.975029 19.220074 -0.198617
20.914938 18.831896 -0.589529
20.971035 18.882406 -0.197011
20.906258 18.496294 -0.584712
20.925312 18.513153 -0.195056
20.885780 18.155731 -0.579686
20.897400 18.165833 -0.193311
20.860964 17.816946 -0.574660
20.880239 17.833408 -0.191705
20.801205 17.454283 -0.568796
20.820581 17.470541 -0.189751
20.798437 17.144907 -0.564608
20.817924 17.160973 -0.188354
20.729708 16.786585 -0.558744
20.780376 16.827618 -0.186679
20.750216 16.505468 -0.555393
20.738611 16.496237 -0.185003
20.767408 16.225277 -0.552042
20.755697 16.216127 -0.183886
20.717844 15.897361 -0.547016
20.706018 15.888286 -0.182211
20.728031 15.619692 -0.543665
20.779989 15.658845 -0.181652
20.670664 15.295486 -0.538639
20.722925 15.334158 -0.179977
20.673939 15.020496 -0.535288
20.702240 15.041058 -0.178650
20.641441 14.723397 -0.531100
20.702454 14.766916 -0.177533
20.539827 14.382142 -0.525236
20.568407 14.402153 -0.175299
20.598637 14.157050 -0.523561
20.619135 14.171139 -0.174671
20.639442 14.052896 0.174322
20.685003 14.083918 0.524189
20.522469 13.842580 -0.518534
20.576212 13.878830 -0.173275
20.611629 13.772250 0.173065
20.640863 13.791783 0.520000
20.542440 13.596745 -0.516021
20.563124 13.610435 -0.172158
20.597225 13.504133 0.171948
20.635015 13.528909 0.516859
20.559692 13.351621 -0.513508
20.580475 13.365116 -0.171320
20.579723 13.237323 0.170831
20.584120 13.240150 0.512670
20.548943 13.091120 -0.510367
20.569817 13.104418 -0.170273
20.559143 12.971852 0.169714
20.605867 13.001334 0.510367
20.492826 12.805340 -0.506178
20.513784 12.818435 -0.168877
20.578022 12.734067 0.168947
20.582512 12.736845 0.507016
20.467400 12.542439 -0.502828
20.514023 12.571009 -0.167969
20.551580 12.471005 0.167829
20.556122 12.473761 0.503665
20.430387 12.275815 -0.499267
20.494371 12.314260 -0.166922
20.522125 12.209381 0.166712
20.492348 12.191666 0.499477
20.441977 12.041244 -0.496964
20.463194 12.053742 -0.165805
20.498318 11.954266 0.165665
20.528866 11.972081 0.497801
20.442375 11.802411 -0.494451
20.498322 11.834712 -0.165246
20.488993 11.710424 0.164758
20.493679 11.713102 0.494451
20.431469 11.559569 -0.491728
20.461563 11.576595 -0.164129
20.450808 11.453003 0.163641
20.455544 11.455655 0.491100
20.365425 11.288740 -0.487749
20.430618 11.324877 -0.163082
20.418468 11.201956 0.162594
20.484612 11.238242 0.489424
20.392872 11.072426 -0.486074
20.414425 11.084127 -0.162175
20.436167 10.980749 0.161965
20.405762 10.964412 0.485236
20.373960 10.833027 -0.483351
20.439739 10.868002 -0.161616
20.433867 10.750777 0.161197
20.429882 10.748681 0.483560
20.370171 10.604039 -0.481047
20.427362 10.633811 -0.160778
20.375776 10.494214 0.160010
20.416245 10.515058 0.481047
20.319401 10.353252 -0.477697
20.367912 10.377970 -0.159592
20.368353 10.266496 0.159243
20.400093 10.282494 0.478534
20.337397 10.139852 -0.476021
20.359261 10.150753 -0.158824
20.376451 10.048554 0.158614
20.390413 10.055439 0.476231
20.281332 9.891867 -0.472670
20.375164 9.937632 -0.158265
20.364290 9.822568 0.157846
20.369326 9.824996 0.473718
20.339811 9.701591 -0.472042
20.361828 9.712093 -0.157497
20.331656 9.589031 0.156939
20.381948 9.612751 0.472042
20.278719 9.456122 -0.468691
20.327988 9.479096 -0.156590
20.314669 9.365191 0.156171
20.356104 9.384293 0.469529
20.287685 9.245631 -0.467016
20.309841 9.255728 -0.155822
20.286211 9.138271 0.155333
20.327835 9.157022 0.467016
20.212328 8.999107 -0.463456
20.234539 9.008997 -0.154635
20.291962 8.928677 0.154775
20.297155 8.930963 0.464503
20.216740 8.790488 -0.461780
20.284874 8.820114 -0.154425
20.295603 8.719679 0.154216
20.291647 8.717979 0.462618
20.265072 8.602013 -0.461152
20.287432 8.611505 -0.153867
20.260262 8.495832 0.153378
20.265532 8.498043 0.460314
20.191578 8.363626 -0.457801
20.241707 8.384390 -0.152959
20.222567 8.273271 0.152541
20.264893 8.290586 0.458639
20.226715 8.172123 -0.456964
20.212116 8.166224 -0.152191
20.219690 8.066839 0.151982
20.187891 8.054152 0.455288
20.139122 7.933012 -0.453403
20.208178 7.960213 -0.151633
20.214758 7.861090 0.151424
20.257408 7.877675 0.455288
20.179583 7.746216 -0.452775
20.192852 7.751310 -0.151005
20.207779 7.656043 0.150865
20.175793 7.643924 0.451937
20.115307 7.520805 -0.449843
20.194160 7.550287 -0.150516
20.208149 7.455180 0.150376
20.204208 7.453726 0.451100
20.151985 7.334723 -0.449215
20.174709 7.342994 -0.149888
20.187733 7.248137 0.149748
20.230846 7.263616 0.450262
20.139832 7.131888 -0.447540
20.162611 7.139955 -0.149329
20.174690 7.045317 0.149190
20.180197 7.047240 0.447749
20.125675 6.929826 -0.445864
20.157965 6.940944 -0.148840
20.159651 6.843279 0.148631
20.165188 6.845159 0.446074
20.109533 6.728556 -0.444189
20.132421 6.736214 -0.148212
20.142628 6.642043 0.148073
20.148195 6.643878 0.444398
20.167484 6.552813 -0.444189
20.152397 6.547911 -0.147933
20.123632 6.441626 0.147514
20.129232 6.443418 0.442723
20.109480 6.340495 -0.441676
20.132475 6.347745 -0.147374
20.140881 6.253910 0.147235
20.146502 6.255655 0.441885
20.077995 6.138459 -0.439791
20.148849 6.160122 -0.147095
20.118084 6.054856 0.146676
20.162029 6.068082 0.441047
20.102039 5.954495 -0.439163
20.086784 5.949976 -0.146257
20.054953 5.845486 0.145839
20.099035 5.858335 0.438534
20.076353 5.756802 -0.437487
20.061043 5.752411 -0.145699
20.105200 5.670253 0.145839
20.110903 5.671861 0.437697
20.058386 5.562683 -0.436021
20.110477 5.577129 -0.145699
20.076735 5.473546 0.145280
20.082466 5.475109 0.436021
20.019251 5.364142 -0.434136
20.081108 5.380717 -0.145140
20.046373 5.277770 0.144722
20.139149 5.302196 0.436231
20.026581 5.179226 -0.433299
20.049849 5.185244 -0.144582
20.062592 5.095249 0.144512
20.097441 5.104100 0.434346
19.983707 4.982498 -0.431414
20.016712 4.990727 -0.144023
20.018871 4.898587 0.143884
20.063526 4.909513 0.432670
19.948654 4.789248 -0.429738
20.020609 4.806523 -0.143744
19.982988 4.705369 0.143325
20.037483 4.718201 0.431204
19.989689 4.614983 -0.429738
19.974100 4.611384 -0.143116
19.955017 4.515359 0.142837
20.038889 4.534338 0.430367
19.951115 4.423056 -0.428063
19.935478 4.419589 -0.142557
19.993662 4.341049 0.142837
20.028845 4.348688 0.429320
19.920496 4.234232 -0.426597
19.973288 4.245453 -0.142557
19.952461 4.150118 0.142278
19.997513 4.159489 0.427854
19.927298 4.054255 -0.425969
19.970379 4.063019 -0.142278
19.938879 3.966089 0.141929
19.944798 3.967267 0.425969
19.952105 3.878296 -0.425759
19.965811 3.880960 -0.141999
19.982553 3.793807 0.141999
19.988482 3.794932 0.426178
19.896715 3.687638 -0.423875
19.890762 3.686535 -0.141231
19.926338 3.603269 0.141371
19.981483 3.613241 0.425341
19.898600 3.508660 -0.423246
19.912327 3.511081 -0.141161
19.878181 3.415696 0.140812
19.962986 3.430269 0.424293
19.918600 3.333230 -0.423037
19.902758 3.330580 -0.140882
19.907232 3.242099 0.140812
19.913218 3.243073 0.422618
19.848181 3.143643 -0.420943
19.901436 3.152078 -0.140672
19.905115 3.063690 0.140603
19.950642 3.070698 0.422827
19.815531 2.961451 -0.419686
19.839174 2.964984 -0.140044
19.891508 2.884131 0.140323
19.897524 2.885004 0.421152
19.840620 2.788417 -0.419686
19.854391 2.790353 -0.139974
19.826744 2.698301 0.139695
19.832785 2.699124 0.419267
19.824549 2.609951 -0.418848
19.838327 2.611765 -0.139695
19.849535 2.525180 0.139695
19.895254 2.530996 0.420105
19.806877 2.431979 -0.418011
19.820663 2.433671 -0.139416
19.841024 2.348340 0.139486
19.876871 2.352583 0.419267
19.797544 2.255645 -0.417382
19.791470 2.254953 -0.139067
19.821001 2.170753 0.139206
19.827074 2.171418 0.417801
19.776703 2.078615 -0.416545
19.800447 2.081111 -0.138997
19.799391 1.993694 0.138927
19.845268 1.998313 0.417801
19.784136 1.904996 -0.416335
19.817856 1.908242 -0.138997
19.816034 1.820838 0.138927
19.822128 1.821398 0.416964
19.780088 1.730533 -0.415916
19.793907 1.731742 -0.138718
19.741482 1.640391 0.138299
19.797413 1.645038 0.416126
19.774502 1.556287 -0.415498
19.758421 1.555021 -0.138369
19.755045 1.468053 0.138299
19.761164 1.468508 0.415079
19.667648 1.375296 -0.412985
19.691435 1.376959 -0.137810
19.727190 1.292988 0.138020
19.773226 1.296006 0.415079
19.728798 1.206665 -0.414032
19.752605 1.208121 -0.138159
19.737722 1.120789 0.138020
19.783783 1.123405 0.415079
19.688656 1.031839 -0.412985
19.682508 1.031517 -0.137601
19.716787 0.947065 0.137810
19.762875 0.949279 0.414450
19.696911 0.859986 -0.412985
19.680771 0.859281 -0.137531
19.724300 0.774970 0.137810
19.730446 0.775211 0.413613
19.673689 0.687020 -0.412356
19.687519 0.687503 -0.137531
19.730312 0.602816 0.137810
19.726465 0.602698 0.413403
19.668941 0.515049 -0.412147
19.662781 0.514888 -0.137321
19.684835 0.429525 0.137461
19.651011 0.428787 0.411728
19.592716 0.341992 -0.410471
19.616533 0.342408 -0.136972
19.647839 0.257204 0.137182
19.693993 0.257808 0.412566
19.634945 0.171352 -0.411309
19.658772 0.171560 -0.137252
19.649334 0.085737 0.137182
19.705490 0.085982 0.412775
19.595701 0.000000 -0.410471
19.659521 0.000000 -0.137252
19.689333 -0.085911 0.137461
19.695492 -0.085938 0.412566
19.594955 -0.171003 -0.410471
19.628775 -0.171298 -0.137042
19.617842 -0.256812 0.136972
19.664001 -0.257416 0.411937
19.552732 -0.341294 -0.409634
19.606535 -0.342233 -0.136903
19.614853 -0.427998 0.136972
19.651011 -0.428787 0.411728
19.588987 -0.512956 -0.410471
19.592806 -0.513056 -0.136833
19.650351 -0.600373 0.137252
19.606548 -0.599034 0.410890
19.543797 -0.682484 -0.409634
19.587584 -0.684013 -0.136833
19.604397 -0.770259 0.136972
19.610563 -0.770501 0.411100
19.577051 -0.854752 -0.410471
19.550898 -0.853611 -0.136623
19.596928 -0.941308 0.136972
19.603094 -0.941604 0.411100
19.528910 -1.023467 -0.409634
19.542704 -1.024190 -0.136623
19.587967 -1.112285 0.136972
19.594130 -1.112635 0.411100
19.519236 -1.193848 -0.409634
19.533022 -1.194691 -0.136623
19.577515 -1.283178 0.136972
19.573698 -1.282928 0.410890
19.428286 -1.358558 -0.407958
19.481951 -1.362311 -0.136344
19.555599 -1.453232 0.136903
19.571728 -1.454431 0.411100
19.495426 -1.534323 -0.409634
19.519165 -1.536192 -0.136693
19.552139 -1.624657 0.136972
19.558290 -1.625169 0.411100
19.481295 -1.704392 -0.409634
19.505016 -1.706468 -0.136693
19.537216 -1.795218 0.136972
19.543364 -1.795783 0.411100
19.465679 -1.874332 -0.409634
19.479429 -1.875656 -0.136623
19.520807 -1.965642 0.136972
19.526949 -1.966260 0.411100
19.488354 -2.048309 -0.410471
19.521990 -2.051844 -0.137042
19.492970 -2.134827 0.136903
19.509047 -2.136588 0.411100
19.469738 -2.218296 -0.410471
19.483469 -2.219861 -0.136903
19.483528 -2.306028 0.136972
19.479731 -2.305578 0.410890
19.449638 -2.388115 -0.410471
19.453430 -2.388581 -0.136833
19.502342 -2.481011 0.137252
19.508457 -2.481789 0.411937
19.428057 -2.557752 -0.410471
19.431847 -2.558251 -0.136833
19.479948 -2.651105 0.137252
19.486057 -2.651936 0.411937
19.404997 -2.727195 -0.410471
19.468195 -2.736077 -0.137252
19.456072 -2.820996 0.137252
19.462173 -2.821881 0.411937
19.429899 -2.903818 -0.411519
19.453468 -2.907340 -0.137321
19.420830 -2.989152 0.137182
19.476334 -2.997694 0.412775
19.403820 -3.073263 -0.411519
19.427357 -3.076991 -0.137321
19.443354 -3.166551 0.137531
19.449432 -3.167541 0.412775
19.405844 -3.247425 -0.412147
19.429354 -3.251359 -0.137531
19.365705 -3.327637 0.137182
19.421049 -3.337147 0.412775
19.347229 -3.411438 -0.411519
19.331305 -3.408631 -0.137042
19.424490 -3.512520 0.137810
19.460056 -3.518951 0.414241
19.385534 -3.592896 -0.412985
19.379482 -3.591775 -0.137601
19.393099 -3.681895 0.137810
19.428606 -3.688636 0.414241
19.353443 -3.761928 -0.412985
19.386665 -3.768386 -0.137880
19.389652 -3.856842 0.138020
19.395678 -3.858040 0.414241
19.398254 -3.946619 -0.414660
19.382439 -3.943402 -0.138089
19.355257 -4.025899 0.138020
19.449368 -4.045474 0.416126
19.363075 -4.115748 -0.414660
19.347288 -4.112393 -0.138089
19.358477 -4.203137 0.138299
19.413324 -4.215046 0.416126
19.326422 -4.284564 -0.414660
19.359478 -4.291893 -0.138438
19.321060 -4.371910 0.138299
19.375801 -4.384296 0.416126
19.259071 -4.446307 -0.414032
19.282314 -4.451673 -0.138159
19.321108 -4.549517 0.138578
19.375731 -4.562379 0.416964
19.297310 -4.632874 -0.415707
19.320520 -4.638446 -0.138718
19.280670 -4.717950 0.138578
19.325468 -4.728912 0.416754
19.227043 -4.793840 -0.415079
19.240496 -4.797194 -0.138438
19.287226 -4.898331 0.138927
19.293156 -4.899837 0.416964
19.252234 -4.978966 -0.416545
19.275351 -4.984944 -0.138997
19.321108 -5.086823 0.139486
19.288336 -5.078195 0.417801
19.275652 -5.164895 -0.418011
19.260092 -5.160726 -0.139206
19.275982 -5.255236 0.139486
19.310806 -5.264730 0.419267
19.229845 -5.332908 -0.418011
19.214323 -5.328603 -0.139206
19.229387 -5.423248 0.139486
19.264128 -5.433046 0.419267
19.221018 -5.511538 -0.418848
19.215153 -5.509857 -0.139555
19.181328 -5.590847 0.139486
19.254375 -5.612139 0.420105
19.210533 -5.690419 -0.419686
19.223867 -5.694369 -0.139974
19.246716 -5.792604 0.140323
19.252537 -5.794356 0.421152
19.160145 -5.857844 -0.419686
19.211695 -5.873604 -0.140254
19.233633 -5.972202 0.140603
19.229883 -5.971037 0.421780
19.146437 -6.036848 -0.420524
19.207392 -6.056067 -0.140603
19.209354 -6.148963 0.140812
19.224653 -6.153860 0.422827
19.169094 -6.228416 -0.422199
19.191853 -6.235811 -0.140882
19.154964 -6.316360 0.140812
19.160725 -6.318260 0.422618
19.199343 -6.424010 -0.424084
19.184120 -6.418917 -0.141231
19.174868 -6.508991 0.141371
19.218466 -6.523790 0.425131
19.170912 -6.601074 -0.424712
19.155739 -6.595850 -0.141440
19.117336 -6.676073 0.141371
19.207998 -6.707733 0.426178
19.112577 -6.768118 -0.424712
19.135157 -6.776114 -0.141720
19.133642 -6.869679 0.141929
19.139322 -6.871718 0.425969
19.127945 -6.962003 -0.426388
19.159866 -6.973621 -0.142348
19.119873 -7.053694 0.142278
19.125526 -7.055779 0.427016
19.103922 -7.142664 -0.427225
19.098280 -7.140554 -0.142348
19.132401 -7.248618 0.142837
19.175417 -7.264915 0.429529
19.078199 -7.323434 -0.428063
19.100590 -7.332029 -0.142837
19.096376 -7.426175 0.143046
19.139244 -7.442844 0.430157
19.013565 -7.489642 -0.428063
18.998663 -7.483773 -0.142557
19.067995 -7.607359 0.143325
19.119995 -7.628104 0.431204
19.021641 -7.685241 -0.429738
19.090250 -7.712962 -0.143744
19.084181 -7.807544 0.143954
19.080460 -7.806022 0.431833
19.073929 -7.900680 -0.432461
19.086885 -7.906047 -0.144233
19.042986 -7.985387 0.144163
19.048494 -7.987696 0.432670
19.004257 -8.066828 -0.432461
19.026371 -8.076216 -0.144303
19.046078 -8.182840 0.144722
19.051550 -8.185192 0.434346
19.006487 -8.264256 -0.434136
19.028532 -8.273842 -0.144861
19.010555 -8.364845 0.145001
19.052605 -8.383348 0.436021
19.006712 -8.462334 -0.435812
19.028688 -8.472117 -0.145420
19.009775 -8.563279 0.145559
19.015184 -8.565716 0.436859
18.968531 -8.644458 -0.436649
19.017727 -8.666878 -0.145908
19.016054 -8.766521 0.146188
19.012348 -8.764812 0.438534
18.955801 -8.839235 -0.438115
18.986685 -8.853637 -0.146257
18.965961 -8.944928 0.146397
19.007477 -8.964508 0.440210
18.950134 -9.038751 -0.439791
19.017008 -9.070648 -0.147095
18.995262 -9.162228 0.147235
19.000565 -9.164784 0.441885
18.924452 -9.230072 -0.441047
18.946117 -9.240639 -0.147165
18.950459 -9.345332 0.147514
18.991598 -9.365620 0.443560
18.905815 -9.426092 -0.442513
18.927401 -9.436853 -0.147654
18.939621 -9.546355 0.148073
18.980568 -9.566995 0.445236
18.938644 -9.649721 -0.445236
18.960157 -9.660683 -0.148561
18.971163 -9.770791 0.148980
18.976353 -9.773464 0.447121
18.915792 -9.846938 -0.446702
18.937220 -9.858092 -0.149050
18.911724 -9.949940 0.149190
18.925734 -9.957311 0.447958
18.864452 -10.030407 -0.447540
18.876959 -10.037058 -0.149259
18.868219 -10.138260 0.149539
18.934998 -10.174141 0.450262
18.846493 -10.232811 -0.449215
18.858955 -10.239577 -0.149818
18.875467 -10.355435 0.150307
18.880552 -10.358226 0.451100
18.870153 -10.459897 -0.451937
18.882580 -10.466784 -0.150725
18.854179 -10.558847 0.150865
18.894119 -10.581215 0.453613
18.830366 -10.653708 -0.453194
18.825335 -10.650862 -0.151005
18.865501 -10.782522 0.151703
18.870502 -10.785381 0.455288
18.823263 -10.867616 -0.455288
18.844254 -10.879735 -0.151912
18.805241 -10.966892 0.151982
18.844757 -10.989938 0.456964
18.753553 -11.046687 -0.455916
18.765825 -11.053916 -0.152052
18.820541 -11.197045 0.152890
18.851242 -11.215310 0.459477
18.724998 -11.251114 -0.457592
18.711506 -11.243008 -0.152401
18.816153 -11.417921 0.153658
18.821032 -11.420882 0.461152
18.702822 -11.461104 -0.459477
18.749100 -11.489464 -0.153518
18.783823 -11.623782 0.154216
18.788662 -11.626778 0.462827
18.763189 -11.724542 -0.463456
18.783808 -11.737426 -0.154635
18.783157 -11.851290 0.155054
18.821772 -11.875654 0.466178
18.693888 -11.909320 -0.464293
18.748135 -11.943879 -0.155193
18.712662 -12.036388 0.155333
18.751057 -12.061085 0.467016
18.723406 -12.159122 -0.467644
18.735443 -12.166940 -0.155961
18.740717 -12.286952 0.156450
18.778868 -12.311965 0.470367
18.683283 -12.366195 -0.469320
18.728619 -12.396203 -0.156799
18.732553 -12.516692 0.157288
18.737215 -12.519807 0.472042
18.682409 -12.601443 -0.472042
18.727503 -12.631860 -0.157707
18.721802 -12.747221 0.158126
18.726416 -12.750362 0.474555
18.662365 -12.826287 -0.474346
18.682486 -12.840117 -0.158265
18.675579 -12.955710 0.158684
18.713013 -12.981679 0.477068
18.656191 -13.063206 -0.477068
18.676212 -13.077224 -0.159173
18.692471 -13.210531 0.159801
18.729649 -13.236807 0.480419
18.631018 -13.289375 -0.479372
18.650932 -13.303580 -0.159941
18.641399 -13.419888 0.160360
18.678335 -13.446478 0.482094
18.619486 -13.527849 -0.482094
18.663567 -13.559875 -0.161058
18.652609 -13.676659 0.161477
18.689285 -13.703551 0.485445
18.589132 -13.755234 -0.484398
18.608833 -13.769812 -0.161616
18.628696 -13.910708 0.162314
18.633076 -13.913978 0.487121
18.572187 -13.995148 -0.487121
18.615740 -14.027966 -0.162733
18.633953 -14.169587 0.163431
18.638279 -14.172876 0.490471
18.600056 -14.272325 -0.491100
18.627483 -14.293370 -0.163920
18.604473 -14.405122 0.164269
18.640371 -14.432918 0.493822
18.577219 -14.514113 -0.493822
18.588720 -14.523100 -0.164688
18.564440 -14.635024 0.165037
18.607929 -14.669309 0.496335
18.575043 -14.775256 -0.497173
18.563013 -14.765687 -0.165596
18.560799 -14.896616 0.166154
18.603962 -14.931258 0.499686
18.507557 -14.987124 -0.498848
18.526709 -15.002632 -0.166433
18.561739 -15.165577 0.167341
18.565863 -15.168946 0.502199
18.499500 -15.249810 -0.502199
18.541687 -15.284587 -0.167760
18.520948 -15.403710 0.168179
18.555771 -15.432673 0.505550
18.488256 -15.513490 -0.505550
18.537825 -15.555081 -0.168947
18.507936 -15.668125 0.169296
18.573004 -15.723208 0.509739
18.405392 -15.719689 -0.507016
18.462208 -15.768214 -0.169505
18.484135 -15.926950 0.170343
18.518402 -15.956475 0.512042
18.456148 -16.043684 -0.512252
18.467293 -16.053373 -0.170831
18.464735 -16.193138 0.171460
18.468653 -16.196573 0.514555
18.427757 -16.303503 -0.515393
18.446329 -16.319935 -0.171948
18.442089 -16.460194 0.172577
18.505625 -16.516901 0.519581
18.373941 -16.543970 -0.517906
18.392385 -16.560579 -0.172786
18.416178 -16.728079 0.173694
18.449591 -16.758429 0.522095
18.376293 -16.838770 -0.522095
18.394621 -16.855564 -0.174182
18.386988 -16.996756 0.174811
18.420111 -17.027376 0.525445
18.345640 -17.107586 -0.525445
18.363844 -17.124561 -0.175299
18.383635 -17.293598 0.176207
18.416462 -17.324478 0.529634
18.282677 -17.349613 -0.527958
18.358778 -17.421829 -0.176696
18.354820 -17.570919 0.177394
18.409019 -17.622803 0.533822
18.303183 -17.675179 -0.532985
18.328331 -17.699465 -0.177883
18.336884 -17.863001 0.178720
18.340469 -17.866495 0.536335
18.262339 -17.946350 -0.536335
18.280163 -17.963867 -0.178930
18.293930 -18.134977 0.179837
18.325865 -18.166636 0.540524
18.211077 -18.211077 -0.539477
18.264124 -18.264124 -0.180326
18.275778 -18.435963 0.181234
18.279253 -18.439468 0.543875
18.226652 -18.547575 -0.544712
18.272259 -18.593987 -0.182001
18.253754 -18.738003 0.182630
18.285076 -18.770157 0.548901
18.175222 -18.820993 -0.548063
18.213499 -18.860630 -0.183049
18.200180 -19.012156 0.183747
18.258854 -19.073448 0.553089
18.175457 -19.152935 -0.553089
18.185884 -19.163923 -0.184445
18.218573 -19.366913 0.185632
18.256123 -19.406830 0.558115
18.137178 -19.449741 -0.557068
18.154354 -19.468161 -0.185841
18.184629 -19.672020 0.187028
18.221804 -19.712234 0.562304
18.101847 -19.754700 -0.561257
18.145910 -19.802786 -0.187517
18.153461 -19.985403 0.188494
18.156645 -19.988907 0.565655
18.096014 -20.097658 -0.566492
18.106234 -20.109009 -0.188913
18.138174 -20.322107 0.190170
18.194555 -20.385277 0.572356
18.072311 -20.427031 -0.571309
18.089087 -20.445993 -0.190588
18.118382 -20.660055 0.191845
18.121441 -20.663544 0.575707
18.050785 -20.765053 -0.576335
18.067425 -20.784195 -0.192264
18.094059 -20.999189 0.193521
18.116636 -21.025393 0.581362
17.992258 -21.066229 -0.580314
18.041227 -21.123564 -0.193939
18.065186 -21.339460 0.195196
18.068125 -21.342930 0.585759
18.032665 -21.490492 -0.587644
18.055464 -21.517664 -0.196104
18.050922 -21.703876 0.197081
18.079369 -21.738079 0.592252
17.962067 -21.984472 0.198198
17.990192 -22.018896 0.595602
17.944788 -22.358744 0.200153
17.972580 -22.393370 0.601466
17.947096 -22.765783 0.202387
17.949787 -22.769196 0.607330
17.894674 -23.111294 0.204062
17.964636 -23.201649 0.614660
17.904160 -23.545166 0.206506
17.906721 -23.548534 0.619686
17.823656 -23.868769 0.207972
17.856071 -23.912180 0.625131
17.847723 -24.341223 0.632252
0.157744 -0.219120 0.001885
0.157713 -0.219077 0.005654
0.153895 -0.221839 0.001885
0.159564 -0.230011 0.005864
0.151924 -0.223130 0.005654
0.155556 -0.232806 0.001955
0.166635 -0.249386 0.006283
0.148007 -0.225748 0.005654
0.129831 -0.201844 0.001676
0.118988 -0.184988 0.004607
0.128064 -0.202970 0.001676
0.096030 -0.152198 0.003770
0.147336 -0.238093 0.001955
0.157830 -0.255050 0.006283
0.140065 -0.230821 0.001885
0.140038 -0.230776 0.005654
0.117595 -0.197659 0.001606
0.102236 -0.171844 0.004188
0.115843 -0.198639 0.004817