# This PCD file was generated using the MATLAB® pcwrite function
# from Computer Vision System Toolbox®.
# .PCD v.7 - Point Cloud Data file format
VERSION .7
FIELDS x y z
SIZE 4 4 4
TYPE F F F
COUNT 1 1 1
WIDTH 736
HEIGHT 1
VIEWPOINT 0 0 0 1 0 0 0
POINTS 736
DATA ascii
31.090727 31.090727 -0.306966
31.133684 30.594988 -0.914346
31.125490 30.586935 -0.304662
31.126198 30.058220 -0.906388
31.081915 30.015457 -0.301660
31.060970 29.475761 -0.896964
31.045267 29.460857 -0.298798
31.009909 28.917208 -0.888168
31.037895 28.943306 -0.296285
31.062054 28.463127 -0.882514
31.023874 28.428143 -0.293771
30.974913 27.889936 -0.873089
31.003246 27.915449 -0.291258
31.022430 27.446327 -0.867644
31.006012 27.431801 -0.289024
30.958942 26.912199 -0.859267
30.980074 26.930567 -0.286581
30.949337 26.433231 -0.852566
30.970581 26.451374 -0.284347
30.933750 25.956497 -0.845864
30.955101 25.974415 -0.282113
30.943073 25.507502 -0.840000
30.956823 25.518837 -0.280088
30.915855 25.035166 -0.833299
30.937428 25.052633 -0.277924
30.914066 24.590158 -0.827435
30.912270 24.588730 -0.275760
30.843855 24.097860 -0.819896
30.834110 24.090246 -0.273177
30.862608 23.681713 -0.814870
30.884493 23.698505 -0.271780
30.876461 23.267082 -0.809843
30.866510 23.259584 -0.269826
30.861334 22.836185 -0.804189
30.875389 22.846586 -0.268150
30.857229 22.419090 -0.798953
30.847067 22.411705 -0.266195
30.758678 21.939951 -0.791414
30.780958 21.955843 -0.263961
30.817930 21.578947 -0.788063
30.815748 21.577419 -0.262635
30.774363 21.150633 -0.782199
30.796844 21.166086 -0.260890
30.767126 20.752687 -0.777383
30.814575 20.784693 -0.259493
30.746964 20.350971 -0.772356
30.761299 20.360458 -0.257539
30.791306 20.187664 0.257050
30.780844 19.989313 -0.768796
30.803619 20.004105 -0.256422
30.772867 19.793774 0.255444
30.800503 19.811548 0.767121
30.751740 19.591019 -0.763770
30.774605 19.605585 -0.254746
30.775286 19.417759 0.254048
30.769285 19.413973 0.762095
30.718044 19.194765 -0.758744
30.740993 19.209105 -0.253071
30.773497 19.043219 0.252652
30.733492 19.018461 0.757068
30.722412 18.826719 -0.754765
30.745455 18.840839 -0.251744
30.733334 18.649445 0.250976
30.735889 18.650995 0.753089
30.714138 18.454916 -0.750576
30.694412 18.443064 -0.249999
30.723030 18.278282 0.249580
30.725634 18.279831 0.748901
30.693113 18.079626 -0.746178
30.690483 18.078075 -0.248672
30.743156 17.928879 0.248463
30.745800 17.930420 0.745550
30.641918 17.691120 -0.741152
30.665213 17.704569 -0.247206
30.724808 17.560675 0.247067
30.727497 17.562212 0.741362
30.629801 17.329508 -0.737173
30.653181 17.342735 -0.245880
30.702387 17.194162 0.245671
30.740017 17.215237 0.738011
30.674931 17.003391 -0.734660
30.698404 17.016403 -0.245042
30.710989 16.848625 0.244554
30.713768 16.850151 0.733822
30.672777 16.653959 -0.731100
30.705122 16.671520 -0.243925
30.680677 16.485323 0.243157
30.727537 16.510502 0.730681
30.613907 16.277702 -0.726283
30.602219 16.271488 -0.241970
30.646376 16.123838 0.241761
30.649248 16.125349 0.725445
30.639503 15.949916 -0.723561
30.672087 15.966878 -0.241412
30.643675 15.782529 0.240644
30.682140 15.802341 0.722932
30.572638 15.577537 -0.718744
30.596418 15.589654 -0.239736
30.601643 15.424498 0.239248
30.604605 15.425991 0.717906
30.600042 15.256618 -0.716231
30.588112 15.250669 -0.238619
30.627459 15.103790 0.238410
30.639420 15.109690 0.715603
30.624184 14.936412 -0.713718
30.648130 14.948092 -0.238061
30.613987 14.766435 0.237293
30.653044 14.785274 0.712880
30.599955 14.595429 -0.710157
30.596895 14.593970 -0.236665
30.596972 14.430469 0.236176
30.645262 14.453244 0.709739
30.553997 14.247562 -0.706178
30.541828 14.241888 -0.235268
30.621841 14.116862 0.235408
30.624950 14.118296 0.706388
30.604383 13.947221 -0.704503
30.628550 13.958235 -0.234989
30.561520 13.766960 0.234012
30.601139 13.784808 0.703037
30.542261 13.598290 -0.700315
30.566486 13.609076 -0.233593
30.570658 13.451411 0.233174
30.610455 13.468923 0.700524
30.522234 13.271445 -0.697173
30.500675 13.262071 -0.232197
30.576626 13.136755 0.232336
30.570665 13.134194 0.696964
30.554058 12.969428 -0.695288
30.578426 12.979772 -0.231917
30.579439 12.823023 0.231499
30.582697 12.824389 0.694660
30.555233 12.656391 -0.692775
30.588905 12.670340 -0.231150
30.542093 12.495100 0.230382
30.582405 12.511592 0.692147
30.516199 12.329345 -0.689424
30.577778 12.354224 -0.230242
30.575665 12.198454 0.229823
30.578991 12.199780 0.689634
30.548212 12.033260 -0.687749
30.535561 12.028277 -0.229125
30.531834 11.873180 0.228706
30.535200 11.874490 0.686283
30.502718 11.708896 -0.684398
30.564678 11.732680 -0.228566
30.522070 11.563778 0.227868
30.525469 11.565065 0.683770
30.528816 11.414257 -0.682723
30.516037 11.409478 -0.227449
30.509239 11.255452 0.227031
30.512671 11.256719 0.681257
30.476944 11.092700 -0.679372
30.539267 11.115384 -0.226891
30.493361 10.948235 0.226193
30.534464 10.962993 0.679582
30.497189 10.799621 -0.677697
30.484283 10.795051 -0.225774
30.474451 10.642155 0.225355
30.515703 10.656561 0.677068
30.476833 10.494016 -0.675184
30.501686 10.502573 -0.225215
30.528284 10.362956 0.225076
30.493931 10.351295 0.674555
30.500881 10.205452 -0.673718
30.535278 10.216961 -0.224797
30.465605 10.046050 0.223959
30.469162 10.047222 0.672042
30.512711 9.914181 -0.672042
30.537680 9.922294 -0.224168
30.475924 9.755420 0.223400
30.479504 9.756566 0.670367
30.445503 9.599430 -0.668691
30.432365 9.595288 -0.222772
30.483494 9.465377 0.222842
30.525291 9.478355 0.669529
30.451626 9.309997 -0.667016
30.438438 9.305964 -0.222214
30.459602 9.167300 0.222074
30.453665 9.165513 0.666178
30.455023 9.021189 -0.665341
30.489725 9.031467 -0.222004
30.452040 8.875960 0.221446
30.455702 8.877028 0.664503
30.455702 8.733032 -0.663665
30.490479 8.743004 -0.221446
30.460966 8.590881 0.220957
30.503139 8.602776 0.663875
30.453678 8.445553 -0.661990
30.440344 8.441854 -0.220538
30.409355 8.290542 0.220049
30.451656 8.302074 0.661152
30.371704 8.138074 -0.658639
30.396944 8.144836 -0.219700
30.403183 8.004490 0.219491
30.455267 8.018203 0.659686
30.402847 7.862711 -0.657801
30.437820 7.871756 -0.219491
30.394341 7.719179 0.218932
30.407795 7.722596 0.657173
30.392698 7.577751 -0.656126
30.418030 7.584066 -0.218863
30.431406 7.446517 0.218723
30.435184 7.447442 0.656335
30.418781 7.302904 -0.655288
30.444160 7.308996 -0.218583
30.446562 7.169213 0.218374
30.411430 7.160941 0.654451
30.452127 7.030428 -0.654660
30.477552 7.036297 -0.218374
30.429939 6.885592 0.217815
30.472763 6.895282 0.654451
30.356146 6.729796 -0.651309
30.381592 6.735436 -0.217257
30.410690 6.602808 0.217257
30.424303 6.605763 0.652147
30.403940 6.462557 -0.651100
30.429430 6.467975 -0.217187
30.398621 6.322922 0.216768
30.402483 6.323726 0.650472
30.341612 6.173071 -0.648587
30.406322 6.186236 -0.216629
30.374180 6.041800 0.216210
30.407482 6.048424 0.649424
30.306000 5.890890 -0.646702
30.341356 5.897762 -0.215791
30.337330 5.759722 0.215581
30.390348 5.769788 0.647958
30.287439 5.613445 -0.645236
30.263849 5.609073 -0.214883
30.347076 5.487645 0.215302
30.350998 5.488354 0.646074
30.335272 5.348927 -0.645236
30.360884 5.353443 -0.215232
30.354387 5.215837 0.215023
30.368176 5.218207 0.645445
30.351213 5.079051 -0.644608
30.416307 5.089944 -0.215302
30.369139 4.945928 0.214813
30.363218 4.944964 0.644398
30.305508 4.799921 -0.642723
30.331169 4.803985 -0.214395
30.332075 4.668553 0.214255
30.336044 4.669164 0.642932
30.296801 4.527887 -0.641676
30.342268 4.534682 -0.214185
30.322180 4.396507 0.213906
30.365740 4.402823 0.642723
30.305458 4.259154 -0.641047
30.331171 4.262768 -0.213836
30.329666 4.127687 0.213696
30.323753 4.126882 0.641047
30.192787 3.974956 -0.637906
30.238331 3.980952 -0.212928
30.235575 3.846451 0.212789
30.279268 3.852010 0.639372
30.256096 3.714981 -0.638534
30.271919 3.716924 -0.212928
30.317640 3.588329 0.213138
30.311731 3.587630 0.639372
30.257561 3.447414 -0.637906
30.283333 3.450350 -0.212789
30.268278 3.314916 0.212579
30.312069 3.319711 0.638744
30.197006 3.173833 -0.636021
30.222784 3.176543 -0.212160
30.246305 3.045643 0.212230
30.260303 3.047052 0.637068
30.263359 2.914030 -0.636859
30.249353 2.912681 -0.212160
30.231901 2.777921 0.211951
30.235964 2.778295 0.636021
30.168119 2.639369 -0.634346
30.193926 2.641626 -0.211602
30.264957 2.514824 0.212021
30.269020 2.515162 0.636231
30.229872 2.379143 -0.635184
30.255703 2.381176 -0.211881
30.195999 2.243950 0.211393
30.249935 2.247958 0.635393
30.219563 2.113158 -0.634555
30.235430 2.114267 -0.211602
30.214432 1.980358 0.211393
30.268400 1.983896 0.635393
30.236851 1.849365 -0.634555
30.222786 1.848505 -0.211393
30.230562 1.716616 0.211393
30.234652 1.716848 0.634346
30.211903 1.583339 -0.633718
30.237766 1.584694 -0.211393
30.254381 1.453222 0.211462
30.208536 1.451020 0.633508
30.224569 1.319633 -0.633718
30.250443 1.320763 -0.211393
30.185974 1.186010 0.210904
30.220049 1.187349 0.633508
30.184975 1.054083 -0.632671
30.220842 1.055335 -0.211113
30.235155 0.923768 0.211183
30.239252 0.923893 0.633718
30.203018 0.790894 -0.632880
30.188915 0.790525 -0.210834
30.202074 0.659012 0.210904
30.206182 0.659101 0.632880
30.168785 0.526598 -0.632042
30.194664 0.527050 -0.210834
30.166679 0.394903 0.210625
30.170795 0.394957 0.632042
30.212221 0.263658 -0.632880
30.198114 0.263535 -0.210834
30.168978 0.131638 0.210625
30.173094 0.131656 0.632042
30.173382 0.000000 -0.632042
30.199265 0.000000 -0.210834
30.158978 -0.131594 0.210555
30.173094 -0.131656 0.632042
30.092253 -0.262611 -0.630367
30.078121 -0.262488 -0.209996
30.126684 -0.394380 0.210345
30.120811 -0.394303 0.630995
30.168785 -0.526598 -0.632042
30.184666 -0.526875 -0.210764
30.112099 -0.657048 0.210276
30.126219 -0.657356 0.631205
30.163042 -0.789847 -0.632042
30.188915 -0.790525 -0.210834
30.105219 -0.919798 0.210276
30.159307 -0.921450 0.632042
30.075066 -1.050244 -0.630367
30.100918 -1.051147 -0.210276
30.146006 -1.184440 0.210625
30.150118 -1.184601 0.632042
30.094721 -1.313964 -0.630995
30.120569 -1.315092 -0.210485
30.094568 -1.445546 0.210345
30.098688 -1.445744 0.631205
30.092093 -1.577060 -0.631205
30.077988 -1.576321 -0.210276
30.110760 -1.709813 0.210555
30.124853 -1.710613 0.632042
30.077185 -1.839599 -0.631205
30.103012 -1.841179 -0.210555
30.094692 -1.972510 0.210555
30.108778 -1.973433 0.632042
30.099880 -2.104789 -0.632042
30.125700 -2.106594 -0.210834
30.126194 -2.238763 0.210904
30.090410 -2.236104 0.632042
30.120235 -2.370514 -0.632880
30.106171 -2.369407 -0.210834
30.105511 -2.501575 0.210904
30.109604 -2.501915 0.632880
30.098402 -2.633269 -0.632880
30.084347 -2.632039 -0.210834
30.082533 -2.764197 0.210904
30.116493 -2.767317 0.633508
30.064323 -2.894865 -0.632671
30.100048 -2.898305 -0.211113
30.087114 -3.029613 0.211113
30.091196 -3.030024 0.633508
30.077690 -3.161293 -0.633508
30.073608 -3.160864 -0.211113
30.109232 -3.297497 0.211462
30.063610 -3.292501 0.633508
30.048958 -3.423646 -0.633508
30.084623 -3.427710 -0.211393
30.029659 -3.554244 0.211113
30.033733 -3.554727 0.633508
30.067553 -3.691831 -0.634555
30.053566 -3.690114 -0.211393
30.037178 -3.821212 0.211393
30.041241 -3.821728 0.634346
30.034191 -3.954076 -0.634555
30.049961 -3.956152 -0.211602
30.042322 -4.088581 0.211672
30.006746 -4.083739 0.634346
29.998543 -4.216020 -0.634555
30.024197 -4.219625 -0.211672
30.005499 -4.350590 0.211672
30.019438 -4.352612 0.635393
29.960608 -4.477643 -0.634555
29.936781 -4.474082 -0.211323
30.015808 -4.619874 0.212021
29.980312 -4.614411 0.635393
30.038889 -4.757693 -0.637068
30.015118 -4.753928 -0.212160
29.964479 -4.880025 0.211951
30.017845 -4.888716 0.637068
29.956785 -5.013047 -0.636231
29.942902 -5.010723 -0.211951
30.009451 -5.156567 0.212579
29.974041 -5.150482 0.637068
29.990665 -5.288164 -0.637906
30.016209 -5.292667 -0.212789
29.963308 -5.418249 0.212579
29.996820 -5.424309 0.638534
29.972868 -5.555142 -0.638534
29.968880 -5.554403 -0.212789
29.954184 -5.686979 0.212859
29.987633 -5.693330 0.639372
29.972319 -5.826029 -0.639582
29.987980 -5.829073 -0.213278
29.981874 -5.963766 0.213417
29.985836 -5.964554 0.640419
29.949728 -6.093341 -0.640210
29.945768 -6.092535 -0.213347
29.967852 -6.233322 0.213696
29.962009 -6.232107 0.641047
29.934532 -6.362781 -0.641047
29.969711 -6.370259 -0.213906
29.941631 -6.500966 0.213906
29.955334 -6.503941 0.642095
29.965714 -6.643239 -0.642932
29.991083 -6.648863 -0.214464
29.971539 -6.781867 0.214534
29.975447 -6.782751 0.643770
29.896858 -6.902234 -0.642723
29.970892 -6.919326 -0.214744
29.950150 -7.052324 0.214813
29.954042 -7.053241 0.644608
29.922981 -7.183872 -0.644608
29.948263 -7.189942 -0.215023
29.926319 -7.322924 0.215093
29.930197 -7.323873 0.645445
29.888254 -7.451979 -0.645236
29.913488 -7.458270 -0.215232
29.900045 -7.593644 0.215372
29.865145 -7.584781 0.645445
29.947918 -7.745059 -0.647958
29.934395 -7.741561 -0.215861
29.871321 -7.864462 0.215651
29.875166 -7.865475 0.647121
29.879190 -8.006105 -0.647958
29.904335 -8.012842 -0.216140
29.878735 -8.145878 0.216210
29.921139 -8.157439 0.649634
29.885262 -8.287916 -0.649634
29.900724 -8.292205 -0.216629
29.883507 -8.428020 0.216768
29.877682 -8.426377 0.650262
29.888681 -8.570441 -0.651309
29.913734 -8.577625 -0.217257
29.885624 -8.710865 0.217327
29.889397 -8.711965 0.652147
29.812754 -8.830940 -0.651309
29.837744 -8.838342 -0.217257
29.846771 -8.982859 0.217606
29.888821 -8.995514 0.653822
29.887531 -9.137535 -0.654660
29.874233 -9.133470 -0.218095
29.881845 -9.278560 0.218444
29.885569 -9.279716 0.655498
29.835258 -9.407021 -0.655288
29.860149 -9.414869 -0.218583
29.837833 -9.551166 0.218723
29.841537 -9.552352 0.656335
29.799574 -9.682468 -0.656335
29.786364 -9.678177 -0.218653
29.829323 -9.836235 0.219281
29.833002 -9.837449 0.658011
29.780313 -9.964354 -0.657801
29.814569 -9.975815 -0.219491
29.818104 -10.121882 0.219840
29.812290 -10.119909 0.659477
29.777304 -10.253148 -0.659686
29.802019 -10.261658 -0.220049
29.804165 -10.408080 0.220398
29.798353 -10.406051 0.661152
29.752665 -10.535972 -0.661152
29.786745 -10.548039 -0.220608
29.787495 -10.694803 0.220957
29.828737 -10.709611 0.663875
29.734749 -10.822563 -0.662828
29.759340 -10.831514 -0.221097
29.768085 -10.982027 0.221515
29.762281 -10.979886 0.664503
29.751549 -11.123649 -0.665341
29.785450 -11.136323 -0.222004
29.745926 -11.269723 0.222074
29.749475 -11.271069 0.666388
29.774685 -11.429430 -0.668063
29.761818 -11.424492 -0.222563
29.721006 -11.557867 0.222632
29.752485 -11.570108 0.668691
29.711020 -11.703482 -0.668901
29.735420 -11.713094 -0.223121
29.767620 -11.876077 0.223749
29.771103 -11.877466 0.671414
29.709724 -12.003509 -0.671205
29.696976 -11.998357 -0.223610
29.736891 -12.165684 0.224308
29.703335 -12.151955 0.672252
29.714685 -12.308226 -0.673718
29.702003 -12.302973 -0.224448
29.694147 -12.451790 0.224797
29.660698 -12.437763 0.673718
29.679771 -12.598315 -0.675393
29.703968 -12.608586 -0.225285
29.694609 -12.757811 0.225634
29.698006 -12.759270 0.677068
29.605375 -12.872784 -0.676231
29.638659 -12.887256 -0.225634
29.655369 -13.048675 0.226193
29.695343 -13.066264 0.679582
29.647182 -13.199776 -0.679791
29.652964 -13.202350 -0.226612
29.686249 -13.372680 0.227310
29.689577 -13.374179 0.682095
29.630939 -13.503596 -0.682095
29.654915 -13.514524 -0.227519
29.686478 -13.685654 0.228217
29.680689 -13.682985 0.684608
29.656948 -13.829262 -0.685445
29.635542 -13.819281 -0.228287
29.629229 -13.974051 0.228706
29.632494 -13.975592 0.686283
29.652449 -14.143492 -0.688168
29.631153 -14.133335 -0.229195
29.614237 -14.284212 0.229544
29.653488 -14.303144 0.689634
29.599783 -14.436779 -0.689843
29.650494 -14.461512 -0.230312
29.631954 -14.612863 0.230661
29.679977 -14.636545 0.693194
29.642673 -14.779291 -0.693822
29.594759 -14.755403 -0.230870
29.646179 -14.942904 0.231778
29.613615 -14.926491 0.694660
29.619469 -15.091873 -0.696335
29.607426 -15.085736 -0.231987
29.585770 -15.237673 0.232336
29.597778 -15.243857 0.697383
29.593060 -15.405172 -0.698849
29.581091 -15.398941 -0.232825
29.593266 -15.569770 0.233453
29.631737 -15.590011 0.701362
29.563429 -15.719154 -0.701362
29.586853 -15.731608 -0.233942
29.526737 -15.865289 0.234012
29.609051 -15.909517 0.704084
29.530565 -16.033789 -0.703875
29.518747 -16.027372 -0.234501
29.527437 -16.199306 0.235129
29.530447 -16.200958 0.705550
29.529430 -16.368431 -0.707226
29.552679 -16.381317 -0.235897
29.524546 -16.534540 0.236246
29.562405 -16.555742 0.709739
29.524693 -16.704268 -0.710576
29.521746 -16.702600 -0.236804
29.518040 -16.870951 0.237363
29.520966 -16.872622 0.712252
29.516331 -17.041262 -0.713927
29.504766 -17.034584 -0.237852
29.507902 -17.208500 0.238480
29.510786 -17.210182 0.715603
29.461254 -17.354006 -0.716231
29.492847 -17.372614 -0.238969
29.451139 -17.521587 0.239248
29.453991 -17.523283 0.717906
29.480089 -17.713425 -0.720419
29.502979 -17.727179 -0.240295
29.442448 -17.866116 0.240435
29.470896 -17.883379 0.722095
29.469305 -18.058813 -0.723979
29.458000 -18.051886 -0.241203
29.455482 -18.227606 0.241831
29.458242 -18.229313 0.725655
29.446251 -18.400061 -0.727330
29.435032 -18.393049 -0.242320
29.430611 -18.569332 0.242948
29.467150 -18.592388 0.729843
29.377314 -18.715412 -0.729634
29.374609 -18.713690 -0.243157
29.435648 -18.933645 0.244344
29.471952 -18.956997 0.734032
29.388956 -19.085411 -0.734032
29.436619 -19.116364 -0.245042
29.403105 -19.277519 0.245461
29.405733 -19.279243 0.736545
29.354681 -19.429440 -0.737383
29.343727 -19.422190 -0.245671
29.400049 -19.644485 0.246857
29.402630 -19.646210 0.740733
29.407803 -19.835814 -0.743037
29.405247 -19.834089 -0.247625
29.359753 -19.990343 0.247974
29.395350 -20.014582 0.744922
29.406612 -20.210606 -0.747435
29.395864 -20.203218 -0.249022
29.340298 -20.354088 0.249301
29.383865 -20.384312 0.749110
29.319212 -20.529533 -0.749739
29.341311 -20.545008 -0.250069
29.357548 -20.747864 0.250976
29.368155 -20.755360 0.753299
29.334288 -20.923944 -0.754765
29.356291 -20.939638 -0.251744
29.313337 -21.102583 0.252163
29.307623 -21.098469 0.756440
29.279993 -21.273159 -0.758116
29.301882 -21.289062 -0.252861
29.281290 -21.469931 0.253490
29.315895 -21.495304 0.761466
29.318268 -21.694376 -0.763979
29.340061 -21.710503 -0.254816
29.325174 -21.898148 0.255514
29.295425 -21.875933 0.765864
29.287525 -22.069735 -0.768168
29.277264 -22.062000 -0.255933
29.323999 -22.298487 0.257190
29.294407 -22.275986 0.770890
29.284182 -22.470543 -0.773194
29.274025 -22.462749 -0.257609
29.278521 -22.669853 0.258516
29.288624 -22.677675 0.775917
29.244543 -22.848341 -0.777383
29.266006 -22.865110 -0.259284
29.268049 -23.073069 0.260192
29.238789 -23.050003 0.779896
29.200531 -23.227152 -0.781571
29.253180 -23.269030 -0.260960
29.229359 -23.459040 0.261658
29.262646 -23.485756 0.785969
29.183201 -23.632090 -0.786597
29.204433 -23.649284 -0.262356
29.201635 -23.858736 0.263263
29.203684 -23.860411 0.789948
29.222729 -24.089359 -0.793299
29.243858 -24.106777 -0.264590
29.269094 -24.342850 0.265777
29.217268 -24.299746 0.796021
29.195210 -24.497690 -0.798325
29.185581 -24.489611 -0.265986
29.208195 -24.726562 0.267173
29.210131 -24.728201 0.801676
29.162775 -24.907364 -0.803351
29.153254 -24.899231 -0.267662
29.142815 -25.111055 0.268569
29.121984 -25.093107 0.805236
29.095219 -25.292088 -0.807540
29.115986 -25.310141 -0.269337
29.163155 -25.575401 0.270803
29.142437 -25.557230 0.811938
29.142963 -25.783516 -0.815079
29.133667 -25.775291 -0.271571
29.147751 -26.015362 0.272758
29.149529 -26.016949 0.818430
29.124887 -26.224167 -0.820943
29.115705 -26.215899 -0.273526
29.126873 -26.456989 0.274713
29.128595 -26.458553 0.824294
29.071840 -26.639435 -0.825969
29.121746 -26.685163 -0.275760
29.100492 -26.900217 0.276667
29.124186 -26.922119 0.830786
29.072247 -27.110308 -0.832671
29.085228 -27.122414 -0.277645
29.097712 -27.372393 0.278901
29.092039 -27.367058 0.836650
29.008612 -27.528145 -0.837697
29.028774 -27.547279 -0.279390
29.059994 -27.818892 0.280856
29.054329 -27.813469 0.842514
29.018995 -28.023317 -0.845027
29.010267 -28.014889 -0.281554
29.016685 -28.266802 0.282811
29.039673 -28.289198 0.849215
28.944487 -28.443668 -0.850053
28.935865 -28.435196 -0.283230
28.996162 -28.744221 0.285045
29.018911 -28.766771 0.855917
28.956741 -28.956741 -0.857801
28.997742 -28.997742 -0.286301
28.969500 -29.223415 0.287279
28.999044 -29.253220 0.862828
28.892151 -29.400866 -0.863456
28.939838 -29.449394 -0.288256
28.936665 -29.704317 0.289513
28.965906 -29.734335 0.869529
28.912285 -29.939548 -0.871833
28.931816 -29.959772 -0.290769
28.918371 -30.208525 0.291956
28.919647 -30.209858 0.876021
28.870142 -30.422781 -0.878534
28.889538 -30.443220 -0.293003
28.907166 -30.729223 0.294539
28.901531 -30.723232 0.883561
28.876297 -30.966036 -0.886912
28.868286 -30.957447 -0.295517
28.875481 -31.237318 0.296983
28.876637 -31.238569 0.891100
28.848129 -31.482208 -0.894451
28.867266 -31.503094 -0.298309
28.870728 -31.784191 0.299775
28.871820 -31.785397 0.899477
28.813135 -32.000229 -0.901990
28.805370 -31.991606 -0.300543
28.838633 -32.310959 0.302358
28.799723 -32.267365 0.905969
28.797777 -32.549965 -0.910367
28.816643 -32.571289 -0.303615
28.786337 -32.824528 0.304802
28.780725 -32.818127 0.914346
28.768438 -33.094303 -0.918535
28.767487 -33.093208 -0.306128
28.733784 -33.347198 0.307315
28.780392 -33.401287 0.923561
28.744759 -33.655788 -0.927121
28.730881 -33.639542 -0.308851
28.758278 -33.970650 0.310736
28.746212 -33.956394 0.931938
28.697323 -34.504780 0.313319
28.704514 -34.513428 0.940315
28.667179 -35.086876 0.316321
28.705872 -35.134232 0.950367
28.660337 -35.710041 0.319672
28.673523 -35.726471 0.959582
0.128507 -0.178507 0.004607
0.176695 -0.254704 0.002164
0.176660 -0.254655 0.006492
0.127778 -0.191233 0.001606
0.138862 -0.207822 0.005236
0.120622 -0.183978 0.001536
0.126080 -0.192304 0.004817
0.151469 -0.235485 0.001955
0.135214 -0.210214 0.005236
0.149408 -0.236798 0.001955
0.117369 -0.186019 0.004607
0.147336 -0.238093 0.001955
0.136786 -0.221043 0.005445
0.129690 -0.213723 0.001745
0.119292 -0.196587 0.004817
0.158497 -0.266409 0.002164
0.127795 -0.214804 0.005236
0.135989 -0.233184 0.005654