# This PCD file was generated using the MATLAB® pcwrite function
# from Computer Vision System Toolbox®.
# .PCD v.7 - Point Cloud Data file format
VERSION .7
FIELDS x y z
SIZE 4 4 4
TYPE F F F
COUNT 1 1 1
WIDTH 763
HEIGHT 1
VIEWPOINT 0 0 0 1 0 0 0
POINTS 763
DATA ascii
27.186543 29.668905 -0.842932
26.219017 28.613035 -0.270943
27.239859 29.211172 -0.836650
26.440432 28.353891 -0.270663
27.411150 28.885324 -0.834137
27.526628 29.007013 -0.279181
28.058043 29.054955 -0.846074
27.389711 28.362877 -0.275271
28.219425 28.716297 -0.843351
27.713278 28.201235 -0.276039
28.391180 28.391180 -0.841048
28.580559 28.580559 -0.282183
29.208332 28.702948 -0.857801
29.028585 28.526312 -0.284137
29.457697 28.446966 -0.857801
29.081133 27.596964 -0.839791
29.021521 27.540396 -0.279320
29.116117 27.151218 -0.833927
29.085228 27.122414 -0.277645
29.270863 26.821804 -0.831623
29.143864 26.705431 -0.275969
29.266054 26.351274 -0.824922
29.197449 26.289501 -0.274294
29.345137 25.962385 -0.820733
29.275965 25.901186 -0.272897
29.359310 25.521658 -0.814870
29.289564 25.461031 -0.270943
29.489679 25.186565 -0.812356
29.388975 25.100555 -0.269826
29.524536 24.774027 -0.807330
29.423050 24.688869 -0.268150
29.523596 24.337376 -0.801466
29.421328 24.253071 -0.266195
29.641617 24.003307 -0.798953
29.538599 23.919886 -0.265358
29.693466 23.619249 -0.794765
29.589693 23.536705 -0.263961
29.740881 23.236124 -0.790576
29.667881 23.179090 -0.262844
29.783884 22.853979 -0.786388
29.710358 22.797560 -0.261448
29.854433 22.496929 -0.783037
29.780392 22.441135 -0.260331
29.953175 22.164183 -0.780524
29.846478 22.085232 -0.259214
30.177805 21.925459 -0.781362
30.135149 21.894466 -0.260052
30.107529 21.475491 -0.774660
29.942438 21.357735 -0.256771
30.064476 21.051373 -0.768796
29.996616 21.003857 -0.255654
30.123446 20.703270 -0.765655
30.013945 20.628012 -0.254258
30.128906 20.322205 -0.761257
30.118200 20.314983 -0.253629
30.031950 20.066708 0.252163
30.213394 19.997810 -0.758953
30.135899 19.946516 -0.252303
30.088842 19.727110 0.251186
30.016088 19.679409 0.751833
30.252598 19.646267 -0.755603
30.208178 19.617420 -0.251465
30.167334 19.404282 0.250418
30.127819 19.378864 0.750367
30.287977 19.295568 -0.752252
30.209545 19.245604 -0.250069
30.234034 19.076254 0.249580
30.135130 19.013851 0.746388
30.353464 18.966949 -0.749739
30.274580 18.917656 -0.249231
30.229284 18.706450 0.248184
30.163879 18.665976 0.743037
30.415529 18.638660 -0.747226
30.336197 18.590046 -0.248393
30.288790 18.379688 0.247346
30.231602 18.344986 0.740733
30.405626 18.269543 -0.743037
30.325840 18.221603 -0.246997
30.310526 18.032867 0.246229
30.244471 17.993570 0.737173
30.451910 17.937546 -0.740315
30.414768 17.915668 -0.246438
30.371716 17.712261 0.245461
30.305340 17.673552 0.734870
30.546675 17.636131 -0.738849
30.466032 17.589571 -0.245601
30.412264 17.382040 0.244554
30.310854 17.324080 0.731309
30.560188 17.290123 -0.735498
30.513927 17.263948 -0.244763
30.466818 17.062239 0.243786
30.399817 17.024715 0.729843
30.570000 16.945227 -0.732147
30.523483 16.919443 -0.243646
30.465513 16.713953 0.242599
30.433277 16.696268 0.727121
30.646418 16.639647 -0.730472
30.599667 16.614264 -0.243087
30.513311 16.395393 0.241831
30.445715 16.359072 0.723979
30.684526 16.315252 -0.727959
30.646364 16.294960 -0.242320
30.584427 16.091246 0.241272
30.516529 16.055523 0.722304
30.719316 15.991464 -0.725445
30.672087 15.966878 -0.241412
30.617004 15.768793 0.240435
30.548819 15.733675 0.719791
30.786432 15.686471 -0.723770
30.738976 15.662291 -0.240853
31.610683 15.933097 0.247137
31.622377 15.938991 0.741781
30.805832 15.359221 -0.721048
31.393532 15.652238 -0.244903
31.784395 15.674329 0.247416
31.751299 15.658008 0.741571
31.927149 15.571911 -0.744084
31.942362 15.579330 -0.248114
34.773495 16.960167 -0.270105
31.965002 15.418086 0.247765
31.958771 15.415081 0.743246
34.642262 16.709444 0.805655
32.052799 15.288401 -0.743875
32.113201 15.317211 -0.248393
34.811867 16.604408 -0.269267
34.766407 16.396902 0.268360
34.696331 16.363853 0.803561
32.203114 15.016559 -0.744294
34.867077 16.258783 -0.805864
34.819496 16.236597 -0.268220
34.799198 16.042650 0.267522
34.765175 16.026966 0.801885
34.943947 15.924874 -0.804398
34.887066 15.898952 -0.267662
34.864929 15.705506 0.266963
34.794323 15.673700 0.799372
35.035919 15.598996 -0.803351
34.997074 15.581701 -0.267452
34.854210 15.336220 0.265846
34.819965 15.321151 0.796859
35.097359 15.260767 -0.801676
35.021671 15.227856 -0.266614
34.655960 14.889376 0.263333
34.584904 14.858847 0.788482
35.155575 14.922656 -0.800000
35.070381 14.886494 -0.265986
31.022085 13.008639 0.234850
34.720020 14.559313 0.262844
31.025257 13.009970 0.704712
35.173618 14.569389 -0.797487
31.180174 12.915251 -0.235618
31.245485 12.782866 0.235687
31.174622 12.753874 0.705550
31.378290 12.677652 -0.708901
31.328779 12.657648 -0.235897
31.170090 12.435604 0.234291
31.247587 12.466523 0.704712
31.292383 12.326397 -0.704503
31.279877 12.321471 -0.234710
31.314701 12.177621 0.234570
31.131554 12.106400 0.699686
31.482761 12.085100 -0.706388
31.386209 12.048037 -0.234710
31.344969 11.875546 0.234012
31.310810 11.862605 0.701362
30.126135 11.263700 -0.673718
31.418459 11.746881 -0.702618
31.462051 11.763179 -0.234501
31.297300 11.546184 0.232895
31.338099 11.561234 0.699686
30.298441 11.027731 -0.675393
31.300398 11.392413 -0.232546
31.472158 11.299660 0.233453
31.437794 11.287321 0.699686
28.857351 10.218925 -0.641257
30.459492 10.786271 -0.676859
27.986343 9.910484 -0.207274
31.577721 11.182258 -0.233872
31.418516 10.971837 0.232336
31.431269 10.976291 0.697383
29.956913 10.314992 -0.663665
28.005577 9.643094 -0.206785
31.513067 10.697245 0.232336
31.327045 10.634099 0.692985
30.529325 10.214969 -0.674346
28.278322 9.461794 -0.208181
31.567230 10.409311 0.232057
31.542086 10.401020 0.695707
28.620523 9.299372 -0.630367
28.863861 9.378437 -0.211881
29.209267 9.349960 0.214115
31.504486 10.084665 0.230940
30.946075 9.905917 0.680629
28.004524 8.829792 -0.615079
28.153038 8.876619 -0.206087
29.241999 9.079882 0.213766
31.705889 9.844940 0.231778
29.341326 9.110724 0.643561
30.792639 9.561368 0.675393
28.128315 8.599689 -0.616126
28.085987 8.586748 -0.205040
29.808470 8.971332 0.217327
29.390993 8.845685 0.642932
28.116014 8.328343 -0.614241
28.840595 8.542974 -0.209996
29.856823 8.702470 0.217117
29.879797 8.709167 0.651938
31.559517 9.198760 0.688587
27.995413 8.027555 -0.610053
29.673426 8.508718 -0.215512
30.528336 8.609881 0.221446
31.734812 8.950143 0.690681
28.266716 7.839054 -0.614451
29.255108 8.113159 -0.211951
28.238636 7.698736 0.204341
31.103985 8.479919 0.225076
28.310297 7.718273 0.614660
31.763479 8.659719 0.689634
28.720333 7.695590 -0.622828
28.870819 7.735913 -0.208670
31.594664 8.465765 -0.228357
28.469139 7.495299 0.205528
28.724634 7.562565 0.622199
29.057419 7.514759 -0.628691
29.856945 7.721531 -0.215302
28.766073 7.305652 0.207204
29.099621 7.390362 0.628901
28.568943 7.123037 -0.616754
29.690325 7.402629 -0.213627
29.226971 7.151794 0.210066
30.396339 7.437937 0.655498
28.785559 6.910801 -0.620105
30.103840 7.227293 -0.216140
28.373314 6.681028 0.203504
30.781233 7.248018 0.662409
31.987959 7.532165 0.688377
29.740993 6.866250 -0.639372
28.879625 6.667387 -0.206925
28.147694 6.369173 0.201479
27.976435 6.330421 0.600838
31.896450 7.217430 0.685027
28.794416 6.383568 -0.617801
30.522081 6.766582 -0.654869
28.858606 6.397799 -0.206366
28.622402 6.214532 0.204481
28.851305 6.264233 0.618430
32.016842 6.951538 0.686283
28.193811 5.992779 -0.603770
29.461088 6.262147 -0.210276
28.969250 6.025612 0.206575
30.545475 6.353468 0.217815
31.038723 6.456064 0.664084
28.587933 5.816280 -0.611100
29.201044 5.941020 -0.208042
29.246304 5.817451 0.208181
29.681860 5.904089 0.633927
29.128305 5.661969 -0.621571
29.369570 5.708866 -0.208879
29.374552 5.576933 0.208740
29.467049 5.594494 0.628273
29.048811 5.383879 -0.618849
29.221624 5.415908 -0.207483
29.815706 5.391558 0.211532
29.554100 5.344252 0.629110
28.946999 5.104137 -0.615707
29.188990 5.146807 -0.206925
29.467407 5.063427 0.208740
29.156208 5.009953 0.619686
28.615730 4.788631 -0.607749
29.627298 4.957909 -0.209717
29.480864 4.801263 0.208530
29.346834 4.779436 0.622828
28.271315 4.477736 -0.599581
30.019140 4.754565 -0.636650
29.313875 4.642862 -0.207204
29.333855 4.514912 0.207204
28.962523 4.457758 0.613822
28.536737 4.264844 -0.604398
28.601643 4.274544 -0.201898
29.372137 4.258757 0.207204
29.148735 4.226366 0.616964
28.444162 3.997566 -0.601676
28.172440 3.959378 -0.198617
29.527084 4.018460 0.208042
29.134975 3.965096 0.615917
28.755508 3.785734 -0.607540
28.543001 3.757757 -0.200990
29.729664 3.782091 0.209228
28.384954 3.611022 0.599372
29.035530 3.565115 -0.612775
29.378651 3.607245 -0.206645
29.801258 3.527211 0.209508
28.534529 3.377284 0.601885
28.658262 3.265197 -0.604189
28.614172 3.260173 -0.201060
29.492933 3.230001 0.207134
29.179092 3.195631 0.614869
28.606119 3.006624 -0.602513
28.402853 2.985260 -0.199385
29.261311 2.946459 0.205319
29.772877 2.997971 0.626807
29.298037 2.821080 -0.616545
28.865786 2.779459 -0.202457
28.628695 2.630607 0.200711
29.847685 2.742617 0.627854
29.271742 2.560946 -0.615498
28.769402 2.516997 -0.201619
28.590767 2.375710 0.200292
28.435741 2.362828 0.597697
29.372711 2.311682 -0.617173
29.189028 2.297226 -0.204411
29.368301 2.182442 0.205598
28.186079 2.094588 0.592042
29.122482 2.036442 -0.611519
29.716709 2.077995 -0.207972
29.226576 1.915611 0.204481
28.811846 1.888428 0.604817
28.660145 1.752930 -0.601466
29.224674 1.787458 -0.204411
29.361984 1.667294 0.205319
29.376223 1.668103 0.616335
28.864048 1.512701 -0.605445
29.039438 1.521893 -0.203015
28.616308 1.374540 0.200013
29.189936 1.402093 0.612147
29.665224 1.295212 -0.621990
28.652004 1.250974 -0.200223
28.387405 1.115344 0.198338
29.071188 1.142210 0.609424
29.045919 1.014306 -0.608796
28.661831 1.000893 -0.200223
28.555979 0.872464 0.199455
28.460474 0.869546 0.596440
28.623907 0.749543 -0.599791
29.099316 0.761992 -0.203224
29.942142 0.653340 0.209089
28.387014 0.619407 0.594765
28.729321 0.501472 -0.601885
29.354813 0.512390 -0.204970
29.736727 0.389275 0.207623
29.081129 0.380693 0.609215
30.660646 0.401370 0.642304
29.172489 0.254584 -0.611100
29.638149 0.258648 -0.206925
28.669029 0.125093 0.200153
29.603224 0.129169 0.620105
29.453539 0.000000 -0.616964
29.999269 0.000000 -0.209438
28.449036 -0.124133 0.198617
29.253304 -0.127642 0.612775
28.942549 -0.252578 -0.606283
29.548155 -0.257863 -0.206296
29.096798 -0.380898 0.203155
29.960859 -0.392209 0.627644
28.829283 -0.503217 -0.603979
29.474792 -0.514484 -0.205808
29.522253 -0.644178 0.206157
29.936306 -0.653212 0.627225
30.063097 -0.787230 -0.629948
30.388842 -0.795760 -0.212230
29.795370 -0.910331 0.208111
30.259239 -0.924503 0.634136
30.444759 -1.063154 -0.638116
29.621222 -1.034396 -0.206925
29.736332 -1.168344 0.207762
29.890375 -1.174396 0.626597
29.735144 -1.298264 -0.623456
29.381292 -1.282815 -0.205319
30.254381 -1.453222 0.211462
29.329742 -1.408809 0.615079
29.572920 -1.549851 -0.620314
29.259132 -1.533406 -0.204551
29.601591 -1.680900 0.206994
29.046825 -1.649398 0.609424
29.508373 -1.804809 -0.619267
30.053106 -1.838127 -0.210206
29.306402 -1.920843 0.205040
29.480265 -1.932239 0.618849
30.339243 -2.121526 -0.637068
30.454887 -2.129613 -0.213138
29.807081 -2.215049 0.208670
30.030588 -2.231658 0.630786
29.980698 -2.359532 -0.629948
30.106171 -2.369407 -0.210834
29.956030 -2.489154 0.209857
29.870481 -2.482046 0.627854
29.630293 -2.592315 -0.623037
30.084347 -2.632039 -0.210834
30.560509 -2.808116 0.214255
30.584417 -2.810313 0.643351
29.905096 -2.879533 -0.629320
29.831297 -2.872427 -0.209228
30.007519 -3.021598 0.210555
30.260303 -3.047052 0.637068
29.908657 -3.143527 -0.629948
29.755369 -3.127415 -0.208879
29.860725 -3.270281 0.209717
29.864841 -3.270732 0.629320
30.595301 -3.485894 -0.645027
30.720493 -3.500158 -0.215861
30.397085 -3.597732 0.213696
30.053589 -3.557077 0.633927
30.464483 -3.740568 -0.642932
30.291771 -3.719362 -0.213068
30.007418 -3.817426 0.211183
30.566887 -3.888599 0.645445
30.856909 -4.062389 -0.651938
29.762449 -3.918301 -0.209577
31.289238 -4.119306 -0.220329
30.022505 -4.085884 0.211532
30.165249 -4.105310 0.637697
30.968792 -4.352380 -0.655079
29.707317 -4.175091 -0.209438
31.519464 -4.429772 -0.222214
31.361288 -4.547170 0.221236
29.742395 -4.312442 0.629529
31.038399 -4.638720 -0.657383
31.192801 -4.661795 -0.220189
30.984379 -4.768952 0.218863
29.832090 -4.591598 0.632252
31.253481 -4.950065 -0.662828
30.874386 -4.890022 -0.218234
30.823145 -5.019868 0.218025
30.530970 -4.972284 0.647958
38.997543 -6.351153 0.827644
31.761292 -5.315017 -0.674555
39.324444 -6.580655 -0.835184
30.633284 -5.126254 -0.216838
39.184753 -6.733172 0.277575
39.108143 -6.720008 0.831205
32.166615 -5.671842 -0.684189
39.383671 -6.944404 -0.837697
31.847906 -5.615645 -0.225774
39.242588 -7.096216 0.278413
39.166069 -7.082379 0.833718
39.410046 -7.304220 -0.839582
31.689533 -5.873308 -0.225006
39.378399 -7.298355 -0.279599
39.297058 -7.460780 0.279250
39.181351 -7.438812 0.835393
39.541084 -7.686008 -0.843770
39.450634 -7.668427 -0.280577
39.387379 -7.834636 0.280367
39.271835 -7.811654 0.838744
39.629261 -8.062664 -0.847121
39.499802 -8.036325 -0.281415
39.434990 -8.202490 0.281205
39.358784 -8.186639 0.842095
39.635628 -8.424812 -0.848796
39.584667 -8.413981 -0.282532
39.479176 -8.571769 0.282043
39.403088 -8.555249 0.844608
39.716770 -8.804996 -0.852147
39.587837 -8.776412 -0.283090
39.480896 -8.933615 0.282601
39.404938 -8.916428 0.846283
39.755322 -9.178239 -0.854660
39.665638 -9.157535 -0.284207
39.635036 -9.332812 0.284277
39.520264 -9.305786 0.850472
39.829258 -9.562159 -0.858011
39.739792 -9.540680 -0.285324
39.668644 -9.706855 0.285115
39.554085 -9.678823 0.852985
39.889809 -9.945646 -0.861152
39.810265 -9.925814 -0.286441
39.698730 -10.082193 0.285952
39.623161 -10.063001 0.856336
39.888615 -10.315897 -0.863037
39.799580 -10.292871 -0.287000
39.841320 -10.489345 0.287628
39.727203 -10.459300 0.860524
40.028843 -10.725697 -0.868063
39.940060 -10.701907 -0.288675
39.864040 -10.868185 0.288466
39.788750 -10.847658 0.863875
40.049332 -11.106663 -0.870576
39.922237 -11.071416 -0.289234
39.883175 -11.248219 0.289303
39.808041 -11.227029 0.866388
40.143097 -11.510847 -0.874765
40.054798 -11.485529 -0.290909
40.013905 -11.662989 0.290979
39.900520 -11.629941 0.870576
40.232838 -11.917510 -0.878953
40.183155 -11.902793 -0.292585
40.063808 -12.057838 0.292096
39.950687 -12.023792 0.873927
40.242039 -12.303226 -0.881466
40.125568 -12.267618 -0.292934
40.109859 -12.454443 0.293213
39.997013 -12.419402 0.877278
40.276169 -12.699027 -0.884608
40.198189 -12.674440 -0.294260
40.190125 -12.864960 0.294609
40.077549 -12.828924 0.881466
40.401527 -13.127253 -0.889843
40.314304 -13.098911 -0.295936
40.228275 -13.265296 0.295726
40.153969 -13.240793 0.885655
40.512981 -13.555454 -0.894870
40.426052 -13.526368 -0.297611
40.338242 -13.692987 0.297402
40.188370 -13.642113 0.889006
40.506584 -13.947536 -0.897383
40.457752 -13.930722 -0.298728
40.406025 -14.110415 0.298798
40.256565 -14.058222 0.893194
40.647209 -14.393932 -0.903247
40.485466 -14.336656 -0.299845
40.431938 -14.516548 0.299915
40.320549 -14.476556 0.897383
40.745529 -14.830160 -0.908273
40.621922 -14.785171 -0.301800
40.641457 -14.993425 0.302428
40.455318 -14.924755 0.903247
40.792492 -15.251688 -0.912252
40.603748 -15.181120 -0.302638
40.518421 -15.351056 0.302498
40.435726 -15.319727 0.905760
40.825851 -15.671576 -0.916021
40.693779 -15.620878 -0.304313
40.522717 -15.758422 0.303545
40.347092 -15.690125 0.906807
40.864281 -16.096869 -0.920000
40.779209 -16.063356 -0.305989
40.615852 -16.204082 0.305291
40.320065 -16.086075 0.909320
40.898380 -16.524017 -0.923980
40.785824 -16.478542 -0.307106
40.648746 -16.629843 0.306617
40.576050 -16.600100 0.918325
40.937359 -16.956810 -0.928168
40.899151 -16.940983 -0.309060
40.695736 -17.065140 0.308083
40.586384 -17.019283 0.921885
41.008701 -17.407160 -0.933194
40.897034 -17.359760 -0.310177
40.719833 -17.494621 0.309409
40.546551 -17.420172 0.924398
41.038605 -17.844093 -0.937383
40.964077 -17.811687 -0.311853
40.858509 -17.978174 0.311643
40.585159 -17.857899 0.928796
41.137062 -18.315401 -0.943247
41.026325 -18.266098 -0.313528
40.918884 -18.432613 0.313319
40.774170 -18.367426 0.936754
41.130325 -18.744169 -0.946807
40.974556 -18.673182 -0.314366
40.938095 -18.872721 0.314715
40.830242 -18.823000 0.941781
41.209839 -19.216463 -0.952461
41.100056 -19.165272 -0.316600
40.952732 -19.314562 0.316111
40.845280 -19.263884 0.945969
41.257149 -19.678650 -0.957487
41.147861 -19.626522 -0.318276
41.070839 -19.810221 0.318345
40.927757 -19.741207 0.951833
41.371403 -20.178181 -0.964189
41.253643 -20.120745 -0.320440
41.147518 -20.291710 0.320300
40.969128 -20.203739 0.956859
41.408478 -20.645506 -0.969215
41.291264 -20.587065 -0.322115
41.218903 -20.776037 0.322255
41.041241 -20.686487 0.962723
41.485073 -21.137701 -0.975289
41.359516 -21.073725 -0.324070
41.284950 -21.263147 0.324210
41.072472 -21.153713 0.967749
41.573948 -21.642027 -0.981781
41.422398 -21.563135 -0.326025
41.345615 -21.752981 0.326164
41.204834 -21.678913 0.975289
41.674812 -22.158892 -0.988692
41.524014 -22.078709 -0.328329
41.436092 -22.264414 0.328398
41.295906 -22.189093 0.981990
41.761017 -22.674381 -0.995393
41.567036 -22.569059 -0.330214
41.485699 -22.759834 0.330353
41.311069 -22.664028 0.987016
41.797653 -23.168818 -1.001048
41.692104 -23.110312 -0.332797
41.529797 -23.257805 0.332308
41.425747 -23.199533 0.994556
41.872330 -23.690226 -1.007749
41.767353 -23.630831 -0.335031
41.629120 -23.793001 0.334751
41.464760 -23.699064 1.000419
41.941071 -24.214687 -1.014451
41.793369 -24.129412 -0.336916
41.704964 -24.321615 0.337055
41.498192 -24.201031 1.006283
42.038280 -24.762440 -1.021990
41.891388 -24.675915 -0.339429
41.766132 -24.848238 0.339289
41.663479 -24.787165 1.015498
42.094822 -25.293121 -1.028692
41.983032 -25.225950 -0.341942
41.855465 -25.398520 0.341803
41.719097 -25.315769 1.022200
42.179382 -25.847559 -1.036231
42.034134 -25.758551 -0.344176
41.938351 -25.952238 0.344316
41.802650 -25.868263 1.029739
42.257446 -26.405384 -1.043770
42.113041 -26.315149 -0.346689
42.006279 -26.503986 0.346759
41.879711 -26.424131 1.037278
42.295238 -26.945038 -1.050472
42.185413 -26.875071 -0.349203
42.084568 -27.069702 0.349342
41.950233 -26.983297 1.044817
42.427425 -27.552691 -1.059686
42.284740 -27.460032 -0.351995
42.172882 -27.649754 0.352065
42.014164 -27.545692 1.052357
42.485500 -28.120541 -1.067226
42.310337 -28.004601 -0.354229
42.295830 -28.261169 0.355137
42.104698 -28.133461 1.060734
42.603184 -28.736212 -1.076440
42.429108 -28.618795 -0.357301
42.312099 -28.809282 0.357371
42.122040 -28.679876 1.067435
42.713333 -29.356060 -1.085655
42.540356 -29.237177 -0.360373
42.420597 -29.428215 0.360442
42.264465 -29.319902 1.077487
42.783119 -29.957062 -1.094032
42.611252 -29.836720 -0.363165
42.521488 -30.051218 0.363514
42.398895 -29.964577 1.087540
42.910755 -30.607946 -1.104084
42.740025 -30.486162 -0.366516
42.614712 -30.678202 0.366586
42.452240 -30.561239 1.095707
42.933205 -31.192799 -1.111624
42.795956 -31.093082 -0.369309
42.667946 -31.285431 0.369378
42.538685 -31.190655 1.104922
42.980835 -31.804146 -1.120001
42.844528 -31.703281 -0.372101
42.809948 -31.967705 0.373009
42.617355 -31.823887 1.114137
43.148796 -32.514950 -1.131728
42.981514 -32.388897 -0.375731
42.847744 -32.582180 0.375801
42.720016 -32.485054 1.124189
43.180683 -33.133705 -1.140105
43.078037 -33.054939 -0.379082
42.972931 -33.273197 0.379431
42.845978 -33.174900 1.135079
43.268059 -33.804714 -1.150158
43.166176 -33.725113 -0.382433
43.089291 -33.968857 0.383062
42.900307 -33.819874 1.144294
43.401752 -34.523315 -1.161676
43.277176 -34.424221 -0.386064
43.165554 -34.644020 0.386413
43.008995 -34.518368 1.155184
43.471779 -35.202755 -1.171728
43.348145 -35.102634 -0.389415
43.264263 -35.348385 0.390043
43.070015 -35.189678 1.165027
33.589165 -27.688772 -0.911833
43.594940 -35.936897 -1.183456
43.402824 -35.778526 -0.392696
42.984898 -35.750164 0.390322
43.168686 -35.903019 1.176126
43.685593 -36.656563 -1.194556
43.494942 -36.496590 -0.396396
43.320019 -36.673103 0.396256
43.158962 -36.536758 1.184503
43.630127 -37.263649 -1.201885
43.402916 -37.069592 -0.398490
42.899860 -36.964886 0.395349
42.936939 -36.996834 1.187226
43.484375 -37.800388 -1.206912
43.243805 -37.591267 -0.400026
42.936523 -37.654324 0.398700
42.755268 -37.495365 1.191205
43.003094 -38.045925 -1.202723
42.659477 -37.741917 -0.397653
42.248199 -37.707958 0.395349
42.098244 -37.574120 1.181990
42.312817 -38.098629 -1.192671
41.956936 -37.778194 -0.394162
41.680668 -37.860054 0.393115
41.624920 -38.142212 -1.182618
41.338135 -37.879421 -0.391439
41.084343 -37.977978 0.390602
40.998009 -38.231262 -1.174241
40.684216 -37.938644 -0.388368
40.285217 -37.896549 0.386134
40.102592 -37.724751 1.153299
40.285709 -38.229710 -1.163351
40.054195 -38.010014 -0.385505
39.750721 -38.053036 0.384179
39.540752 -37.852036 1.146598
39.720425 -38.357567 -1.156650
39.490791 -38.135815 -0.383271
39.101971 -38.091454 0.381107
38.958279 -37.951477 1.139268
39.098946 -38.422428 -1.148273
38.921127 -38.247688 -0.380967
38.327400 -37.994381 1.130472
38.451103 -38.451103 -1.139058
38.359608 -38.359608 -0.378733
37.748028 -38.078888 1.123142
37.889851 -38.556995 -1.132357
37.785099 -38.450394 -0.376360
37.309948 -38.299732 0.373288
37.142216 -38.127552 1.114974
37.184155 -38.505322 -0.373707
36.753025 -38.392708 0.371054
36.614498 -38.248005 1.109111
36.633080 -38.603210 -1.114765
32.668510 -34.425430 -0.331331
36.543854 -38.509186 -0.370635
36.060303 -38.333229 0.367424
35.950516 -38.216526 1.099058
35.967522 -38.570446 -1.104713
35.960896 -38.563339 -0.368122
35.588657 -38.499592 0.366027
35.452774 -38.352596 1.094032
35.494480 -38.735428 -1.100524
35.467621 -38.706116 -0.366516
35.036182 -38.571827 0.363793
34.928516 -38.453300 1.088168
34.927765 -38.791214 -0.364422
35.091503 -39.663727 -0.369728
35.142277 -40.072086 0.372101
35.089279 -40.011658 1.114765
35.209831 -40.504276 -0.374684
35.241642 -40.899937 0.376918
35.202141 -40.854092 1.129634
35.296642 -41.327057 -0.379431
35.355042 -41.763062 0.382015
35.290012 -41.686245 1.144084
35.475212 -42.654305 0.387320
35.385185 -42.546062 1.159163
35.518612 -43.472610 1.175917
0.128507 -0.178507 0.004607
0.176660 -0.254655 0.006492
0.129417 -0.190074 0.004817
0.155556 -0.232806 0.001955
0.166635 -0.249386 0.006283
0.126080 -0.192304 0.004817
0.151469 -0.235485 0.001955
0.118988 -0.184988 0.004607
0.149408 -0.236798 0.001955
0.138709 -0.219841 0.005445
0.147336 -0.238093 0.001955
0.136786 -0.221043 0.005445
0.114127 -0.188076 0.001536
0.140038 -0.230776 0.005654
0.138046 -0.232034 0.001885
0.148242 -0.249173 0.006073
0.110806 -0.190002 0.004607