# This PCD file was generated using the MATLAB® pcwrite function
# from Computer Vision System Toolbox®.
# .PCD v.7 - Point Cloud Data file format
VERSION .7
FIELDS x y z
SIZE 4 4 4
TYPE F F F
COUNT 1 1 1
WIDTH 1007
HEIGHT 1
VIEWPOINT 0 0 0 1 0 0 0
POINTS 1007
DATA ascii
24.061628 24.485291 -0.239667
23.350615 23.350615 -0.691728
33.261494 33.261494 -0.328398
24.285585 23.865379 -0.237712
24.301161 23.467358 -0.707644
22.996576 21.822937 -0.664084
22.761694 21.600040 -0.219072
24.524223 22.869207 -0.702409
22.956633 21.407408 -0.219142
24.390051 22.744091 -0.232825
21.803881 19.979576 -0.619477
24.491756 22.442560 -0.231917
21.677006 19.518064 -0.203643
25.013645 22.522387 -0.234989
25.181856 22.279024 -0.704294
24.977064 22.097839 -0.232825
22.379776 19.454443 -0.621152
25.118773 21.835415 -0.697173
24.738777 21.505091 -0.228846
22.670332 19.362293 -0.624503
24.654556 21.056980 -0.679163
25.351316 21.652071 -0.232755
24.982889 20.963133 -0.683142
24.620068 20.658689 -0.224378
25.704893 21.189478 -0.697801
24.768545 20.417614 -0.224098
25.414869 20.580555 -0.685027
23.135071 18.734411 -0.207832
25.708052 20.449108 -0.229334
21.098299 16.483799 -0.560838
27.477266 21.467592 -0.243437
32.725029 25.110798 -0.287977
27.799824 20.948671 -0.243018
32.703327 24.643724 -0.285883
28.040415 20.748816 -0.730681
32.621395 24.138561 -0.850053
32.684025 24.184906 -0.283858
21.830580 15.860845 -0.565236
32.571968 23.664921 -0.843351
21.786297 15.828671 -0.188005
32.626862 23.704802 -0.281554
32.581898 23.240440 -0.838325
22.086416 15.754087 -0.189402
28.143288 20.074411 -0.241342
32.604530 23.256586 -0.279599
22.276049 15.597857 -0.569634
32.545963 22.788929 -0.832252
32.585075 22.816315 -0.277715
22.403076 15.397208 -0.569424
32.422253 22.283197 -0.824084
24.805593 17.048412 -0.210136
32.445057 22.298870 -0.274852
22.743801 15.340888 -0.574660
32.516010 21.932327 -0.821571
20.360666 13.733443 -0.171460
24.978292 16.848072 -0.210345
32.530643 21.942194 -0.273945
32.493042 21.711155 0.272828
32.536583 21.740250 0.819686
20.375700 13.486382 -0.511833
32.397697 21.443567 -0.813822
20.354656 13.472453 -0.170413
25.299479 16.745359 -0.211811
32.472198 21.289707 0.271082
25.367357 16.631569 0.635393
23.058382 14.974289 -0.575917
32.365585 21.018456 -0.808377
25.344007 16.458591 -0.210974
32.463314 20.881105 0.269477
21.828585 14.040617 0.543665
22.446156 14.299779 -0.557487
32.404427 20.643896 -0.804817
21.244513 13.534247 -0.175858
25.613174 16.317392 -0.212021
32.427612 20.658667 -0.268429
32.466702 20.484962 0.268011
32.468826 20.486303 0.804189
25.732615 16.079523 -0.635602
32.413769 20.254370 -0.800629
22.158957 13.846453 -0.182420
32.403130 20.247721 -0.266754
21.283798 13.170814 0.174741
32.431644 20.069309 0.266265
32.476330 20.096964 0.800000
23.604427 14.464812 -0.579896
25.914576 15.880473 -0.636650
32.382484 19.844011 -0.265148
21.739880 13.192082 0.177533
32.374725 19.645464 0.264380
32.453884 19.693501 0.795184
23.189859 13.933874 -0.566702
26.077881 15.669171 -0.637278
32.342400 19.433273 -0.790367
32.348705 19.437063 -0.263473
32.373051 19.259941 0.262984
32.478439 19.322639 0.791623
26.248083 15.461302 -0.638116
32.312622 19.033588 -0.785550
32.344772 19.052526 -0.262076
32.341213 18.860838 0.261378
32.412636 18.902491 0.785969
22.399164 12.932163 -0.541780
32.278347 18.635912 -0.780733
32.345261 18.674545 -0.260750
32.356983 18.493538 0.260192
32.394073 18.514738 0.781571
32.239605 18.240292 -0.775917
32.298111 18.273394 -0.259075
32.351364 18.117634 0.258865
20.996372 11.758533 0.504084
32.432285 18.162954 0.778639
32.222668 17.861317 -0.771728
32.281425 17.893887 -0.257678
21.339008 11.706982 0.169924
32.324127 17.733624 0.257399
20.274242 11.122830 0.484398
32.273998 17.706121 0.771100
32.201584 17.484034 -0.767540
32.225437 17.496984 -0.256003
21.167288 11.373594 0.167760
32.239815 17.323078 0.255514
32.303986 17.357557 0.768168
32.202866 17.122566 -0.763979
32.262119 17.154074 -0.255095
32.283562 16.985205 0.254676
21.137718 11.121091 0.500314
32.277267 16.981892 0.763979
19.465618 10.133160 -0.459686
26.214291 13.646296 -0.619058
24.418814 12.711630 -0.192194
25.873476 13.468879 -0.203643
25.665298 13.218498 0.201549
21.527273 11.087274 0.507225
25.464754 13.115211 0.600000
20.078882 10.230701 -0.472042
32.238453 16.426313 -0.757906
19.298731 9.833195 -0.151214
24.876295 12.675106 -0.194917
24.859928 12.530436 0.194358
20.980402 10.574993 0.492147
24.667597 12.433493 0.578639
20.042133 9.992639 -0.469110
20.430853 10.186448 -0.159382
22.229628 11.083283 -0.173414
32.225800 16.067192 -0.251395
21.766571 10.734085 0.169435
25.587156 12.618189 0.199175
32.241791 15.899891 0.250976
22.120998 10.908869 0.516649
32.181702 15.870259 0.751623
21.530382 10.501069 -0.501780
32.160786 15.685863 -0.749529
20.626822 10.060372 -0.160220
32.194019 15.702072 -0.250069
20.706549 9.987653 0.160499
32.181164 15.522350 0.249440
21.783112 10.506926 0.506597
32.102852 15.484576 0.746597
21.422676 10.218092 -0.497173
32.161083 15.340051 -0.746388
20.948494 9.991920 -0.162035
32.185406 15.351651 -0.248952
25.242727 11.905244 0.194847
32.179729 15.176946 0.248393
26.368128 12.436016 0.610681
32.164413 15.169723 0.744922
21.456661 10.005405 -0.495917
32.139687 14.986982 -0.742828
26.481668 12.348604 -0.203992
32.200333 15.015261 -0.248044
25.164034 11.600779 0.193451
32.174728 14.832753 0.247346
20.129118 9.279651 0.464293
32.132137 14.813119 0.741152
32.060001 14.610585 -0.738011
32.084454 14.621727 -0.246159
32.157063 14.485701 0.246229
20.382528 9.181660 0.468273
21.549328 9.707264 0.495079
24.931223 11.230697 0.572775
31.839211 14.175730 -0.730053
29.388041 13.084399 -0.224587
32.092072 14.288310 -0.245252
32.135803 14.140092 0.245112
20.525934 9.031627 0.469738
23.317022 10.259735 0.533613
32.147839 14.145389 0.735707
31.769163 13.813625 -0.725655
32.050468 13.935941 -0.243995
20.130224 8.648627 0.152959
24.007429 10.314405 0.182420
20.181416 8.670621 0.460105
32.049595 13.769592 0.730681
26.808426 11.379501 -0.610053
31.768858 13.485081 -0.722932
21.695770 9.209309 -0.164548
25.874762 10.983185 -0.196243
31.903921 13.542411 -0.241970
20.057383 8.410758 0.151842
25.738003 10.792840 0.194847
20.210213 8.474845 0.459058
25.677664 10.767538 0.583246
27.051443 11.343611 0.614451
21.475489 8.895438 -0.486911
31.728302 13.142293 -0.719372
20.786783 8.610168 -0.157078
31.873068 13.202256 -0.240853
27.228739 11.139571 0.205389
31.689735 12.964613 0.239038
25.946465 10.614979 0.587225
31.942652 13.068084 0.722932
21.385441 8.640279 -0.483142
26.873165 10.857464 -0.607121
31.656384 12.790009 -0.715184
29.085049 11.751122 -0.219002
31.727459 12.818726 -0.238899
26.888382 10.727376 0.202107
26.298119 10.491885 0.593089
31.869753 12.714742 0.718744
21.339098 8.405694 -0.480419
31.636562 12.461973 -0.712252
21.352562 8.410998 -0.160220
31.670643 12.475398 -0.237642
31.696815 12.326218 0.237433
22.642824 8.805313 0.508901
27.162071 10.562752 0.610472
31.765181 12.352803 0.713927
28.057272 10.770178 -0.629529
31.548098 12.110180 -0.707854
26.354334 10.116481 -0.197081
27.726664 10.643269 -0.207343
31.750296 12.187797 -0.237433
21.096136 7.992611 0.157497
31.765768 12.034973 0.237153
22.653357 8.582589 0.507435
27.075577 10.258018 0.606492
31.871767 12.075132 0.713927
26.548832 9.926202 -0.593718
28.271931 10.570442 -0.632252
31.652576 11.834414 -0.707854
22.751213 8.506330 -0.169575
31.696215 11.850729 -0.236246
22.694296 8.372368 0.168877
31.719477 11.701933 0.236036
27.126543 10.007510 0.605655
31.638254 11.671968 0.706388
31.651300 11.520131 -0.705550
27.156454 9.884141 -0.201758
31.666870 11.525798 -0.235268
26.954624 9.677699 0.199943
31.547451 11.326693 0.234012
22.620909 8.121737 0.503456
31.475433 11.300836 0.700524
26.595509 9.417964 -0.590995
31.571564 11.180078 -0.701571
27.053152 9.580024 -0.200362
31.634277 11.202285 -0.234291
31.654533 11.054258 0.234082
25.333792 8.846956 0.562095
31.459585 10.986179 0.698011
31.393785 10.809747 -0.695498
31.607916 10.883478 -0.233384
31.598288 10.726173 0.232965
23.772202 8.069574 0.525864
31.563726 10.714441 0.698220
27.391062 9.164921 -0.605026
31.382629 10.500481 -0.693194
27.121395 9.074692 -0.199664
31.512028 10.543777 -0.231987
31.538740 10.399917 0.231848
27.202913 8.970176 0.600000
31.580065 10.413544 0.696545
27.222776 8.845216 -0.599581
31.435032 10.213861 -0.692356
23.937510 7.777768 -0.175718
31.564796 10.256024 -0.231708
24.218836 7.752510 0.177533
31.514009 10.087714 0.231010
31.517387 10.088795 0.693194
25.077255 7.906828 -0.550786
26.965200 8.502095 -0.592252
31.503897 9.933141 -0.691938
25.234735 7.956481 -0.184724
31.548187 9.947105 -0.230940
23.368769 7.256196 0.170831
31.524441 9.788599 0.230451
25.684402 7.975219 0.563351
31.566034 9.801515 0.692356
26.101395 7.979997 -0.571728
23.954851 7.323733 -0.174881
31.519037 9.636336 -0.230102
31.493755 9.478544 0.229614
25.465813 7.664340 0.557068
31.564203 9.499747 0.690472
25.968731 7.692288 -0.567330
23.557627 6.978087 -0.171530
26.664127 7.898274 -0.194149
31.563576 9.349557 -0.229823
23.664652 6.897617 0.172088
26.631134 7.762268 0.193660
31.613670 9.214545 0.229893
31.655500 9.226737 0.690681
25.333302 7.264207 -0.552042
26.976698 7.735444 -0.587854
31.657017 9.077503 -0.689843
26.568626 7.618431 -0.192962
31.692026 9.087543 -0.230172
23.743193 6.696273 0.172228
31.721752 8.946459 0.230102
31.773302 8.960998 0.691519
25.135605 6.970720 -0.546388
27.004639 7.489049 -0.587016
31.667585 8.782199 -0.688377
26.663004 7.394306 -0.193171
31.673761 8.783912 -0.229474
23.877905 6.509864 0.172786
31.605663 8.616693 0.228706
23.709272 6.463889 0.514765
31.618792 8.620273 0.686493
25.069935 6.717469 -0.543665
31.530561 8.448588 -0.683770
26.697538 7.153584 -0.192962
31.565687 8.458000 -0.228148
31.457237 8.282000 0.227100
24.054827 6.333107 0.521047
31.605799 8.321113 0.684608
22.978785 5.942718 -0.497173
24.963051 6.455884 -0.540105
31.244951 8.080494 -0.676021
22.896133 5.921343 -0.165107
31.405945 8.122129 -0.226472
31.412008 7.977634 0.226263
23.818470 6.049121 0.514765
31.531857 8.008072 0.681466
30.994150 7.727709 -0.669110
21.181040 5.281026 -0.152401
23.102179 5.760020 -0.166224
24.877777 6.202726 -0.179000
23.807014 5.825539 0.171111
31.354158 7.672314 0.225355
24.433607 5.978866 0.526911
21.416611 5.141674 -0.461361
30.127134 7.232885 -0.649006
23.725248 5.695928 -0.170343
30.726141 7.376694 -0.220608
31.312847 7.373197 0.224587
24.475119 5.763125 0.526702
31.306744 7.371759 0.673718
26.350929 6.083591 -0.566492
29.731253 6.864000 -0.639163
24.105328 5.565154 -0.172716
30.156019 6.962066 -0.216070
22.042200 4.987640 0.157776
30.488459 6.898834 0.218234
31.223612 7.065182 0.670576
26.217560 5.812293 -0.562513
29.926670 6.634583 -0.642095
23.811279 5.278833 -0.170273
29.698200 6.583932 -0.212370
21.830811 4.739933 0.155961
23.609327 5.126088 0.168667
29.765734 6.462774 0.212649
21.963337 4.768708 0.470786
30.199589 6.556973 0.647330
30.042105 6.385646 -0.643351
23.934689 5.087475 -0.170831
30.214243 6.422235 -0.215651
24.583233 5.113320 0.175299
30.339880 6.310704 0.216349
21.759407 4.525963 0.465550
23.305960 4.847647 0.498639
29.648783 6.166956 0.634346
23.287703 4.737936 -0.497801
29.871351 6.077395 -0.638534
23.537218 4.788701 -0.167690
27.349031 5.564223 -0.194847
30.024160 6.108485 -0.213906
21.969055 4.369917 0.156380
24.832878 4.939567 0.176766
30.570332 6.080817 0.217606
23.151262 4.605072 0.494451
30.142727 5.995761 0.643770
22.552845 4.383829 -0.481257
29.972319 5.826029 -0.639582
21.948648 4.266385 -0.156101
26.081198 5.069672 -0.185492
30.115587 5.853878 -0.214185
23.529114 4.467142 0.167201
24.580311 4.666718 0.174671
30.858015 5.858577 0.219281
21.854727 4.149250 0.465969
23.141455 4.393542 0.493403
30.390348 5.769788 0.647958
22.678717 4.203251 -0.483142
30.474216 5.648062 -0.649215
22.132528 4.102022 -0.157148
27.304323 5.060557 -0.193870
30.381836 5.630940 -0.215721
23.803364 4.304349 0.168877
30.691481 5.549924 0.217746
22.952635 4.150512 0.488587
30.350998 5.488354 0.646074
22.753916 4.012129 -0.483979
30.492807 5.376705 -0.648587
22.305351 3.933035 -0.158126
24.412788 4.304634 -0.173065
30.479057 5.374280 -0.216070
22.913620 3.937280 0.162314
30.275545 5.202290 0.214464
22.761353 3.911116 0.483770
24.219654 4.161698 0.514765
30.506124 5.241911 0.648377
22.620430 3.785362 -0.480419
30.499123 5.103803 -0.647749
22.398001 3.748140 -0.158544
30.495207 5.103148 -0.215861
22.019352 3.586079 0.155752
23.835381 3.881838 0.168597
30.349400 4.942713 0.214674
22.113737 3.601451 0.469320
24.472141 3.985541 0.519372
30.521103 4.970677 0.647749
22.000870 3.484596 -0.466597
24.400427 3.864648 -0.517487
30.552376 4.839021 -0.647958
21.995283 3.483711 -0.155473
24.108885 3.818472 -0.170413
30.410183 4.816500 -0.214953
23.848581 3.670648 0.168458
30.480326 4.691371 0.215302
22.213493 3.418984 0.470786
24.426939 3.759665 0.517697
30.553436 4.702623 0.647540
24.383781 3.644181 -0.516440
30.464895 4.553009 -0.645236
21.767708 3.253206 -0.153658
24.121510 3.604984 -0.170273
30.579626 4.570156 -0.215861
24.028151 3.483916 0.169505
30.638861 4.442423 0.216140
21.915970 3.177665 0.463875
24.181776 3.506191 0.511833
30.682360 4.448730 0.649424
22.048433 3.098705 -0.466388
30.632174 4.305071 -0.647958
21.567513 3.031116 -0.152052
30.539124 4.291994 -0.215302
24.027912 3.270055 0.169296
30.428751 4.141171 0.214395
22.458004 3.056400 0.474765
23.864725 3.247846 0.504503
30.561508 4.159239 0.646074
22.104372 2.910096 -0.467016
30.589277 4.027155 -0.646283
21.503916 2.831044 -0.151424
23.992380 3.158657 -0.168947
30.605158 4.029245 -0.215512
23.837297 3.032487 0.167760
30.592688 3.891881 0.215302
22.186283 2.822452 0.468482
30.437954 3.872197 0.642723
30.504177 3.745442 -0.643770
23.155537 2.843143 -0.162873
24.346563 2.989382 -0.171250
30.520050 3.747391 -0.214674
22.462662 2.658631 0.157916
30.536112 3.614187 0.214674
22.080999 2.613458 0.465759
30.550014 3.615833 0.644398
24.148434 2.751367 -0.509110
30.486032 3.473445 -0.642723
24.312111 2.770015 -0.170831
30.511848 3.476386 -0.214395
22.067513 2.416786 0.154984
23.290173 2.550689 0.163571
25.139072 2.753176 0.176556
22.212286 2.432641 0.468063
30.530714 3.343657 0.643351
24.320671 2.556206 -0.512252
30.475410 3.203095 -0.641885
23.698879 2.490853 -0.166363
30.491299 3.204765 -0.214045
23.311544 2.347349 0.163571
25.301434 2.547720 0.177533
30.485092 3.069687 0.213906
22.212774 2.236709 0.467644
24.570333 2.474102 0.517278
30.518940 3.073096 0.642513
24.481377 2.357288 -0.515184
30.412636 2.928404 -0.640000
23.948648 2.305993 -0.167969
30.488243 2.935684 -0.213836
23.500423 2.159386 0.164758
30.470888 2.799881 0.213627
22.012419 2.022657 0.463037
24.511341 2.252276 0.515602
30.474903 2.800250 0.641047
24.112585 2.109578 -0.507016
30.397194 2.659410 -0.639163
23.419966 2.048982 -0.164129
25.631464 2.242463 -0.179628
30.423044 2.661671 -0.213208
23.598097 1.960851 0.165316
30.444334 2.529729 0.213278
23.703094 1.969575 0.498220
30.458326 2.530892 0.640210
24.409151 1.921042 -0.512880
30.359442 2.389340 -0.637906
23.566551 1.854728 -0.165037
30.405237 2.392944 -0.212928
23.424835 1.740766 0.163990
30.435333 2.261736 0.213068
23.101219 1.716717 0.485236
25.065371 1.862679 0.526492
30.429401 2.261295 0.639163
24.405039 1.706567 -0.512461
30.409058 2.126408 -0.638534
25.666698 1.794790 -0.179628
30.395037 2.125428 -0.212719
25.524609 1.672971 0.178581
30.334171 1.988207 0.212230
25.050743 1.641912 0.525864
30.378139 1.991089 0.637697
30.356602 1.856689 -0.637068
23.685162 1.448647 -0.165665
30.372501 1.857662 -0.212440
30.310432 1.721151 0.211951
25.583166 1.452717 0.536754
30.364414 1.724216 0.637068
30.321728 1.589094 -0.636021
30.397543 1.593068 -0.212510
25.719719 1.235407 0.179767
30.334286 1.457060 0.212021
30.338358 1.457256 0.636231
30.334440 1.324430 -0.636021
30.370325 1.325997 -0.212230
30.345846 1.192291 0.212021
30.309959 1.190882 0.635393
30.304876 1.058270 -0.635184
30.300791 1.058127 -0.211672
30.315115 0.926211 0.211742
30.319199 0.926335 0.635393
30.282974 0.792988 -0.634555
30.298876 0.793404 -0.211602
30.272057 0.660539 0.211393
30.276150 0.660628 0.634346
30.288740 0.528692 -0.634555
30.274651 0.528446 -0.211393
30.286667 0.396474 0.211462
30.290760 0.396528 0.634555
30.212221 0.263658 -0.632880
30.278109 0.264233 -0.211393
30.248976 0.131987 0.211183
30.243078 0.131961 0.633508
30.213373 0.000000 -0.632880
30.239264 0.000000 -0.211113
30.208977 -0.131812 0.210904
30.243078 -0.131961 0.633508
30.212221 -0.263658 -0.632880
30.238111 -0.263884 -0.211113
30.206676 -0.395427 0.210904
30.210783 -0.395481 0.632880
30.158789 -0.526424 -0.631833
30.194664 -0.527050 -0.210834
30.202074 -0.659012 0.210904
30.206182 -0.659101 0.632880
30.193024 -0.790632 -0.632671
30.188915 -0.790525 -0.210834
30.195173 -0.922546 0.210904
30.199280 -0.922671 0.632880
30.194967 -1.054431 -0.632880
30.220842 -1.055335 -0.211113
30.185974 -1.186010 0.210904
30.220049 -1.187349 0.633508
30.184616 -1.317889 -0.632880
30.170521 -1.317273 -0.210834
30.174475 -1.449384 0.210904
30.178577 -1.449581 0.632880
30.132029 -1.579153 -0.632042
30.157877 -1.580507 -0.210834
30.160677 -1.712647 0.210904
30.164780 -1.712880 0.632880
30.157019 -1.844482 -0.632880
30.182861 -1.846063 -0.211113
30.144583 -1.975780 0.210904
30.108778 -1.973433 0.632042
30.139774 -2.107578 -0.632880
30.165602 -2.109384 -0.211113
30.126194 -2.238763 0.210904
30.170172 -2.242031 0.633718
30.120235 -2.370514 -0.632880
30.146046 -2.372545 -0.211113
30.105511 -2.501575 0.210904
30.109604 -2.501915 0.632880
30.098402 -2.633269 -0.632880
30.124193 -2.635525 -0.211113
30.122364 -2.767857 0.211183
30.116493 -2.767317 0.633508
30.104132 -2.898698 -0.633508
30.139862 -2.902139 -0.211393
30.097065 -3.030615 0.211183
30.091196 -3.030024 0.633508
30.047861 -3.158157 -0.632880
30.063663 -3.159818 -0.211043
30.109232 -3.297497 0.211462
30.113300 -3.297943 0.634555
30.098625 -3.429305 -0.634555
30.114429 -3.431106 -0.211602
30.079311 -3.560121 0.211462
30.083376 -3.560602 0.634555
30.146938 -3.701579 -0.636231
30.132967 -3.699863 -0.211951
30.086777 -3.827522 0.211742
30.090830 -3.828037 0.635393
30.063929 -3.957991 -0.635184
30.139189 -3.967900 -0.212230
30.091864 -4.095323 0.212021
30.095903 -4.095873 0.636231
30.028244 -4.220194 -0.635184
30.133123 -4.234934 -0.212440
30.094564 -4.363504 0.212300
30.059015 -4.358350 0.636231
29.950720 -4.476165 -0.634346
29.976341 -4.479994 -0.211602
30.015808 -4.619874 0.212021
30.138414 -4.638746 0.638744
29.920393 -4.738925 -0.634555
29.936104 -4.741413 -0.211602
29.934870 -4.875203 0.211742
29.938902 -4.875860 0.635393
29.877899 -4.999846 -0.634555
29.903450 -5.004121 -0.211672
29.841909 -5.127778 0.211393
29.895212 -5.136937 0.635393
29.862669 -5.265594 -0.635184
29.898035 -5.271830 -0.211951
29.884588 -5.404014 0.212021
29.888599 -5.404739 0.636231
29.815580 -5.525991 -0.635184
29.890221 -5.539825 -0.212230
29.836292 -5.664597 0.212021
29.840298 -5.665358 0.636231
29.805479 -5.793598 -0.636021
29.840738 -5.800452 -0.212230
29.775915 -5.922798 0.211951
29.828945 -5.933346 0.637068
29.792974 -6.061449 -0.636859
29.828180 -6.068612 -0.212510
29.772047 -6.192595 0.212300
29.776031 -6.193423 0.637068
29.758503 -6.325365 -0.637278
29.774088 -6.328678 -0.212510
29.814594 -6.473383 0.212998
29.838093 -6.478485 0.639582
30.141409 -6.682189 -0.646702
29.756777 -6.596919 -0.212789
29.786228 -6.739935 0.213208
29.780422 -6.738621 0.639582
30.208590 -6.974202 -0.649424
29.542181 -6.820350 -0.211672
29.784679 -7.013361 0.213627
29.759409 -7.007411 0.640419
30.107693 -7.228217 -0.648587
28.878683 -6.933158 -0.207343
30.198290 -7.389474 0.217047
30.240959 -7.399915 0.652147
30.111374 -7.507609 -0.650053
30.107542 -7.506653 -0.216629
30.132654 -7.652719 0.217047
30.175232 -7.663532 0.652147
30.054392 -7.772594 -0.650262
30.089296 -7.781621 -0.216978
30.103407 -7.925566 0.217327
30.107206 -7.926566 0.652147
30.072334 -8.057858 -0.652147
30.126492 -8.072370 -0.217746
30.071688 -8.198483 0.217606
30.075472 -8.199514 0.652985
30.068310 -8.338680 -0.653613
30.093445 -8.345651 -0.218025
30.075993 -8.482307 0.218164
30.070129 -8.480654 0.654451
30.071281 -8.622802 -0.655288
30.057920 -8.618970 -0.218304
30.077629 -8.766829 0.218723
30.042971 -8.756727 0.655498
30.081165 -8.910447 -0.657173
30.106207 -8.917865 -0.219212
30.038282 -9.040497 0.219002
30.003704 -9.030090 0.656335
29.992701 -9.169689 -0.656964
30.027237 -9.180248 -0.219212
30.034645 -9.326005 0.219561
30.028790 -9.324187 0.658639
29.987820 -9.455123 -0.658639
30.012741 -9.462981 -0.219700
30.028307 -9.612137 0.220119
30.031975 -9.613311 0.660524
30.008760 -9.750438 -0.660943
30.052654 -9.764699 -0.220608
29.981270 -9.886340 0.220398
30.022900 -9.900068 0.662199
29.979418 -10.030972 -0.662199
30.004229 -10.039274 -0.220887
30.007484 -10.186169 0.221236
29.973232 -10.174541 0.663037
30.004177 -10.331267 -0.664712
30.019484 -10.336537 -0.221655
29.992977 -10.474016 0.221795
29.996569 -10.475271 0.665550
29.941153 -10.602718 -0.665341
29.975269 -10.614799 -0.222004
29.938080 -10.748869 0.222074
29.979292 -10.763665 0.667225
29.932041 -10.894372 -0.667225
29.956671 -10.903337 -0.222563
29.918192 -11.037404 0.222632
29.921740 -11.038713 0.668063
29.938843 -11.193674 -0.669529
29.963413 -11.202861 -0.223331
29.970352 -11.354751 0.223749
29.973860 -11.356079 0.671414
29.924025 -11.486756 -0.671414
29.948530 -11.496163 -0.223959
29.944683 -11.644851 0.224308
29.910891 -11.631709 0.672252
29.897062 -11.776766 -0.673089
29.912195 -11.782727 -0.224448
29.879076 -11.920543 0.224587
29.873251 -11.918219 0.673718
29.867311 -12.067178 -0.674765
29.891680 -12.077023 -0.225076
29.884975 -12.226266 0.225425
29.842134 -12.208739 0.675393
29.834764 -12.357964 -0.676440
29.822105 -12.352720 -0.225355
29.887806 -12.532997 0.226263
29.881979 -12.530554 0.678744
29.753395 -12.629567 -0.677068
29.786812 -12.643751 -0.225914
29.841612 -12.820968 0.226751
29.854166 -12.826362 0.680629
29.797916 -12.956503 -0.680629
29.822067 -12.967004 -0.227031
29.801815 -13.113112 0.227310
29.814308 -13.118609 0.682304
29.820717 -13.277039 -0.683770
29.853937 -13.291829 -0.228148
29.795658 -13.421965 0.228148
29.844542 -13.443986 0.685655
29.821989 -13.590663 -0.686493
29.800505 -13.580873 -0.228636
29.759127 -13.719145 0.228776
26.956858 -12.427281 0.621780
29.780563 -13.729028 0.686911
29.693193 -13.846163 -0.686283
29.726171 -13.861541 -0.228985
29.782982 -14.046566 0.229893
26.928766 -12.700431 0.623665
29.796829 -14.212358 -0.691519
29.820690 -14.223740 -0.230661
27.002275 -13.024351 0.209298
29.758345 -14.353722 0.230661
26.816912 -12.934942 0.623665
29.743559 -14.506903 -0.693194
29.767334 -14.518498 -0.231219
26.941401 -13.286029 0.209717
29.757513 -14.674781 0.231638
26.667145 -13.150781 0.622828
29.714252 -14.814980 -0.695498
29.737944 -14.826792 -0.231987
26.869081 -13.543132 0.210066
26.551369 -13.382992 0.622828
29.699642 -15.132724 -0.698220
26.952290 -13.732878 -0.211183
29.714344 -15.140214 -0.232825
26.678755 -13.740461 0.209508
26.433571 -13.614183 0.622828
29.664005 -15.442103 -0.700524
26.920122 -14.013729 -0.211881
29.705269 -15.463584 -0.233802
26.628630 -14.009999 0.210066
26.349152 -13.862959 0.623665
29.642878 -15.761397 -0.703246
26.770319 -14.234031 -0.211672
26.434887 -14.203977 0.209508
26.191944 -14.073440 0.622828
26.956196 -14.636020 -0.642513
29.697504 -16.124430 -0.707854
26.680237 -14.486187 -0.211951
26.309929 -14.434121 0.209508
26.103197 -14.320704 0.623665
26.774982 -14.841615 -0.641257
26.482840 -14.679678 -0.211393
26.182966 -14.663166 0.209508
26.151693 -14.645652 0.627854
26.644447 -15.074702 -0.641257
26.310211 -14.885601 -0.211043
26.323147 -15.044918 0.211672
26.291975 -15.027102 0.634346
26.546516 -15.326638 -0.642095
26.491072 -15.294627 -0.213557
26.510466 -15.460446 0.214255
26.410295 -15.402030 0.640419
26.721874 -15.740387 -0.649634
26.640924 -15.692704 -0.215861
26.683918 -15.875263 0.216768
26.584202 -15.815939 0.647958
26.952000 -16.194395 -0.658639
26.837254 -16.125448 -0.218583
26.783735 -16.252769 0.218723
26.675947 -16.187363 0.653613
27.159159 -16.643154 -0.667225
27.045088 -16.573250 -0.221446
26.912992 -16.654264 0.220957
26.771719 -16.566843 0.659477
29.480165 -18.421251 -0.728168
27.136877 -16.957003 -0.223400
27.096458 -17.096592 0.223680
26.938978 -16.997231 0.667225
27.193409 -17.324112 -0.675393
29.537523 -18.817478 -0.733613
29.517981 -18.805029 -0.244344
29.511339 -18.982332 0.244972
27.050291 -17.399332 0.673718
29.489574 -19.150753 -0.736545
27.021307 -17.547842 -0.224936
29.512098 -19.165380 -0.245671
27.329166 -17.917786 0.228148
29.461643 -19.315899 0.245950
29.480982 -19.328579 0.738430
27.078671 -17.922981 -0.680210
27.225708 -18.020304 -0.227938
29.452129 -19.493938 -0.246578
26.764355 -17.883369 0.224727
29.466564 -19.688929 0.247416
27.299473 -18.240925 0.687749
29.502384 -19.712864 0.743246
26.921234 -18.158602 -0.680210
27.050837 -18.246019 -0.227799
27.086685 -18.442669 0.228776
26.643410 -18.140852 0.675184
29.461462 -20.059595 0.746597
26.827663 -18.438143 -0.681885
26.923546 -18.504042 -0.228078
26.916498 -18.672638 0.228706
27.018042 -18.743082 0.688796
26.739449 -18.723164 -0.683770
26.826576 -18.784170 -0.228636
26.785191 -18.929901 0.228985
26.886108 -19.001223 0.689634
26.575043 -18.955793 -0.683770
26.694197 -19.040787 -0.228916
26.683903 -19.209661 0.229544
26.751726 -19.258488 0.690472
26.465231 -19.228115 -0.685236
26.527021 -19.273008 -0.228916
26.547510 -19.465439 0.229823
26.582647 -19.491203 0.690472
26.304464 -19.464279 -0.685445
26.357824 -19.503763 -0.228916
26.376633 -19.696365 0.229823
26.443588 -19.746363 0.691309
26.229424 -19.765287 -0.687958
26.250509 -19.781178 -0.229474
26.203747 -19.925793 0.229823
26.564720 -20.200281 0.699058
29.389906 -22.348604 0.773404
26.087669 -20.017773 -0.688796
26.148289 -20.064287 -0.230102
26.250254 -20.325119 0.231778
29.320244 -22.702158 0.776754
25.935625 -20.263130 -0.689424
25.995842 -20.310177 -0.230312
26.535212 -20.918674 0.235897
29.330873 -23.122595 0.260750
29.317303 -23.111898 0.781990
25.859528 -20.569597 -0.692147
26.099346 -20.760357 -0.232825
29.260553 -23.484076 0.261937
28.896179 -23.191637 0.776126
25.826666 -20.914022 -0.696126
26.375690 -21.358614 -0.236944
29.209379 -23.865063 0.263333
28.390751 -23.196217 0.767959
26.052048 -21.475651 -0.707226
26.489227 -21.836033 -0.239667
29.212996 -24.081335 -0.264311
29.069201 -24.176600 0.263961
28.694571 -23.865023 0.781781
26.292538 -22.062059 -0.718953
29.193243 -24.496038 -0.266056
28.948702 -24.506886 0.264799
28.485220 -24.114519 0.781781
26.387903 -22.537397 -0.726911
29.160858 -24.905725 -0.267731
28.832220 -24.843431 0.265707
28.652397 -24.688486 0.792252
29.117855 -25.311766 -0.808168
29.070705 -25.270779 -0.268918
28.727098 -25.192989 0.266754
28.939484 -25.379246 0.806283
29.090548 -25.737143 -0.813613
28.991369 -25.649397 -0.270245
28.744890 -25.655796 0.268988
28.754204 -25.664108 0.807330
29.013441 -26.123819 -0.817801
28.974510 -26.088766 -0.272199
28.875206 -26.228390 0.272339
28.839973 -26.196388 0.816126
28.931789 -26.511101 -0.821990
28.893194 -26.475735 -0.273596
28.880201 -26.696583 0.274573
25.622234 -23.684950 0.730890
28.808496 -26.630299 0.821781
28.816328 -26.871660 -0.825341
28.624487 -26.692766 -0.273247
28.784519 -27.077772 0.275899
25.349033 -23.845989 0.729006
28.800755 -27.093044 0.828273
28.783794 -27.314800 -0.831205
28.811169 -27.340778 -0.277296
28.749386 -27.521549 0.277854
25.031645 -23.962585 0.725864
28.743780 -27.516184 0.833508
28.774473 -27.787186 -0.837906
28.736925 -27.750925 -0.278901
28.672869 -27.931871 0.279460
24.377571 -23.747578 0.712880
28.703085 -27.961308 0.839372
28.680641 -28.184387 -0.842304
28.686234 -28.189884 -0.280786
28.662384 -28.413342 0.281764
28.663897 -28.414841 0.845446
28.681030 -28.681030 -0.849634
28.615913 -28.615913 -0.282532
28.603420 -28.854128 0.283649
28.611921 -28.862703 0.851309
28.569803 -29.072844 -0.853822
28.617428 -29.121305 -0.285045
28.552889 -29.310362 0.285673
28.575230 -29.333292 0.857801
28.509472 -29.522423 -0.859686
28.521978 -29.535372 -0.286651
28.538048 -29.811234 0.288117
28.546312 -29.819866 0.864713
28.491629 -30.023912 -0.867016
28.517836 -30.051527 -0.289234
28.441254 -30.233942 0.289792
28.476810 -30.271740 0.870576
28.501280 -30.563881 -0.875393
28.465918 -30.525959 -0.291398
28.427483 -30.752678 0.292375
28.197985 -30.504408 0.870158
28.422602 -31.017826 -0.881257
28.414631 -31.009129 -0.293632
28.366465 -31.229042 0.294539
27.789547 -30.593906 0.865760
28.391674 -31.532150 -0.888796
28.357063 -31.493710 -0.295866
28.332575 -31.743967 0.297053
27.601398 -30.924755 0.868273
28.353918 -32.048275 -0.896336
28.346195 -32.039543 -0.298658
27.975361 -31.899786 0.296215
27.119537 -30.923906 0.861571
28.250265 -32.498211 -0.901990
28.249214 -32.497002 -0.300613
27.617592 -32.051792 0.295377
26.633284 -30.909447 0.854660
28.251287 -33.078007 -0.911205
28.198347 -33.016022 -0.303126
26.664886 -31.497837 0.288117
26.104143 -30.835461 0.846283
28.199335 -33.606659 -0.918953
27.748465 -33.069332 -0.301381
26.184389 -31.483305 0.285883
25.655060 -30.846855 0.840419
24.820425 -30.378683 0.273875
26.199690 -32.066818 0.289094
25.182474 -30.821810 0.833718
24.410421 -30.414753 0.272269
23.798649 -29.652502 0.796440
24.088358 -30.555937 0.271641
23.737045 -30.110300 0.803142
23.820793 -30.764982 0.271641
23.687613 -30.592976 0.810472
23.794939 -31.291935 0.823456
23.760241 -31.818821 0.831833
0.157713 -0.219077 0.005654
0.153895 -0.221839 0.001885
0.136769 -0.197152 0.005026
0.168804 -0.247923 0.006283
0.177778 -0.266064 0.002234
0.188852 -0.282638 0.007120
0.126080 -0.192304 0.004817
0.151469 -0.235485 0.001955
0.140623 -0.218622 0.005445
0.128064 -0.202970 0.001676
0.112034 -0.177564 0.004398
0.126288 -0.204080 0.001676
0.136786 -0.221043 0.005445
0.124503 -0.205174 0.001676
0.119292 -0.196587 0.004817
0.158497 -0.266409 0.002164
0.127795 -0.214804 0.005236
0.110806 -0.190002 0.004607