# This PCD file was generated using the MATLAB® pcwrite function
# from Computer Vision System Toolbox®.
# .PCD v.7 - Point Cloud Data file format
VERSION .7
FIELDS x y z
SIZE 4 4 4
TYPE F F F
COUNT 1 1 1
WIDTH 932
HEIGHT 1
VIEWPOINT 0 0 0 1 0 0 0
POINTS 932
DATA ascii
30.709639 32.932056 -0.314366
30.459892 32.098030 -0.926912
30.644798 32.292881 -0.310806
30.356857 31.435448 -0.915393
30.487812 31.571054 -0.306408
30.461843 30.998198 -0.910367
30.537872 31.075565 -0.304173
30.363575 30.363575 -0.899477
30.588694 30.588694 -0.302009
29.857246 29.340635 -0.876859
30.540640 30.012203 -0.298938
30.054617 29.023407 -0.875184
29.909420 28.883192 -0.290281
30.430033 28.877024 -0.878744
30.073288 28.538485 -0.289443
30.476137 28.419456 -0.872880
30.262678 28.220404 -0.288885
30.634525 28.071371 -0.870367
30.566774 28.009287 -0.289443
30.796597 27.729382 -0.868063
30.542507 27.500597 -0.286930
30.760353 27.214462 -0.860315
30.579117 27.054117 -0.285045
30.815578 26.787575 -0.855288
30.542353 26.550062 -0.282532
30.774483 26.283892 -0.847749
30.430706 25.990278 -0.279390
30.818869 25.860100 -0.842723
30.633371 25.704451 -0.279181
30.827356 25.412111 -0.836859
30.702194 25.308935 -0.277784
30.869238 24.997416 -0.832042
30.735374 24.889015 -0.276109
30.867121 24.552816 -0.826178
30.857487 24.545155 -0.275271
30.883247 24.128637 -0.820943
30.818350 24.077934 -0.273037
30.933994 23.736488 -0.816754
30.709959 23.564581 -0.270245
30.860493 23.255049 -0.809425
30.666857 23.109135 -0.268080
30.805077 22.794558 -0.802723
30.537779 22.596767 -0.265218
30.768257 22.354446 -0.796650
30.539648 22.188353 -0.263543
30.278456 21.597412 -0.779058
30.512306 21.764215 -0.261658
30.162754 21.120188 -0.771309
29.972042 20.986650 -0.255444
30.947392 21.269552 -0.786597
29.816158 20.492079 -0.252582
29.963135 20.210390 -0.757068
31.098667 20.976316 -0.785760
29.927526 20.186373 -0.252023
30.657873 20.484936 0.772356
29.979958 19.843302 -0.753089
30.577848 20.239037 -0.256003
30.699316 20.127354 0.256282
30.802025 20.194693 0.771519
30.764074 19.978424 -0.768377
30.904257 20.069460 -0.257259
30.882200 19.864098 0.256352
30.750051 19.779099 0.765864
30.836061 19.644737 -0.765864
30.833639 19.643194 -0.255235
30.783743 19.423096 0.254118
30.718554 19.381964 0.760838
30.870659 19.290129 -0.762514
30.859718 19.283293 -0.254048
30.816013 19.069529 0.253001
30.682482 18.986895 0.755812
30.875854 18.920748 -0.758534
30.788086 18.866962 -0.252093
30.878664 18.737633 0.252163
30.778625 18.676928 0.754137
30.859825 18.542454 -0.754137
30.891556 18.561520 -0.251605
30.834751 18.344749 0.250488
30.845924 18.351397 0.751833
30.994617 18.257225 -0.753508
30.811108 18.149130 -0.249650
30.898643 18.019556 0.249720
30.935802 18.041225 0.750157
30.944960 17.866081 -0.748482
30.855734 17.814566 -0.248742
30.950533 17.689688 0.248882
30.918459 17.671356 0.745969
31.021376 17.551050 -0.746597
30.983908 17.529852 -0.248533
31.033926 17.379833 0.248323
30.966816 17.342249 0.743456
30.963491 17.163343 -0.741571
30.960783 17.161842 -0.247137
30.974001 16.992920 0.246648
30.906605 16.955944 0.738430
31.041800 16.854322 -0.739896
30.968760 16.814665 -0.246020
30.980173 16.646248 0.245531
30.947712 16.628805 0.735917
31.081766 16.526468 -0.737383
31.070169 16.520302 -0.245671
31.018061 16.319391 0.244693
30.950079 16.283625 0.732566
31.056307 16.166889 -0.733404
31.044622 16.160809 -0.244344
30.990383 15.961096 0.243367
30.877682 15.903051 0.727540
31.018044 15.804482 -0.729215
30.970633 15.780325 -0.242669
30.905249 15.577527 0.241621
30.872440 15.560990 0.724189
31.038464 15.475207 -0.726493
30.990822 15.451454 -0.241761
30.833733 15.205515 0.240016
30.800821 15.189284 0.719372
31.109426 15.173080 -0.725027
31.025614 15.132203 -0.240993
30.920218 14.914143 0.239667
30.851154 14.880830 0.717487
30.987982 14.780509 -0.719163
30.939869 14.757561 -0.239318
30.940657 14.592561 0.238829
30.943666 14.593981 0.716650
30.898317 14.408122 -0.714137
30.985909 14.448966 -0.238689
30.957846 14.271763 0.237991
30.851936 14.222938 0.711623
30.986483 14.121354 -0.713299
30.974327 14.115814 -0.237642
30.907980 13.923030 0.236665
29.352299 13.222246 0.674346
30.901955 13.920316 0.709948
30.989799 13.797547 -0.710576
30.977571 13.792104 -0.236735
29.280100 12.883553 0.223331
30.872704 13.584314 0.235478
29.082220 12.796483 0.665550
30.962326 13.462803 -0.707226
30.986704 13.473403 -0.235897
29.189285 12.540707 0.221795
29.358128 12.613247 0.669320
31.005007 13.160845 -0.705550
29.437027 12.495277 -0.223261
30.965029 13.143875 -0.234850
29.269945 12.273907 0.221585
29.909637 12.542152 0.679372
29.289795 12.132230 -0.664084
30.943176 12.817083 -0.701571
29.258553 12.119289 -0.221097
29.699871 12.150538 0.224029
30.221523 12.363952 0.683979
29.227695 11.808756 -0.660315
29.363197 11.863502 -0.221097
30.297029 12.087289 0.227729
30.216835 12.055294 0.681466
29.292423 11.538592 -0.659477
29.921499 11.786392 -0.224517
30.354757 11.804319 0.227380
30.209068 11.747664 0.678953
30.092031 11.551249 -0.675184
30.377966 11.661009 -0.227170
30.278940 11.471664 0.226053
30.235640 11.455259 0.677278
30.350887 11.347732 -0.678744
30.366173 11.353447 -0.226332
30.330986 11.189692 0.225704
30.259415 11.163287 0.675602
30.223282 11.000375 -0.673718
30.294952 11.026461 -0.225076
30.276894 10.870516 0.224587
30.242764 10.858261 0.673089
30.120214 10.666127 -0.669320
30.267481 10.718277 -0.224168
30.295078 10.579515 0.224029
30.157028 10.531306 0.669110
30.212147 10.402876 -0.669320
30.236948 10.411416 -0.223261
30.244211 10.266526 0.222981
30.086840 10.213106 0.665550
30.159559 10.091248 -0.666178
30.250788 10.121772 -0.222702
30.095232 9.923919 0.221236
30.212799 9.962687 0.666388
30.294016 9.843122 -0.667225
30.157267 9.798690 -0.221376
30.256878 9.685303 0.221795
30.212891 9.671223 0.664503
30.283407 9.548322 -0.665131
30.203480 9.523121 -0.221097
30.254295 9.394208 0.221166
30.181561 9.371623 0.661990
30.222164 9.239842 -0.661990
30.333248 9.273805 -0.221446
30.220215 9.095253 0.220329
30.195177 9.087717 0.660524
30.349575 8.989954 -0.663037
30.288378 8.971827 -0.220538
30.183231 8.797609 0.219491
30.148552 8.787501 0.657801
30.263493 8.677917 -0.659477
30.259781 8.676852 -0.219770
30.143364 8.501307 0.218653
30.108620 8.491508 0.655288
30.222458 8.381430 -0.656964
30.170534 8.367029 -0.218583
30.177813 8.227416 0.218374
30.142992 8.217923 0.654451
30.294447 8.117373 -0.656964
30.281036 8.113779 -0.218863
30.142088 7.935750 0.217606
30.145880 7.936748 0.652985
30.257658 7.825162 -0.654660
30.234514 7.819177 -0.218025
30.210192 7.672411 0.217606
30.175232 7.663532 0.652147
30.276289 7.548727 -0.653613
30.272490 7.547779 -0.217815
30.159437 7.379967 0.216768
30.114712 7.369023 0.649424
30.272959 7.267894 -0.652147
30.210796 7.252971 -0.216908
30.144821 7.098163 0.216210
30.148676 7.099071 0.648796
30.247555 6.983198 -0.650262
30.243710 6.982311 -0.216698
30.166603 6.826005 0.215930
30.131468 6.818055 0.647121
30.229256 6.701665 -0.648587
30.176575 6.689985 -0.215791
30.146845 6.545522 0.215372
30.062807 6.527275 0.644398
30.208353 6.420984 -0.646911
30.194681 6.418077 -0.215512
30.153866 6.272013 0.215023
30.118622 6.264682 0.644398
30.145670 6.133206 -0.644398
30.131950 6.130414 -0.214674
30.168221 6.000832 0.214744
30.132921 5.993811 0.643561
30.237301 5.877536 -0.645236
30.223564 5.874866 -0.214953
30.150667 5.724283 0.214255
30.105501 5.715708 0.641885
30.257948 5.607979 -0.644608
30.195023 5.596317 -0.214395
30.150272 5.452057 0.213906
30.114880 5.445657 0.641047
30.217121 5.328094 -0.642723
30.203318 5.325660 -0.214115
30.196701 5.188742 0.213906
30.161255 5.182652 0.641047
30.223024 5.057600 -0.641885
30.209192 5.055285 -0.213836
30.161875 4.912173 0.213347
30.126390 4.906394 0.639372
30.177135 4.779589 -0.640000
30.212650 4.785213 -0.213557
30.124525 4.636608 0.212789
30.128532 4.637225 0.638534
30.188032 4.511631 -0.639372
30.184029 4.511033 -0.213068
30.163839 4.373549 0.212789
30.128275 4.368392 0.637697
30.236155 4.249414 -0.639582
30.301464 4.258593 -0.213627
30.171131 4.106111 0.212579
30.125624 4.099917 0.636859
30.222525 3.978871 -0.638534
30.218502 3.978341 -0.212789
30.166136 3.837617 0.212300
30.120583 3.831822 0.636021
30.256096 3.714981 -0.638534
30.202444 3.708394 -0.212440
30.198477 3.574225 0.212300
30.162804 3.570003 0.636231
30.247627 3.446282 -0.637697
30.243589 3.445822 -0.212510
30.188755 3.306206 0.212021
30.153055 3.302297 0.635393
30.236778 3.178013 -0.636859
30.232729 3.177588 -0.212230
30.216457 3.042637 0.212021
30.220514 3.043046 0.636231
30.183746 2.906364 -0.635184
30.169724 2.905014 -0.211602
30.192070 2.774261 0.211672
30.206095 2.775550 0.635393
30.247797 2.646339 -0.636021
30.233772 2.645112 -0.211881
30.225096 2.511512 0.211742
30.179348 2.507710 0.634346
30.229872 2.379143 -0.635184
30.265673 2.381960 -0.211951
30.195999 2.243950 0.211393
30.160202 2.241290 0.633508
30.249481 2.115250 -0.635184
30.245405 2.114965 -0.211672
30.224411 1.981012 0.211462
30.228495 1.981280 0.634555
30.266788 1.851196 -0.635184
30.252729 1.850336 -0.211602
30.240547 1.717183 0.211462
30.194725 1.714581 0.633508
30.281792 1.587001 -0.635184
30.277710 1.586788 -0.211672
30.214428 1.451303 0.211183
30.178577 1.449581 0.632880
30.294487 1.322686 -0.635184
30.280415 1.322071 -0.211602
30.265909 1.189151 0.211462
30.220049 1.187349 0.633508
30.274900 1.057223 -0.634555
30.220842 1.055335 -0.211113
30.275135 0.924989 0.211462
30.239252 0.923893 0.633718
30.312958 0.793773 -0.635184
30.298876 0.793404 -0.211602
30.282053 0.660757 0.211462
30.246164 0.659974 0.633718
30.328726 0.529390 -0.635393
30.354637 0.529842 -0.211951
30.286667 0.396474 0.211462
30.180794 0.395088 0.632252
30.252211 0.264007 -0.633718
30.238111 0.263884 -0.211113
30.208977 0.131812 0.210904
30.133102 0.131481 0.631205
30.323349 0.000000 -0.635184
30.309261 0.000000 -0.211602
30.168978 -0.131638 0.210625
30.133102 -0.131481 0.631205
30.402172 -0.265316 -0.636859
30.228113 -0.263797 -0.211043
30.166679 -0.394903 0.210625
30.130808 -0.394434 0.631205
30.228764 -0.527645 -0.633299
30.224659 -0.527573 -0.211043
30.162085 -0.658139 0.210625
30.126219 -0.657356 0.631205
30.233002 -0.791679 -0.633508
30.188915 -0.790525 -0.210834
30.155193 -0.921324 0.210625
30.079363 -0.919008 0.630367
30.184975 -1.054083 -0.632671
30.180868 -1.053939 -0.210834
30.106037 -1.182869 0.210345
30.070198 -1.181461 0.630367
30.224569 -1.319633 -0.633718
30.200491 -1.318582 -0.211043
30.134521 -1.447465 0.210625
30.098688 -1.445744 0.631205
30.211903 -1.583339 -0.633718
30.187836 -1.582077 -0.211043
30.120743 -1.710380 0.210625
30.084925 -1.708346 0.631205
30.186956 -1.846313 -0.633508
30.172880 -1.845452 -0.211043
30.024843 -1.967932 0.210066
29.490240 -1.932892 0.619058
30.099880 -2.104789 -0.632042
30.085798 -2.103804 -0.210555
30.046415 -2.232834 0.210345
29.163170 -2.167198 0.612566
30.190004 -2.376005 -0.634346
30.146046 -2.372545 -0.211113
30.464266 -2.531385 0.213417
30.547997 -2.538343 0.642095
30.178080 -2.640240 -0.634555
30.193926 -2.641626 -0.211602
30.600340 -2.811776 0.214534
30.445036 -2.797506 0.640419
30.183746 -2.906364 -0.635184
30.597733 -2.946227 -0.214604
30.534840 -3.074697 0.214255
30.499044 -3.071092 0.642095
30.634499 -3.219816 -0.645236
30.620583 -3.218353 -0.214953
30.506845 -3.341043 0.214255
30.471083 -3.337126 0.642095
30.605236 -3.487026 -0.645236
30.511848 -3.476386 -0.214395
30.516251 -3.611836 0.214534
30.480515 -3.607607 0.642932
30.623257 -3.760063 -0.646283
30.559752 -3.752266 -0.214953
30.523249 -3.883048 0.214813
30.487545 -3.878505 0.643770
30.500069 -4.015410 -0.644398
30.486187 -4.013583 -0.214674
30.527834 -4.154656 0.215093
30.492163 -4.149801 0.644608
30.543070 -4.292549 -0.646074
30.539124 -4.291994 -0.215302
30.530001 -4.426640 0.215372
30.494366 -4.421473 0.645445
30.553888 -4.566309 -0.647121
30.540066 -4.564243 -0.215581
30.490210 -4.692892 0.215372
30.494146 -4.693498 0.646283
30.581999 -4.843713 -0.648587
30.568209 -4.841529 -0.216070
30.527054 -4.971646 0.215930
30.491499 -4.965856 0.647121
30.617451 -5.123604 -0.650262
30.564245 -5.114701 -0.216349
30.571203 -5.253094 0.216559
30.486418 -5.238524 0.647958
30.601112 -5.395802 -0.650890
30.587383 -5.393381 -0.216838
30.553719 -5.525012 0.216768
30.518248 -5.518598 0.649634
30.611843 -5.673570 -0.652147
30.588314 -5.669209 -0.217187
30.543638 -5.798891 0.217047
30.547506 -5.799625 0.651309
30.629866 -5.953843 -0.653613
30.616205 -5.951188 -0.217746
30.531101 -6.073014 0.217327
30.534956 -6.073780 0.652147
30.625729 -6.230875 -0.654660
30.602303 -6.226109 -0.218025
30.555265 -6.355504 0.217885
30.519943 -6.348157 0.652985
30.648422 -6.514524 -0.656335
30.585930 -6.501240 -0.218304
30.576817 -6.638877 0.218444
30.531775 -6.629098 0.654451
30.668493 -6.799041 -0.658011
30.615896 -6.787381 -0.218932
30.556730 -6.914282 0.218723
30.521519 -6.906315 0.655498
30.607992 -7.066412 -0.658011
30.594475 -7.063291 -0.219212
30.534163 -7.189841 0.219002
30.499016 -7.181565 0.656335
30.622934 -7.351916 -0.659686
30.570566 -7.339344 -0.219491
30.547964 -7.475039 0.219561
30.512875 -7.466453 0.658011
30.635220 -7.638218 -0.661362
30.582975 -7.625192 -0.220049
30.559105 -7.761024 0.220119
30.524078 -7.752128 0.659686
30.644833 -7.925292 -0.663037
30.583038 -7.909312 -0.220538
30.528896 -8.037587 0.220398
30.532614 -8.038567 0.661362
30.651762 -8.213115 -0.664712
30.599785 -8.199187 -0.221166
30.534775 -8.324735 0.220957
30.499884 -8.315223 0.662199
30.607824 -8.488301 -0.665341
30.604156 -8.487284 -0.221725
30.528336 -8.609881 0.221446
30.541630 -8.613630 0.664712
30.619081 -8.779881 -0.667225
30.605827 -8.776079 -0.222283
30.538441 -8.901144 0.222074
30.503693 -8.891016 0.665550
30.541298 -9.046744 -0.667225
30.528076 -9.042829 -0.222283
30.536207 -9.190355 0.222632
30.501534 -9.179919 0.667225
30.604601 -9.356766 -0.670367
30.591444 -9.352743 -0.223331
30.531244 -9.480203 0.223191
30.496647 -9.469460 0.668901
30.645741 -9.662565 -0.673089
30.594494 -9.646407 -0.223959
30.523542 -9.770662 0.223749
30.489025 -9.759614 0.670576
30.560253 -9.929628 -0.673089
30.547192 -9.925384 -0.224238
30.513090 -10.061707 0.224308
30.516636 -10.062878 0.673089
30.614655 -10.243521 -0.676231
30.611141 -10.242345 -0.225355
30.575628 -10.379027 0.225425
30.541265 -10.367363 0.675602
30.646990 -10.552605 -0.678953
30.596235 -10.535129 -0.225914
30.521654 -10.658639 0.225704
30.525143 -10.659857 0.677278
30.619705 -10.843006 -0.680419
30.606823 -10.838445 -0.226682
30.568651 -10.975267 0.226751
30.581512 -10.979885 0.680629
30.552101 -11.120056 -0.681047
30.501678 -11.101704 -0.226612
30.556147 -11.272758 0.227380
28.008249 -10.332788 0.625341
30.540810 -11.267099 0.681885
30.013760 -11.221684 -0.671205
30.637800 -11.455005 -0.228357
28.174936 -10.674529 0.210345
30.550123 -11.574406 0.228078
27.645884 -10.474089 0.619267
30.562866 -11.579234 0.684608
28.962646 -11.117719 -0.649843
30.624056 -11.755474 -0.687121
28.221449 -10.833200 -0.211043
30.611357 -11.750599 -0.228916
27.624041 -10.742402 0.206925
30.569113 -11.887678 0.228985
30.507246 -11.863619 0.685655
28.315699 -11.153851 -0.637487
30.622629 -12.062574 -0.689424
27.632729 -10.884821 -0.207343
30.582081 -12.046601 -0.229474
27.965775 -11.157212 0.210206
30.584953 -12.202159 0.229893
27.830317 -11.103170 0.627644
27.670368 -11.179554 -0.625131
30.599627 -12.363051 -0.691309
28.083715 -11.346558 -0.211462
30.549963 -12.342986 -0.230033
27.913622 -11.419764 0.210555
27.695353 -11.330467 0.626807
28.052069 -11.619547 -0.636021
27.928198 -11.568238 -0.211043
27.812904 -11.662918 0.210555
27.669182 -11.602651 0.628482
27.940397 -11.859996 -0.635812
27.826183 -11.811514 -0.211043
27.682505 -11.893343 0.210345
27.502575 -11.816039 0.627016
26.066299 -11.333950 -0.595393
27.872513 -12.119313 -0.636650
27.254362 -11.850533 -0.207483
27.541052 -12.118353 0.210066
27.251997 -11.991166 0.623665
25.993801 -11.573186 -0.596021
27.213856 -12.116389 -0.207972
27.288372 -12.292516 0.208949
27.355978 -12.322969 0.628482
25.737158 -11.729099 -0.592461
30.631676 -13.959660 -0.705131
27.289074 -12.436347 -0.209368
27.279957 -12.576232 0.209717
27.220161 -12.548666 0.627854
25.932840 -12.092682 -0.599372
30.626484 -14.281364 -0.707854
27.116068 -12.644430 -0.208879
30.677771 -14.305280 -0.236316
25.604502 -12.075867 0.197639
27.123949 -12.792484 0.209368
27.145788 -12.802785 0.628691
27.396479 -13.067451 -0.635812
30.645073 -14.616950 -0.711205
25.181517 -12.010967 -0.194777
27.807976 -13.263723 -0.215093
30.632998 -14.611191 -0.236944
26.209681 -12.642049 0.203155
26.141535 -12.609179 0.607958
24.909107 -12.148983 -0.580524
26.661371 -13.003619 -0.621362
30.606211 -14.927647 -0.713299
27.664207 -13.492735 -0.214883
30.585217 -14.917407 -0.237572
25.506439 -12.578383 0.198547
27.649912 -13.635428 0.215232
25.591135 -12.620151 0.597697
26.846481 -13.239219 0.627016
25.419510 -12.673699 -0.594974
30.644779 -15.278923 -0.717278
25.487110 -12.707404 -0.198826
30.588112 -15.250669 -0.238619
25.395702 -12.800488 0.198547
27.762039 -13.993219 0.217047
30.512346 -15.379489 0.238550
25.417534 -12.811492 0.596231
27.328091 -13.774491 0.641047
24.880354 -12.677174 -0.584922
30.599361 -15.591153 -0.719372
25.090132 -12.784060 -0.196592
30.623148 -15.603273 -0.239946
25.709749 -13.241391 0.201898
30.536995 -15.727586 0.239806
26.406906 -13.600451 0.622199
24.981615 -13.004605 -0.589948
25.886168 -13.475486 -0.611309
30.630634 -15.945299 -0.723351
24.977617 -13.002524 -0.196592
30.618868 -15.939174 -0.240993
25.770212 -13.558365 0.203294
30.575579 -16.086590 0.241203
25.499750 -13.416067 0.603561
27.702887 -14.575193 0.655707
30.543074 -16.069489 0.722932
24.928972 -13.254970 -0.591414
30.622734 -16.282396 -0.726493
24.942661 -13.262248 -0.197221
26.726171 -14.210558 -0.211323
30.602219 -16.271488 -0.241970
25.747808 -13.834797 0.204062
30.557356 -16.419060 0.242180
25.293634 -13.590759 0.601466
30.480942 -16.378000 0.724817
24.952932 -13.548337 -0.594765
30.628845 -16.630106 -0.730053
25.080830 -13.617779 -0.199245
26.311144 -14.285785 -0.209019
30.634817 -16.633348 -0.243367
25.284184 -13.871378 0.201340
30.605785 -16.790909 0.243716
25.849001 -14.181248 0.617592
30.547226 -16.758781 0.729843
24.387794 -13.518374 -0.584084
26.687540 -14.793144 -0.639163
30.674931 -17.003391 -0.734660
24.829849 -13.763410 -0.198198
26.736473 -14.820269 -0.213417
30.593452 -16.958227 -0.244204
25.266869 -14.150126 0.202177
26.305113 -14.731571 0.210485
30.562790 -17.115986 0.244554
25.715542 -14.401395 0.617383
30.574278 -17.122419 0.734032
24.930222 -14.104841 -0.600000
27.210054 -15.394708 -0.654869
30.655907 -17.344276 -0.737801
25.091743 -14.196225 -0.201270
26.667049 -15.087490 -0.213906
28.399014 -16.067389 -0.227799
30.533808 -17.451509 0.245531
30.501816 -17.433224 0.735917
24.373268 -14.071913 -0.589529
30.624601 -17.681122 -0.740733
25.001545 -14.434649 -0.201549
26.586332 -15.349626 -0.214325
30.595932 -17.664570 -0.246648
25.456612 -14.845858 0.205738
27.115135 -15.813080 0.219142
30.553118 -17.818052 0.246927
30.555798 -17.819614 0.740943
24.775021 -14.593602 -0.602304
30.581127 -18.013660 -0.743456
24.822931 -14.621824 -0.201130
26.864943 -15.824660 -0.217676
30.587090 -18.017172 -0.247835
27.268301 -16.222935 0.221515
30.559748 -18.181139 0.248254
26.867744 -15.984629 0.654869
24.749563 -14.871037 -0.604817
30.611301 -18.393126 -0.748063
24.934389 -14.982093 -0.203085
26.828682 -16.120298 -0.218513
30.600126 -18.386412 -0.249231
26.835030 -16.283895 0.219142
30.536707 -18.530128 0.249371
26.838345 -16.285908 0.657592
30.522207 -18.521330 0.747854
25.002451 -15.321522 -0.614241
26.673260 -16.345394 -0.655288
30.620117 -18.764032 -0.752252
26.857512 -16.458303 -0.219910
30.617561 -18.762466 -0.250697
25.297361 -15.654483 0.207692
26.598370 -16.459570 0.218374
30.560915 -18.911667 0.250906
25.224417 -15.609343 0.621362
26.635693 -16.482666 0.656126
30.529451 -18.892199 0.752042
23.579044 -14.733823 -0.582409
26.733091 -16.704691 -0.660315
30.675652 -19.168274 -0.757697
24.703039 -15.436172 -0.203364
26.763746 -16.723845 -0.220329
30.605310 -19.124321 -0.251954
27.460114 -17.326040 0.226682
30.546944 -19.273687 0.252163
25.222528 -15.914230 0.624712
26.659950 -16.821177 0.660315
24.250618 -15.449347 -0.602304
26.771805 -17.055521 -0.664922
30.633692 -19.515814 -0.760838
24.896309 -15.860698 -0.206087
26.456545 -16.854677 -0.219002
30.605930 -19.498127 -0.253350
25.499681 -16.401947 0.211672
25.343357 -16.301395 0.631205
30.531429 -19.638475 0.760419
24.961746 -16.210348 -0.623456
30.696995 -19.934862 -0.766702
24.824043 -16.120922 -0.206645
30.644276 -19.900625 -0.255095
26.894308 -17.632681 0.224517
30.590603 -20.056078 0.255374
30.542833 -20.024759 0.765027
24.610910 -16.289606 -0.618220
30.605234 -20.257162 -0.768796
25.449575 -16.844706 -0.213068
26.692034 -17.667072 -0.223470
30.611202 -20.261112 -0.256282
25.009996 -16.711145 0.209996
26.639637 -17.800037 0.223680
30.572393 -20.427820 0.256701
26.260365 -17.546614 0.661571
30.508242 -20.384956 0.768587
24.517553 -16.537298 -0.619477
26.639423 -17.968519 -0.673089
25.318190 -17.077335 -0.213208
26.760681 -18.050306 -0.225355
30.632193 -20.661674 -0.257958
26.904840 -18.318853 0.227240
30.583075 -20.823275 0.258307
24.825310 -16.902952 0.629110
30.552320 -20.802336 0.774241
22.609062 -15.538778 -0.574660
24.710123 -16.982798 -0.628063
24.739666 -17.003101 -0.209577
26.643351 -18.311468 -0.225704
30.632025 -21.052807 -0.259493
30.564522 -21.203363 0.259703
24.668646 -17.113249 0.628901
26.270506 -18.224499 0.669739
30.558563 -21.199228 0.779058
24.290722 -17.008547 -0.621152
25.216160 -17.656546 -0.644817
24.655876 -17.264231 -0.210136
30.529053 -21.376673 -0.260192
25.388767 -17.943007 0.217047
30.606979 -21.630875 0.261658
24.640837 -17.414421 0.632042
30.568354 -21.603577 0.784084
24.296019 -17.330181 -0.625131
24.740368 -17.647133 -0.212160
30.683266 -21.886162 -0.263124
23.307837 -16.779242 0.200502
23.676535 -17.044666 0.611100
24.507839 -17.805986 -0.634555
30.695461 -22.301558 -0.794765
24.820036 -18.032812 -0.214185
30.644817 -22.264763 -0.264450
23.362131 -17.129824 0.202247
23.333387 -17.108747 0.606074
26.187576 -19.201525 0.680210
24.930172 -18.447355 -0.649634
30.660414 -22.687513 -0.798953
23.488125 -17.380299 -0.203992
25.939829 -19.194464 -0.225285
30.618162 -22.656248 -0.265916
23.299892 -17.398855 0.203015
25.230867 -18.840782 0.219840
23.079060 -17.233952 0.603351
24.545033 -18.328646 0.641676
23.450781 -17.671431 -0.615079
30.660877 -23.104628 -0.804189
23.415422 -17.644787 -0.204691
23.561085 -17.916265 0.206645
25.224689 -19.181299 0.221236
23.063078 -17.537573 0.606911
23.240154 -17.832798 -0.613613
23.141554 -17.757137 -0.203643
23.055946 -17.851820 0.203574
23.106787 -17.891186 0.612147
25.296516 -19.586657 0.670157
23.327881 -18.225739 -0.620105
23.096033 -18.044598 -0.204621
25.836298 -20.367695 0.229683
30.563789 -24.094549 0.271711
22.651424 -17.856943 0.604189
22.925390 -18.235678 -0.613613
22.906382 -18.220560 -0.204341
24.698511 -19.646084 -0.220329
30.622711 -24.358404 -0.273177
22.857857 -18.345369 0.204621
30.531733 -24.504307 0.273316
22.408964 -17.985096 0.601885
23.192719 -18.781094 -0.625131
30.659454 -24.827536 -0.826388
22.645481 -18.337950 -0.203434
21.426922 -17.506531 0.193171
24.253387 -19.815847 0.218653
30.556789 -24.965944 0.275481
22.398266 -18.300150 0.605864
23.745413 -19.400816 0.642304
23.868828 -19.675943 -0.647958
24.768545 -20.417614 -0.224098
26.064844 -21.486198 -0.235827
30.625034 -25.245329 -0.277086
21.765383 -18.102077 0.197639
24.786856 -20.615011 0.225076
22.176222 -18.443769 0.604189
24.097906 -20.042017 0.656545
21.475176 -18.019812 -0.587225
23.979591 -20.121265 -0.655707
21.655548 -18.171164 -0.197360
24.604748 -20.645834 -0.224238
21.728699 -18.394701 0.198756
24.209145 -20.494553 0.221446
21.999166 -18.623669 0.603770
24.845400 -21.033182 0.681885
30.545496 -25.858671 0.838325
21.104240 -18.024723 -0.581362
24.738184 -21.128405 -0.681466
21.549379 -18.404909 -0.197849
30.658821 -26.185106 -0.281484
21.340086 -18.387794 0.196662
21.585867 -18.599573 0.596859
24.191319 -20.844574 0.668901
22.281687 -19.369175 -0.618430
24.552864 -21.343479 -0.681466
21.493605 -18.684105 -0.198826
21.329176 -18.705185 0.198058
24.231207 -21.250198 0.225006
21.520452 -18.872931 0.599581
30.578136 -26.816305 0.851938
22.284035 -19.715248 -0.623246
24.043694 -21.272064 -0.672461
30.715425 -27.174713 -0.859058
21.120037 -18.685431 -0.196872
30.550304 -27.267189 0.285883
21.295267 -19.006752 0.597906
30.574184 -27.288504 0.858430
22.170578 -19.962479 -0.624922
24.614988 -22.163435 -0.693822
21.372324 -19.243727 -0.200781
21.014280 -19.088028 0.198198
20.995382 -19.070864 0.594136
20.698208 -18.966412 -0.588063
21.328913 -19.544348 -0.201968
23.334259 -21.381908 -0.220957
21.243433 -19.637226 0.201968
20.828161 -19.253353 0.594136
20.451477 -19.071310 -0.585759
22.228277 -20.728203 -0.636650
20.865013 -19.456940 -0.199175
21.691422 -20.227579 -0.207064
21.144094 -19.890377 0.202666
21.059868 -19.811146 0.605655
20.349541 -19.310993 -0.587644
20.295481 -19.259691 -0.195336
24.524309 -23.272701 -0.236036
26.758408 -25.392782 -0.257539
21.677614 -20.751801 0.209508
21.016182 -20.118616 0.609424
20.719635 -20.008718 -0.603351
20.083477 -19.394388 -0.194917
21.263166 -20.533602 -0.206366
20.722111 -20.186586 0.201968
20.646456 -20.112886 0.603770
20.822346 -20.462061 -0.611519
23.030296 -22.631809 -0.225425
20.878941 -20.697529 0.205249
20.974276 -20.792034 0.618639
20.954048 -20.954048 -0.620733
20.477314 -20.477314 -0.202177
23.341026 -23.341026 -0.230451
20.507450 -20.687197 0.203364
20.067059 -20.242945 0.597068
20.672289 -21.036274 -0.617801
24.491405 -24.922636 -0.731938
20.578194 -20.940523 -0.204970
20.381962 -20.922670 0.203923
20.775642 -21.326794 0.623665
20.981028 -21.726490 -0.632671
23.189556 -24.013489 -0.699267
20.304369 -21.025789 -0.204062
20.336903 -21.244205 0.205319
20.443556 -21.355618 0.619267
20.157484 -21.241556 -0.613403
19.892962 -20.962809 -0.201758
22.811514 -24.038321 -0.231359
20.390549 -21.675793 0.207762
20.215315 -21.489513 0.618011
20.755478 -22.257524 -0.637487
22.310093 -23.924644 -0.685236
21.250551 -22.788425 -0.217536
23.835262 -25.560188 -0.243995
20.193830 -21.845562 0.207692
20.230612 -21.885353 0.624294
20.047119 -21.877592 -0.621571
23.059591 -25.165129 -0.714974
20.442862 -22.309469 -0.211253
21.685917 -23.666025 -0.224098
20.116724 -22.146786 0.208879
21.853851 -24.059214 0.680838
22.714293 -25.006485 0.707644
19.875511 -22.073990 -0.622199
20.013208 -22.226919 -0.208809
20.095819 -22.515463 0.210694
21.110477 -23.652290 0.664084
20.410847 -23.070265 -0.645236
19.878117 -22.468124 -0.209438
19.819452 -22.599754 0.209857
20.810982 -23.730377 0.661152
20.202187 -23.239958 -0.645027
19.766577 -22.738846 -0.210345
19.588842 -22.733971 0.209508
19.571972 -22.714392 0.628063
20.231113 -23.479364 0.649215
21.347088 -24.774515 0.685027
20.349237 -23.825897 -0.656335
19.664808 -23.024532 -0.211393
19.783834 -23.369608 0.213766
22.355345 -26.407200 0.241552
19.928553 -23.540558 0.646074
19.546696 -23.294844 -0.212300
19.764578 -23.764322 0.215791
19.888584 -23.913424 0.651519
21.864017 -26.288624 0.716231
21.511457 -26.328709 0.237363
19.641191 -24.039618 0.650262
21.005480 -26.172285 0.234291
20.732296 -25.831905 0.693822
20.704151 -26.263090 0.700524
21.935211 -28.329718 0.250139
20.936609 -27.533039 0.241482
30.585608 -40.959095 0.356882
20.553925 -27.525043 0.719582
20.608534 -28.106493 0.730053
0.146059 -0.202889 0.001745
0.134348 -0.186621 0.004817
0.153895 -0.221839 0.001885
0.136769 -0.197152 0.005026
0.168804 -0.247923 0.006283
0.155556 -0.232806 0.001955
0.166635 -0.249386 0.006283
0.169967 -0.259242 0.002164
0.126080 -0.192304 0.004817
0.129831 -0.201844 0.001676
0.146031 -0.227031 0.005654
0.128064 -0.202970 0.001676
0.117369 -0.186019 0.004607
0.147336 -0.238093 0.001955
0.157830 -0.255050 0.006283
0.124503 -0.205174 0.001676
0.140038 -0.230776 0.005654
0.117595 -0.197659 0.001606
0.127795 -0.214804 0.005236
0.115843 -0.198639 0.004817