# This PCD file was generated using the MATLAB® pcwrite function
# from Computer Vision System Toolbox®.
# .PCD v.7 - Point Cloud Data file format
VERSION .7
FIELDS x y z
SIZE 4 4 4
TYPE F F F
COUNT 1 1 1
WIDTH 774
HEIGHT 1
VIEWPOINT 0 0 0 1 0 0 0
POINTS 774
DATA ascii
1.875917 2.157996 -0.059895
1.902525 2.188604 -0.020246
1.888053 2.134056 -0.059686
1.934803 2.186898 -0.020385
1.873155 2.080349 -0.058639
1.873520 2.080755 -0.019548
1.897992 2.071295 -0.058848
1.938897 2.115934 -0.020036
1.847810 1.981534 -0.056754
1.854990 1.989234 -0.018989
1.885678 1.987090 -0.057382
1.879162 1.980224 -0.019059
1.882111 1.948983 -0.056754
1.917210 1.985330 -0.019268
1.849995 1.882568 -0.055288
1.885400 1.918597 -0.018780
1.852214 1.852214 -0.054869
1.923284 1.923284 -0.018989
1.832652 1.800942 -0.053822
1.890068 1.857364 -0.018500
1.884257 1.819606 -0.054869
1.827079 1.764389 -0.017732
1.834795 1.741155 -0.052984
1.885927 1.789678 -0.018151
1.813359 1.690985 -0.051937
1.850280 1.725414 -0.017663
1.828047 1.675096 -0.051937
1.916874 1.756492 -0.018151
1.864884 1.679150 -0.052565
1.872679 1.686168 -0.017593
1.857003 1.642937 -0.051937
1.887322 1.669762 -0.017593
1.810906 1.574196 -0.050262
1.901822 1.653229 -0.017593
1.862586 1.590799 -0.051309
1.916176 1.636569 -0.017593
1.799810 1.510220 -0.049215
1.869103 1.568364 -0.017034
1.828349 1.507175 -0.049634
1.890434 1.558354 -0.017104
1.802583 1.459703 -0.048586
1.865105 1.510332 -0.016755
1.846550 1.468812 -0.049424
1.870388 1.487774 -0.016685
1.819906 1.421866 -0.048377
1.828140 1.428300 -0.016197
1.792585 1.375499 -0.047330
1.872268 1.436642 -0.016476
1.812505 1.365821 -0.047539
1.852789 1.396177 -0.016197
1.816318 1.344005 -0.047330
1.864902 1.379955 -0.016197
1.844154 1.339857 -0.047749
1.876874 1.363629 -0.016197
1.839498 1.312101 -0.047330
1.880561 1.341391 -0.016127
1.859067 1.301733 -0.047539
1.843047 1.290516 -0.015708
1.906174 1.322360 0.016197
1.922232 1.333500 0.049005
1.829159 1.257146 -0.046492
1.903685 1.308367 -0.016127
1.884579 1.283164 0.015917
1.900739 1.294167 0.048168
1.848348 1.246727 -0.046702
1.890160 1.274929 -0.015917
1.904019 1.272225 0.015987
1.911961 1.277531 0.048168
1.834146 1.213995 -0.046073
1.892875 1.252866 -0.015847
1.873235 1.228147 0.015638
1.906314 1.249834 0.047749
1.844671 1.197943 -0.046073
1.912122 1.241747 -0.015917
1.917522 1.233392 0.015917
1.900331 1.222334 0.047330
1.829758 1.165684 -0.045445
1.897585 1.208895 -0.015708
1.894384 1.195267 0.015638
1.877104 1.184364 0.046492
1.814425 1.133779 -0.044817
1.831739 1.144598 -0.015080
1.904743 1.178690 0.015638
1.887368 1.167939 0.046492
1.875397 1.149245 -0.046073
1.909867 1.170368 -0.015638
1.914956 1.162024 0.015638
1.914583 1.161797 0.046911
1.791087 1.076193 -0.043770
1.885722 1.133056 -0.015359
1.890648 1.124817 0.015359
1.907464 1.134822 0.046492
1.826253 1.075745 -0.044398
1.921386 1.131783 -0.015568
1.900392 1.108276 0.015359
1.943204 1.133243 0.047120
1.870205 1.079763 -0.045236
1.870569 1.079974 -0.015080
1.927354 1.101574 0.015498
1.926979 1.101359 0.046492
1.879556 1.063402 -0.045236
1.940846 1.098078 -0.015568
1.884545 1.055396 0.015080
1.927793 1.079616 0.046283
1.783833 0.988795 -0.042723
1.854149 1.027771 -0.014800
1.876150 1.029291 0.014940
1.875784 1.029090 0.044817
1.836325 0.997043 -0.043770
1.959714 1.064038 -0.015568
1.867443 1.003413 0.014800
1.902307 1.022146 0.045236
1.853783 0.985674 -0.043979
1.907120 1.014034 -0.015080
1.920376 1.010359 0.015149
1.928850 1.014817 0.045654
1.809105 0.941761 -0.042723
1.871547 0.974266 -0.014730
1.884670 0.970669 0.014800
1.893191 0.975058 0.044607
1.870703 0.953171 -0.043979
1.888888 0.962436 -0.014800
1.910928 0.963187 0.014940
1.910556 0.962999 0.044817
1.861055 0.927888 -0.043560
1.959859 0.977149 -0.015289
1.910292 0.942052 0.014870
1.909920 0.941868 0.044607
1.806180 0.880933 -0.042094
1.941348 0.946859 -0.015080
1.927447 0.929690 0.014940
1.918067 0.925165 0.044607
1.876966 0.895267 -0.043560
1.976614 0.942796 -0.015289
1.881221 0.887241 0.014521
1.889897 0.891333 0.043770
1.902829 0.887304 -0.043979
1.948514 0.908607 -0.015010
1.907054 0.879164 0.014661
1.906682 0.878993 0.043979
1.855914 0.845789 -0.042723
1.956369 0.891569 -0.015010
1.896419 0.854274 0.014521
1.905165 0.858214 0.043770
1.881491 0.837694 -0.043141
1.964075 0.874462 -0.015010
1.876343 0.825611 0.014312
1.921733 0.845583 0.043979
1.852055 0.805296 -0.042304
1.971631 0.857290 -0.015010
1.874288 0.805258 0.014242
1.883109 0.809047 0.042932
1.895824 0.804730 -0.043141
1.942218 0.824423 -0.014730
1.890466 0.792738 0.014312
1.936197 0.811915 0.043979
1.828880 0.757547 -0.041466
1.884668 0.780655 -0.014242
1.888057 0.772424 0.014242
1.943209 0.794988 0.043979
1.909580 0.771520 -0.043141
1.956310 0.790401 -0.014730
1.904013 0.759624 0.014312
1.950072 0.778000 0.043979
1.860427 0.732842 -0.041885
1.935221 0.762304 -0.014521
1.901250 0.739356 0.014242
1.947469 0.757329 0.043770
1.885419 0.723745 -0.042304
1.932464 0.741804 -0.014451
1.926332 0.729822 0.014381
1.963353 0.743848 0.043979
1.844840 0.689757 -0.041257
1.938864 0.724912 -0.014451
1.913864 0.706062 0.014242
1.922870 0.709384 0.042932
1.897763 0.690729 -0.042304
1.945116 0.707964 -0.014451
1.938775 0.696091 0.014381
1.966626 0.706091 0.043770
1.866021 0.660793 -0.041466
1.951220 0.690963 -0.014451
1.888132 0.659365 0.013963
1.897203 0.662533 0.042094
1.814998 0.624954 -0.040209
1.928811 0.664143 -0.014242
1.874876 0.636435 0.013823
1.940781 0.658806 0.042932
1.858307 0.621781 -0.041047
1.962982 0.656805 -0.014451
1.946836 0.641970 0.014312
1.908477 0.629321 0.042094
1.806611 0.587004 -0.039791
1.892556 0.614929 -0.013893
1.914269 0.612762 0.014032
1.913896 0.612643 0.042094
1.868875 0.589254 -0.041047
1.945535 0.613425 -0.014242
1.871794 0.581207 0.013683
1.880977 0.584059 0.041257
1.854824 0.567077 -0.040628
1.912563 0.584729 -0.013963
1.895945 0.570615 0.013823
1.886002 0.567622 0.041257
1.878875 0.556548 -0.041047
1.946357 0.576537 -0.014172
1.920053 0.559644 0.013963
1.929277 0.562333 0.042094
1.825997 0.523596 -0.039791
1.922477 0.551261 -0.013963
1.934488 0.545582 0.014032
1.934111 0.545476 0.042094
1.888301 0.523672 -0.041047
1.965758 0.545153 -0.014242
1.929528 0.526050 0.013963
1.900214 0.518058 0.041257
1.902457 0.509762 -0.041257
1.893168 0.507273 -0.013683
1.914704 0.504100 0.013823
1.904663 0.501456 0.041257
1.877795 0.485631 -0.040628
1.936248 0.500748 -0.013963
1.938415 0.492295 0.013963
1.947727 0.494660 0.042094
1.881961 0.469226 -0.040628
1.892031 0.471736 -0.013613
1.923210 0.470607 0.013823
1.913124 0.468139 0.041257
1.866541 0.448117 -0.040209
1.944692 0.466879 -0.013963
1.907777 0.449222 0.013683
1.878210 0.442260 0.040419
1.850897 0.427313 -0.039791
1.909719 0.440893 -0.013683
1.931131 0.436970 0.013823
1.921003 0.434679 0.041257
1.893599 0.419801 -0.040628
1.952544 0.432869 -0.013963
1.915326 0.415858 0.013683
1.885642 0.409413 0.040419
1.779838 0.378316 -0.038115
1.868216 0.397102 -0.013334
1.889512 0.393019 0.013474
1.928297 0.401086 0.041257
1.881043 0.382702 -0.040209
1.959802 0.398726 -0.013963
1.922292 0.382368 0.013683
1.931723 0.384244 0.041257
1.903939 0.370088 -0.040628
1.914126 0.372068 -0.013613
1.905907 0.361848 0.013544
1.895713 0.359912 0.040419
1.887435 0.349815 -0.040209
1.966462 0.364462 -0.013963
1.928673 0.348761 0.013683
1.938135 0.350472 0.041257
1.841187 0.324651 -0.039162
1.920328 0.338606 -0.013613
1.951353 0.335304 0.013823
1.941120 0.333545 0.041257
1.853810 0.310221 -0.039372
1.962661 0.328437 -0.013893
1.894987 0.308618 0.013404
1.904485 0.310165 0.040419
1.876196 0.297160 -0.039791
1.925945 0.305040 -0.013613
1.956908 0.301197 0.013823
1.946645 0.299617 0.041257
1.819390 0.271910 -0.038534
1.898864 0.283787 -0.013404
1.939669 0.281239 0.013683
1.909608 0.276880 0.040419
1.881097 0.264371 -0.039791
1.930976 0.271381 -0.013613
1.912325 0.260256 0.013474
1.951578 0.265598 0.041257
1.883332 0.247945 -0.039791
1.943185 0.255825 -0.013683
1.904603 0.242296 0.013404
1.914150 0.243511 0.040419
1.855654 0.227846 -0.039162
1.935418 0.237639 -0.013613
1.916575 0.226842 0.013474
1.955916 0.231498 0.041257
1.887372 0.215039 -0.039791
1.977160 0.225269 -0.013893
1.908542 0.209019 0.013404
1.878354 0.205713 0.039581
1.889177 0.198561 -0.039791
1.939270 0.203826 -0.013613
1.930192 0.194360 0.013544
1.919868 0.193321 0.040419
1.890838 0.182067 -0.039791
1.990744 0.191687 -0.013963
1.911899 0.175679 0.013404
1.881659 0.172900 0.039581
1.812677 0.158589 -0.038115
1.862839 0.162977 -0.013055
1.923325 0.159816 0.013474
1.932913 0.160613 0.040628
1.893728 0.149040 -0.039791
1.983817 0.156130 -0.013893
1.914674 0.142285 0.013404
1.884390 0.140034 0.039581
1.894956 0.132508 -0.039791
1.945202 0.136022 -0.013613
1.975713 0.129495 0.013823
1.925445 0.126200 0.040419
1.896040 0.115967 -0.039791
1.986240 0.121484 -0.013893
1.956800 0.111115 0.013683
1.926473 0.109393 0.040419
1.827091 0.095754 -0.038325
1.907336 0.099959 -0.013334
1.927730 0.092596 0.013474
1.927355 0.092577 0.040419
1.817869 0.079370 -0.038115
1.948097 0.085056 -0.013613
1.918473 0.075377 0.013404
1.928089 0.075755 0.040419
1.868451 0.065248 -0.039162
1.948765 0.068052 -0.013613
1.929053 0.058938 0.013474
1.938670 0.059232 0.040628
1.898932 0.049725 -0.039791
1.989270 0.052091 -0.013893
1.919496 0.041884 0.013404
1.889136 0.041221 0.039581
1.899294 0.033152 -0.039791
1.949656 0.034031 -0.013613
1.929788 0.025262 0.013474
1.929411 0.025257 0.040419
1.859521 0.016228 -0.038953
1.989876 0.017365 -0.013893
1.919935 0.008377 0.013404
1.889567 0.008245 0.039581
1.899583 0.000000 -0.039791
1.949952 0.000000 -0.013613
1.939934 -0.008465 0.013544
1.929558 -0.008419 0.040419
1.899511 -0.016577 -0.039791
1.989876 -0.017365 -0.013893
1.959784 -0.025655 0.013683
1.929411 -0.025257 0.040419
1.799331 -0.031407 -0.037696
1.919661 -0.033508 -0.013404
1.939491 -0.042320 0.013544
1.929118 -0.042093 0.040419
1.818977 -0.047632 -0.038115
1.959281 -0.051306 -0.013683
1.879077 -0.057411 0.013125
1.888704 -0.057705 0.039581
1.838476 -0.064201 -0.038534
1.948765 -0.068052 -0.013613
1.928465 -0.075770 0.013474
1.938079 -0.076147 0.040628
1.897775 -0.082859 -0.039791
1.988057 -0.086800 -0.013893
1.877789 -0.090197 0.013125
1.887409 -0.090659 0.039581
1.896980 -0.099417 -0.039791
1.947280 -0.102053 -0.013613
1.976767 -0.112249 0.013823
1.966400 -0.111660 0.041257
1.896040 -0.115967 -0.039791
1.996221 -0.122094 -0.013963
1.955756 -0.128187 0.013683
1.925445 -0.126200 0.040419
1.894956 -0.132508 -0.039791
1.945202 -0.136022 -0.013613
1.974507 -0.146731 0.013823
1.964152 -0.145962 0.041257
1.813992 -0.142764 -0.038115
1.943941 -0.152992 -0.013613
1.963186 -0.163128 0.013753
1.883096 -0.156473 0.039581
1.812677 -0.158589 -0.038115
1.862839 -0.162977 -0.013055
1.931814 -0.177509 0.013544
1.961305 -0.180219 0.041257
1.890838 -0.182067 -0.039791
1.990744 -0.191687 -0.013963
1.950091 -0.196364 0.013683
1.959658 -0.197327 0.041257
1.889177 -0.198561 -0.039791
1.939270 -0.203826 -0.013613
1.918482 -0.210108 0.013474
1.957862 -0.214421 0.041257
1.887372 -0.215039 -0.039791
1.977160 -0.225269 -0.013893
1.906645 -0.225666 0.013404
1.916202 -0.226797 0.040419
1.885424 -0.231501 -0.039791
1.945343 -0.238858 -0.013683
1.964122 -0.249868 0.013823
1.953821 -0.248557 0.041257
1.883332 -0.247945 -0.039791
1.982841 -0.261046 -0.013963
1.902416 -0.258907 0.013404
1.911952 -0.260205 0.040419
1.881097 -0.264371 -0.039791
1.930976 -0.271381 -0.013613
1.959462 -0.284108 0.013823
1.909608 -0.276880 0.040419
1.898494 -0.283732 -0.040209
2.007653 -0.300046 -0.014172
1.937141 -0.298155 0.013683
1.946645 -0.299617 0.041257
1.836697 -0.290904 -0.038953
1.925945 -0.305040 -0.013613
1.954205 -0.318263 0.013823
1.953824 -0.318200 0.041466
1.893253 -0.316822 -0.040209
1.972523 -0.330087 -0.013963
1.931643 -0.331917 0.013683
1.941120 -0.333545 0.041257
1.870724 -0.329859 -0.039791
1.959720 -0.345551 -0.013893
1.948353 -0.352320 0.013823
1.898782 -0.343356 0.040419
1.857944 -0.344350 -0.039581
1.995959 -0.369929 -0.014172
1.964853 -0.373039 0.013963
1.974292 -0.374831 0.042094
1.835240 -0.356735 -0.039162
1.923942 -0.373977 -0.013683
1.941908 -0.386269 0.013823
1.931723 -0.384244 0.041257
1.861449 -0.378716 -0.039791
1.989199 -0.404707 -0.014172
1.918882 -0.399128 0.013683
1.928297 -0.401086 0.041257
1.828735 -0.388710 -0.039162
1.907341 -0.405418 -0.013613
1.934870 -0.420102 0.013823
1.924723 -0.417898 0.041257
1.893599 -0.419801 -0.040628
1.981833 -0.439362 -0.014172
1.911624 -0.432556 0.013683
1.921003 -0.434679 0.041257
1.899605 -0.438558 -0.040838
1.987666 -0.458889 -0.014242
1.927244 -0.453806 0.013823
1.946332 -0.458300 0.041885
1.885984 -0.452785 -0.040628
2.012757 -0.483220 -0.014451
1.991203 -0.487244 0.014312
1.951969 -0.477644 0.042094
1.901363 -0.474063 -0.041047
1.940544 -0.483832 -0.013963
1.948107 -0.494756 0.014032
1.938037 -0.492199 0.041885
1.897153 -0.490637 -0.041047
1.965292 -0.508259 -0.014172
1.943715 -0.511737 0.014032
1.904663 -0.501456 0.041257
1.873485 -0.501999 -0.040628
1.922146 -0.515037 -0.013893
1.939175 -0.528680 0.014032
1.967734 -0.536466 0.042723
1.888301 -0.523672 -0.041047
1.994666 -0.553170 -0.014451
1.972985 -0.556439 0.014312
1.943733 -0.548189 0.042304
1.835607 -0.526352 -0.040000
1.922477 -0.551261 -0.013963
1.929653 -0.562443 0.014032
1.919679 -0.559535 0.041885
1.917219 -0.567906 -0.041885
1.984708 -0.587897 -0.014451
1.915096 -0.576378 0.013963
1.924296 -0.579147 0.042094
1.807020 -0.552461 -0.039581
1.950814 -0.596424 -0.014242
1.919543 -0.596034 0.014032
1.966910 -0.610742 0.043141
1.849805 -0.583241 -0.040628
1.974146 -0.622446 -0.014451
1.904745 -0.609714 0.013963
1.913896 -0.612643 0.042094
1.863662 -0.605540 -0.041047
1.968639 -0.639650 -0.014451
1.908849 -0.629444 0.014032
1.955951 -0.644976 0.043141
1.915194 -0.640815 -0.042304
1.972465 -0.659978 -0.014521
1.941159 -0.658935 0.014312
1.940781 -0.658806 0.042932
1.881169 -0.647739 -0.041675
1.966631 -0.677165 -0.014521
1.897573 -0.662662 0.014032
1.982152 -0.692199 0.043979
1.903718 -0.674142 -0.042304
1.951220 -0.690963 -0.014451
1.919952 -0.689333 0.014242
1.928988 -0.692577 0.042932
1.860183 -0.677051 -0.041466
1.916926 -0.697704 -0.014242
1.923245 -0.709523 0.014312
1.932250 -0.712845 0.043141
1.910392 -0.714266 -0.042723
1.976330 -0.738920 -0.014730
1.945034 -0.736907 0.014521
1.991401 -0.754474 0.044607
1.960089 -0.752408 -0.043979
1.969807 -0.756138 -0.014730
1.957169 -0.761101 0.014661
1.984741 -0.771824 0.044607
1.879031 -0.740170 -0.042304
1.972437 -0.776964 -0.014800
1.931877 -0.770741 0.014521
1.940786 -0.774295 0.043770
1.918850 -0.775266 -0.043351
1.891409 -0.764179 -0.014242
1.934332 -0.791356 0.014591
1.980222 -0.810130 0.044817
1.847354 -0.765199 -0.041885
1.958577 -0.811269 -0.014800
1.881244 -0.788871 0.014242
1.926977 -0.808049 0.043770
1.914230 -0.812542 -0.043560
1.914603 -0.812701 -0.014521
1.920227 -0.824995 0.014591
1.965782 -0.844567 0.044817
1.852055 -0.805296 -0.042304
1.934950 -0.841340 -0.014730
1.903801 -0.837693 0.014521
1.912581 -0.841556 0.043770
1.918025 -0.853960 -0.043979
1.936669 -0.862261 -0.014800
1.978475 -0.891238 0.015149
1.978090 -0.891064 0.045445
1.910500 -0.870665 -0.043979
1.992767 -0.908156 -0.015289
1.888892 -0.870791 0.014521
1.943000 -0.895735 0.044817
1.812218 -0.845051 -0.041885
1.912263 -0.891703 -0.014730
1.926443 -0.908569 0.014870
1.935109 -0.912657 0.044817
1.895013 -0.903875 -0.043979
2.012716 -0.960016 -0.015568
1.873407 -0.903624 0.014521
1.918067 -0.925165 0.044607
1.896039 -0.924760 -0.044189
1.941348 -0.946859 -0.015080
1.946166 -0.959743 0.015149
1.918887 -0.946290 0.044817
1.896845 -0.945732 -0.044398
1.995655 -0.994997 -0.015568
1.893069 -0.954185 0.014800
1.937339 -0.976499 0.045445
1.879611 -0.957710 -0.044189
1.960167 -0.998755 -0.015359
1.938010 -0.998141 0.015219
1.928744 -0.993369 0.045445
1.844578 -0.960226 -0.043560
1.915897 -0.997353 -0.015080
1.946925 -1.024327 0.015359
1.928850 -1.014817 0.045654
1.933231 -1.027917 -0.045864
1.977754 -1.051591 -0.015638
1.981956 -1.064943 0.015708
1.937535 -1.041075 0.046073
1.871470 -1.016125 -0.044607
1.933351 -1.049724 -0.015359
1.928752 -1.058149 0.015359
1.937141 -1.062752 0.046283
1.906253 -1.056653 -0.045654
1.889132 -1.047163 -0.015080
1.928169 -1.079827 0.015429
1.962685 -1.099157 0.047120
1.853451 -1.048632 -0.044607
1.940846 -1.098078 -0.015568
1.944718 -1.111498 0.015638
1.987739 -1.136087 0.047958
1.930813 -1.114756 -0.046702
1.939850 -1.119973 -0.015638
1.917668 -1.118351 0.015498
1.943204 -1.133243 0.047120
1.912397 -1.126488 -0.046492
1.955850 -1.152084 -0.015847
1.959399 -1.165720 0.015917
2.010570 -1.196163 0.049005
1.902494 -1.143134 -0.046492
1.920008 -1.153657 -0.015638
1.957700 -1.187962 0.015987
1.957319 -1.187730 0.047958
1.909495 -1.170140 -0.046911
1.969551 -1.206942 -0.016127
1.947259 -1.205001 0.015987
1.946880 -1.204766 0.047958
1.950083 -1.218547 -0.048168
1.933503 -1.208187 -0.015917
1.936669 -1.221947 0.015987
1.953203 -1.232379 0.048377
1.905647 -1.214031 -0.047330
1.948187 -1.241132 -0.016127
1.951163 -1.255030 0.016197
1.959191 -1.260194 0.048796
1.903365 -1.236059 -0.047539
1.878576 -1.219962 -0.015638
1.948499 -1.277492 0.016266
1.956480 -1.282725 0.049005
1.900843 -1.258140 -0.047749
1.934568 -1.280463 -0.016197
1.962220 -1.311114 0.016476
1.936899 -1.294195 0.048796
1.906368 -1.285862 -0.048168
1.923320 -1.297296 -0.016197
1.967236 -1.339443 0.016615
1.966852 -1.339182 0.049843
1.895074 -1.302449 -0.048168
1.977855 -1.359342 -0.016755
1.980121 -1.373659 0.016825
1.946876 -1.350596 0.049634
1.924585 -1.347609 -0.049215
1.900386 -1.330665 -0.016197
1.935393 -1.367801 0.016546
1.943181 -1.373304 0.049843
1.896473 -1.352741 -0.048796
1.961971 -1.399460 -0.016825
1.980192 -1.425534 0.017034
1.987920 -1.431098 0.051309
1.925038 -1.398622 -0.049843
1.941594 -1.410650 -0.016755
1.943484 -1.425022 0.016825
1.951168 -1.430655 0.050681
1.864539 -1.379686 -0.048586
1.905094 -1.409696 -0.016546
1.963024 -1.465860 0.017104
1.962641 -1.465574 0.051309
1.900336 -1.432006 -0.049843
1.980568 -1.492465 -0.017314
1.958117 -1.488987 0.017174
1.981610 -1.506851 0.052147
1.903630 -1.460707 -0.050262
1.927802 -1.479254 -0.016964
1.960862 -1.518262 0.017314
1.968385 -1.524087 0.052147
1.890811 -1.477263 -0.050262
1.985739 -1.551429 -0.017593
1.955392 -1.541506 0.017383
1.939307 -1.528827 0.051728
1.940443 -1.543498 -0.051937
1.964299 -1.562474 -0.017523
1.934066 -1.552252 0.017314
1.933689 -1.551950 0.051937
1.950209 -1.579248 -0.052565
1.958360 -1.585849 -0.017593
1.959166 -1.600706 0.017663
1.974268 -1.613045 0.053403
1.928638 -1.589847 -0.052356
1.967595 -1.621960 -0.017802
1.968187 -1.636924 0.017872
1.944743 -1.617426 0.052984
1.922350 -1.613043 -0.052565
1.991667 -1.671207 -0.018151
1.991988 -1.686342 0.018221
1.991600 -1.686014 0.054660
1.900598 -1.623264 -0.052356
1.977007 -1.688524 -0.018151
1.977196 -1.703661 0.018221
1.976811 -1.703329 0.054660
1.954269 -1.698820 -0.054241
1.962197 -1.705712 -0.018151
1.992327 -1.747224 0.018500
1.969388 -1.727107 0.054869
1.954346 -1.729059 -0.054660
1.947237 -1.722770 -0.018151
1.977004 -1.764543 0.018500
1.946783 -1.737570 0.054660
1.872314 -1.685839 -0.052775
1.932130 -1.739697 -0.018151
1.991138 -1.808623 0.018780
1.983350 -1.801548 0.056126
1.916501 -1.756149 -0.054450
1.975855 -1.810538 -0.018710
1.938564 -1.791990 0.018431
1.974894 -1.825574 0.056335
1.959598 -1.827355 -0.056126
2.018487 -1.882270 -0.019268
1.930136 -1.815691 0.018500
1.966170 -1.849588 0.056545
1.972586 -1.871914 -0.056963
1.965717 -1.865395 -0.018919
1.935888 -1.853210 0.018710
1.971621 -1.887417 0.057173
1.927408 -1.861276 -0.056126
1.956557 -1.889425 -0.018989
1.955457 -1.904922 0.019059
1.955075 -1.904550 0.057173
1.939616 -1.906055 -0.056963
1.989920 -1.955489 -0.019478
1.995572 -1.978233 0.019617
2.002284 -1.984886 0.059058
1.944117 -1.944117 -0.057592
1.951567 -1.951567 -0.019268
1.978233 -1.995572 0.019617
1.984886 -2.002284 0.059058
1.934085 -1.968140 -0.057801
1.983525 -2.018450 -0.019757
1.981677 -2.034248 0.019827
1.988267 -2.041013 0.059686
1.986287 -2.056861 -0.059895
1.972782 -2.042875 -0.019827
1.977679 -2.065911 0.019966
1.956553 -2.043842 0.059267
1.933852 -2.037855 -0.058848
2.009946 -2.118042 -0.020385
2.007537 -2.134075 0.020455
1.979745 -2.104530 0.060524
1.950088 -2.091213 -0.059895
1.964107 -2.106247 -0.020106
1.995626 -2.158856 0.020525
1.995237 -2.158435 0.061571
1.945273 -2.122893 -0.060314
1.992943 -2.174915 -0.020595
1.969987 -2.168786 0.020455
1.962880 -2.160963 0.061152
1.973502 -2.191797 -0.061780
1.960505 -2.177361 -0.020455
1.977620 -2.215736 0.020734
2.017179 -2.260058 0.063456
1.960925 -2.216423 -0.061990
2.020942 -2.284259 -0.021293
1.984583 -2.262983 0.021014
1.984196 -2.262542 0.063037
1.987423 -2.286268 -0.063456
1.994371 -2.294261 -0.021223
1.964759 -2.280215 0.021014
2.003533 -2.325214 0.064293
1.980382 -2.318730 -0.063874
2.019734 -2.364805 -0.021712
1.990013 -2.350699 0.021502
1.996085 -2.357871 0.064712
2.005058 -2.389534 -0.065340
2.011876 -2.397661 -0.021851
1.950241 -2.344910 0.021293
1.981826 -2.382887 0.064921
1.955012 -2.392815 0.021572
1.954631 -2.392349 0.064712
1.990388 -2.479972 0.022200
1.983742 -2.471692 0.066387
1.981052 -2.512953 0.022340
2.011614 -2.551720 0.068063
1.965170 -2.538052 0.022410
1.970907 -2.545462 0.067435
1.961105 -2.578984 0.022619
1.997032 -2.626230 0.069110
1.980406 -2.652086 0.023108
1.986002 -2.659579 0.069529
1.963100 -2.677331 0.023178
1.956806 -2.668746 0.069319
1.986400 -2.759284 0.023736
0.128507 -0.178507 0.004607
1.968490 -2.734405 0.070576
0.188094 -0.271137 0.002304
0.153865 -0.221796 0.005654
0.129417 -0.190074 0.004817
0.155556 -0.232806 0.001955
0.166635 -0.249386 0.006283
0.126080 -0.192304 0.004817
0.129831 -0.201844 0.001676
0.118988 -0.184988 0.004607
0.128064 -0.202970 0.001676
0.117369 -0.186019 0.004607
0.147336 -0.238093 0.001955
0.136786 -0.221043 0.005445
0.114127 -0.188076 0.001536
0.119292 -0.196587 0.004817
0.117595 -0.197659 0.001606
0.127795 -0.214804 0.005236
0.130953 -0.224548 0.005445