# This PCD file was generated using the MATLAB® pcwrite function
# from Computer Vision System Toolbox®.
# .PCD v.7 - Point Cloud Data file format
VERSION .7
FIELDS x y z
SIZE 4 4 4
TYPE F F F
COUNT 1 1 1
WIDTH 1114
HEIGHT 1
VIEWPOINT 0 0 0 1 0 0 0
POINTS 1114
DATA ascii
30.042765 32.785923 -0.310457
30.314997 32.508854 -0.931100
30.034475 32.208031 -0.307455
30.102026 31.720917 -0.916021
29.935810 31.545763 -0.303615
30.245737 31.320377 -0.912042
30.015457 31.081915 -0.301660
30.349722 30.884102 -0.907016
30.173409 30.704683 -0.300543
30.420132 30.420132 -0.901152
30.362425 30.362425 -0.299775
30.456245 29.929270 -0.894451
30.369465 29.843988 -0.297262
30.543661 29.495670 -0.889425
30.427332 29.383333 -0.295307
30.451790 28.897669 -0.879372
30.472235 28.917070 -0.293283
30.476137 28.419456 -0.872880
30.467453 28.411360 -0.290839
30.487103 27.936283 -0.866179
30.419321 27.874172 -0.288047
30.477116 27.441717 -0.859058
30.393883 27.366776 -0.285534
30.550692 27.028969 -0.854451
30.302010 26.808954 -0.282462
30.634489 26.630156 -0.850262
30.504618 26.517260 -0.282183
30.683254 26.205975 -0.845236
30.552366 26.094187 -0.280507
30.573788 25.654453 -0.836021
30.533787 25.620890 -0.278273
30.557346 25.189533 -0.829529
30.547873 25.181723 -0.276388
30.612835 24.789785 -0.825131
30.548862 24.737982 -0.274433
30.616741 24.353655 -0.819477
30.544453 24.296154 -0.272479
30.639017 23.937824 -0.814451
30.597712 23.905552 -0.271082
30.711905 23.566072 -0.810890
30.646492 23.515881 -0.269686
30.692816 23.128696 -0.805027
30.714773 23.145243 -0.268499
30.572008 22.622097 -0.796650
30.722660 22.733572 -0.266824
30.679285 22.289804 -0.794346
30.725718 22.323540 -0.265148
30.701702 21.899311 -0.789948
30.699549 21.897776 -0.263263
30.801552 21.567478 -0.787644
30.791176 21.560213 -0.262426
30.782602 21.156296 -0.782409
30.681471 21.086790 -0.259912
30.731857 20.924578 0.259563
30.668018 20.881111 0.777173
30.775414 20.758280 -0.777592
30.731674 20.728775 -0.258795
30.688795 20.505598 0.257678
30.691126 20.507154 0.773194
30.821997 20.400635 -0.774241
30.786314 20.377016 -0.257748
30.732767 20.149284 0.256561
30.634804 20.085058 0.767330
30.730536 19.956642 -0.767540
30.652662 19.906071 -0.255165
30.747637 19.777544 0.255235
30.548246 19.649292 0.760838
30.793901 19.617878 -0.764817
30.757736 19.594839 -0.254607
30.749914 19.401751 0.253839
30.650909 19.339283 0.759163
30.870659 19.290129 -0.762514
30.791876 19.240900 -0.253490
30.747988 19.027431 0.252442
30.648474 18.965851 0.754974
30.901428 18.936419 -0.759163
30.822191 18.887863 -0.252373
29.716013 18.032120 0.242669
30.801723 18.690945 0.251535
30.812813 18.697674 0.754974
30.996943 18.624842 -0.757487
30.908699 18.571821 -0.251744
30.774593 18.308960 0.249999
30.768595 18.305389 0.749948
30.986004 18.252151 -0.753299
30.940350 18.225258 -0.250697
30.794985 17.959105 0.248882
30.788982 17.955603 0.746597
30.970934 17.881077 -0.749110
30.933674 17.859564 -0.249371
30.872398 17.645029 0.248254
30.840338 17.626705 0.744084
31.021376 17.551050 -0.746597
30.975204 17.524927 -0.248463
30.894331 17.301657 0.247206
30.513216 17.088223 0.732566
30.998468 17.182732 -0.742409
30.917053 17.137602 -0.246788
30.658388 16.819767 0.244135
30.485868 16.725121 0.728377
31.006655 16.835239 -0.739058
30.784214 16.714464 -0.244554
30.557356 16.419060 0.242180
30.560205 16.420589 0.726702
30.605080 16.273010 -0.726074
30.690510 16.318434 -0.242669
30.593277 16.095901 0.241342
30.489986 16.041557 0.721676
30.577425 15.917601 -0.722095
30.716436 15.989964 -0.241761
30.483654 15.700114 0.239387
30.593260 15.756564 0.720838
30.768616 15.677393 -0.723351
30.756796 15.671371 -0.240993
30.655220 15.451503 0.239667
30.693882 15.470990 0.720000
30.787937 15.350300 -0.720629
30.713398 15.313136 -0.239597
30.717142 15.148019 0.239108
30.684254 15.131800 0.716650
30.821875 15.032833 -0.718325
30.702057 14.974394 -0.238480
30.668028 14.792500 0.237712
30.671055 14.793961 0.713299
22.866495 10.906758 -0.530681
30.834576 14.707338 -0.715603
30.858639 14.718816 -0.238689
30.795948 14.524312 0.237712
30.726646 14.491627 0.711623
30.825829 14.374320 -0.712461
30.886217 14.402479 -0.237921
30.785303 14.192219 0.236665
30.706667 14.155967 0.708273
30.950092 14.104770 -0.712461
30.937929 14.099227 -0.237363
30.789454 13.869637 0.235757
30.683180 13.821765 0.704922
30.889332 13.752816 -0.708273
30.904490 13.759565 -0.236176
30.836092 13.568205 0.235199
30.729418 13.521268 0.703246
30.888977 13.430910 -0.705550
30.959194 13.461440 -0.235687
30.843069 13.251228 0.234361
30.846243 13.252591 0.703246
30.535652 12.961616 -0.694870
30.118185 12.784411 -0.228427
30.007689 12.583268 0.227170
30.739437 12.890116 0.698220
29.899422 12.384746 -0.677906
29.729719 12.314453 -0.224657
30.107100 12.317140 0.227100
30.776726 12.591091 0.696545
30.302992 12.243204 -0.684608
29.715519 12.005849 -0.223749
30.139135 12.024296 0.226542
30.773998 12.277580 0.694032
30.678442 12.084559 -0.690681
29.884283 11.771732 -0.224238
30.876669 12.007279 0.231289
30.842695 11.994068 0.693194
30.894735 11.859378 -0.693194
26.475697 10.163068 -0.197989
30.686041 11.779267 -0.229474
30.877413 11.698405 0.230521
30.908791 11.710293 0.692356
30.959591 11.575316 -0.692356
30.815763 11.521542 -0.229683
30.706255 11.328135 0.228497
30.831585 11.374372 0.688377
23.139553 8.422109 -0.515812
31.012451 11.287609 -0.691309
30.858753 11.231668 -0.229265
30.803940 11.059745 0.228497
30.807344 11.060966 0.685655
24.484455 8.670401 -0.544084
30.968407 10.966488 -0.688168
22.933908 8.121323 -0.169854
25.752338 9.119381 -0.190728
30.917887 10.948598 -0.228985
26.188391 9.145395 0.193660
30.823755 10.764137 0.227938
30.827185 10.765335 0.683979
30.949490 10.656764 -0.685655
30.898794 10.639308 -0.228148
26.342955 8.942228 0.194219
30.840763 10.469028 0.227380
30.844217 10.470201 0.682304
22.508266 7.531160 -0.497173
25.257801 8.451142 -0.557906
30.842203 10.319656 -0.681257
23.157499 7.748391 -0.170482
30.876665 10.331188 -0.227310
30.826483 10.165050 0.226612
22.388994 7.382783 0.493822
30.706533 10.125496 0.677278
22.696741 7.374618 -0.499896
31.007151 10.074834 -0.682932
22.691656 7.372966 -0.166573
30.956135 10.058258 -0.227240
22.495041 7.200719 0.164897
30.790205 9.856023 0.225704
22.395437 7.168836 0.492566
30.631853 9.805333 0.673718
21.043917 6.635121 -0.462199
30.903187 9.743737 -0.678744
30.928288 9.751652 -0.226402
30.454844 9.456480 0.222632
22.648106 7.032423 0.496754
29.312681 9.101830 0.642932
20.948042 6.404459 -0.458848
30.958357 9.464919 -0.678116
21.583273 6.598669 -0.157567
30.820951 9.422911 -0.225006
22.789642 6.858904 0.166154
29.990404 9.026087 0.218653
22.612875 6.805703 0.494660
29.113359 8.762126 0.636859
21.175682 6.272523 -0.462618
24.818399 7.351544 -0.542199
30.924742 9.160326 -0.675602
21.822205 6.464032 -0.158893
30.317141 8.980347 -0.220747
21.975006 6.405130 0.159801
24.634279 7.180237 0.179139
29.108002 8.484209 0.211672
22.402649 6.529777 0.488796
24.706264 7.201219 0.539058
29.371082 8.560890 0.640838
21.479486 6.159144 -0.468063
23.305483 6.682740 -0.507854
30.330765 8.697207 -0.660943
21.608637 6.196177 -0.156939
29.538853 8.470130 -0.214534
22.280296 6.283693 0.161616
29.229053 8.243445 0.212021
29.656364 8.363960 0.645445
22.149006 6.142463 -0.481466
24.827311 6.885222 -0.539686
29.711845 8.239824 -0.645864
21.035540 5.833672 -0.152401
29.139475 8.081092 -0.211113
21.186213 5.776025 0.153308
29.473534 8.035408 0.213278
24.374828 6.645341 0.529215
29.757162 8.112733 0.646074
21.709249 5.816976 -0.470786
29.241819 7.835322 -0.634136
21.269169 5.699057 -0.153727
24.176535 6.478083 -0.174741
29.228203 7.831674 -0.211253
24.552698 6.464186 0.177254
29.175064 7.681154 0.210625
22.034143 5.801106 0.477278
29.295065 7.712747 0.634555
21.643034 5.597269 -0.468273
29.212288 7.554811 -0.632042
21.376179 5.528256 -0.154146
23.118803 5.978929 -0.166712
30.166746 7.801651 -0.217536
29.473593 7.485339 0.212300
21.967646 5.579072 0.474765
24.458023 6.211546 0.528587
29.632582 7.525717 0.640419
21.574644 5.379163 -0.465759
29.636034 7.389093 -0.639791
21.248959 5.297960 -0.152890
29.709732 7.407468 -0.213766
22.126633 5.414353 0.159033
29.780622 7.287272 0.214045
22.005783 5.384781 0.474555
24.346205 5.957479 0.525026
29.813662 7.295357 0.642932
22.612364 5.428748 -0.487121
30.029919 7.209546 -0.646911
22.529263 5.408797 -0.161756
24.123909 5.791638 -0.173205
29.860752 7.168932 -0.214395
29.911215 7.043156 0.214534
21.925425 5.162752 0.471833
29.905384 7.041783 0.643561
21.265833 4.909605 -0.457173
24.353909 5.622543 -0.523561
30.120914 6.953961 -0.647540
21.591515 4.984794 -0.154705
24.475580 5.650633 -0.175369
30.029354 6.932823 -0.215162
21.886148 4.952330 0.156659
30.078825 6.806143 0.215302
24.485474 5.540497 0.525864
30.092463 6.809229 0.646283
21.717821 4.814725 -0.465969
24.128744 5.349214 -0.517697
30.268299 6.710320 -0.649424
21.780634 4.828650 -0.155752
24.250603 5.376229 -0.173414
30.137524 6.681328 -0.215512
24.185881 5.251269 0.172786
30.225021 6.562496 0.215930
22.334604 4.849318 0.478744
24.601282 5.341462 0.527330
30.228899 6.563337 0.647958
22.218639 4.722718 -0.475812
30.179014 6.414748 -0.646283
21.596973 4.590578 -0.154146
30.165337 6.411840 -0.215302
30.320299 6.306632 0.216210
22.395647 4.658301 0.479163
30.118622 6.264682 0.644398
22.288397 4.534626 -0.476440
30.312222 6.167091 -0.647958
21.646009 4.403930 -0.154216
24.438726 4.972115 -0.174113
30.288734 6.162313 -0.215791
23.606926 4.695710 0.168039
30.168221 6.000832 0.214744
22.229527 4.421728 0.474765
30.172144 6.001613 0.644398
22.121025 4.299891 -0.472042
24.240873 4.711948 -0.517278
30.345255 5.898520 -0.647540
23.646822 4.596477 -0.168179
30.351173 5.899671 -0.215861
21.770571 4.133272 0.154705
30.219439 5.737339 0.214744
24.398716 4.632241 0.520210
30.223370 5.738086 0.644398
21.695677 4.021056 -0.462199
24.182766 4.482011 -0.515184
30.405405 5.635309 -0.647749
22.004709 4.078331 -0.156241
30.234352 5.603606 -0.214674
21.835331 3.948471 0.154914
30.307714 5.480528 0.215023
21.506413 3.888993 0.457801
23.916782 4.324859 0.509110
30.272291 5.474122 0.644398
21.926859 3.866297 -0.466388
30.335272 5.348927 -0.645236
22.078852 3.893097 -0.156520
30.331339 5.348234 -0.215023
22.204037 3.815351 0.157288
24.648157 4.235328 0.174601
30.255835 5.198903 0.214325
24.239363 4.165084 0.515184
30.240082 5.196197 0.642723
21.762548 3.641802 -0.462199
23.912180 4.001527 -0.507854
30.361074 5.080701 -0.644817
22.062672 3.692025 -0.156171
23.877392 3.995705 -0.169016
30.396582 5.086643 -0.215162
22.009483 3.584472 0.155682
24.476913 3.986319 0.173135
30.309919 4.936284 0.214395
21.847307 3.558060 0.463665
24.491877 3.988755 0.519791
30.244804 4.925679 0.641885
21.813250 3.454880 -0.462618
24.390553 3.863084 -0.517278
30.424004 4.818689 -0.645236
22.360720 3.541590 -0.158056
30.360800 4.808678 -0.214604
22.929428 3.529176 0.161965
30.262892 4.657905 0.213766
23.004009 3.540656 0.487540
30.207584 4.649392 0.640210
23.048904 3.444682 -0.488168
24.275015 3.627925 -0.514136
30.435232 4.548576 -0.644608
21.906168 3.273899 -0.154635
23.913820 3.573945 -0.168807
30.371937 4.539116 -0.214395
23.483854 3.404997 0.165665
30.282595 4.390767 0.213627
22.974665 3.331168 0.486283
25.458145 3.691255 0.538848
30.247007 4.385607 0.640210
23.028584 3.236456 -0.487121
30.424263 4.275851 -0.643561
23.993610 3.372082 -0.169156
30.321270 4.261376 -0.213766
23.215422 3.159480 0.163571
30.319757 4.126338 0.213627
22.963234 3.125159 0.485445
25.429949 3.460864 0.537592
30.234594 4.114748 0.639163
21.916039 2.885301 -0.463037
30.430681 4.006275 -0.642932
23.447100 3.086869 -0.165107
30.327559 3.992699 -0.213557
23.936497 3.045107 0.168458
25.533585 3.248282 0.179698
30.275253 3.851499 0.213068
23.763226 3.023064 0.501780
30.190008 3.840654 0.637487
23.974655 2.943717 -0.505969
30.424791 3.735695 -0.642095
23.860228 2.929668 -0.167829
30.311621 3.721799 -0.213208
24.140905 2.857265 0.169714
30.267988 3.582453 0.212789
22.924921 2.713343 0.483560
25.476547 3.015348 0.537382
30.192589 3.573528 0.636859
24.188169 2.755894 -0.509948
30.366831 3.459863 -0.640210
24.431337 2.783599 -0.171669
30.313139 3.453746 -0.212998
24.483011 2.681326 0.171948
30.268278 3.314916 0.212579
30.222624 3.309916 0.636859
24.370386 2.561431 -0.513299
30.405809 3.195779 -0.640419
24.375137 2.561930 -0.171111
30.371958 3.192221 -0.213208
24.465679 2.463564 0.171669
30.246305 3.045643 0.212230
30.220514 3.043046 0.636231
30.422588 2.929362 -0.640210
24.466242 2.355831 -0.171599
30.338936 2.921307 -0.212789
24.765064 2.275590 0.173624
30.271732 2.781581 0.212230
30.245918 2.779210 0.636231
30.417114 2.661153 -0.639582
30.363274 2.656442 -0.212789
30.294853 2.517308 0.212230
30.229166 2.511850 0.635393
30.399311 2.392478 -0.638744
30.345425 2.388237 -0.212510
30.275778 2.249879 0.211951
30.249935 2.247958 0.635393
30.379137 2.124316 -0.637906
30.365110 2.123335 -0.212510
30.304237 1.986245 0.212021
30.268400 1.983896 0.635393
30.396519 1.859131 -0.637906
30.382483 1.858272 -0.212510
30.270498 1.718883 0.211672
30.234652 1.716848 0.634346
30.411585 1.593804 -0.637906
30.397543 1.593068 -0.212510
30.244392 1.452742 0.211393
30.248482 1.452939 0.634346
30.424335 1.328355 -0.637906
30.360336 1.325561 -0.212160
30.345846 1.192291 0.212021
30.260010 1.188919 0.634346
30.434769 1.062806 -0.637906
30.370747 1.060570 -0.212160
30.305120 0.925905 0.211672
30.269232 0.924809 0.634346
30.442884 0.797175 -0.637906
30.378845 0.795498 -0.212160
30.362032 0.662502 0.212021
30.326128 0.661718 0.635393
30.448681 0.531484 -0.637906
30.384630 0.530366 -0.212160
30.366657 0.397521 0.212021
30.330748 0.397051 0.635393
30.452160 0.265752 -0.637906
30.438099 0.265629 -0.212510
30.368971 0.132510 0.212021
30.333057 0.132354 0.635393
30.373337 0.000000 -0.636231
30.309261 0.000000 -0.211602
30.368971 -0.132510 0.212021
30.333057 -0.132354 0.635393
30.442163 -0.265665 -0.637697
30.438099 -0.265629 -0.212510
30.366657 -0.397521 0.212021
30.330748 -0.397051 0.635393
30.358715 -0.529913 -0.636021
30.354637 -0.529842 -0.211951
30.392025 -0.663156 0.212230
30.366110 -0.662591 0.636231
30.472868 -0.797960 -0.638534
30.428827 -0.796807 -0.212510
30.345100 -0.927127 0.211951
30.359171 -0.927557 0.636231
30.464743 -1.063852 -0.638534
30.410721 -1.061966 -0.212440
30.375822 -1.193469 0.212230
30.349920 -1.192452 0.636231
30.504242 -1.331844 -0.639582
30.450247 -1.329486 -0.212789
30.414192 -1.460898 0.212579
30.378304 -1.459175 0.637068
30.441536 -1.595373 -0.638534
30.437487 -1.595161 -0.212789
30.400286 -1.726253 0.212579
30.364414 -1.724216 0.637068
30.546206 -1.868286 -0.641047
30.462332 -1.863156 -0.213068
30.423977 -1.994093 0.212859
30.388117 -1.991742 0.637906
30.528738 -2.134777 -0.641047
30.484814 -2.131706 -0.213347
30.445307 -2.262477 0.213138
30.409460 -2.259813 0.638744
30.508947 -2.401106 -0.641047
30.455082 -2.396867 -0.213278
30.464266 -2.531385 0.213417
30.468290 -2.531720 0.640419
30.526670 -2.670738 -0.641885
30.482815 -2.666901 -0.213627
30.470888 -2.799881 0.213627
30.484859 -2.801165 0.641257
30.581816 -2.944694 -0.643561
30.577826 -2.944310 -0.214464
30.495043 -3.070689 0.213976
30.459255 -3.067086 0.641257
30.604670 -3.216681 -0.644608
30.550968 -3.211036 -0.214464
30.546606 -3.345397 0.214534
30.510836 -3.341480 0.642932
30.605236 -3.487026 -0.645236
30.561525 -3.482046 -0.214744
30.546041 -3.615362 0.214744
30.510302 -3.611132 0.643561
30.613333 -3.758845 -0.646074
30.609377 -3.758359 -0.215302
30.513329 -3.881786 0.214744
30.447872 -3.873459 0.642932
30.628927 -4.032375 -0.647121
30.605158 -4.029245 -0.215512
30.567469 -4.160050 0.215372
30.412912 -4.139016 0.642932
30.651976 -4.307854 -0.648377
30.618343 -4.303127 -0.215861
30.450830 -4.415160 0.214813
30.405317 -4.408561 0.643561
30.652767 -4.581087 -0.649215
30.599405 -4.573112 -0.216000
30.490210 -4.692892 0.215372
30.415094 -4.681331 0.644608
30.572124 -4.842149 -0.648377
30.499073 -4.830578 -0.215581
30.448095 -4.958787 0.215372
30.373085 -4.946571 0.644608
30.538567 -5.110404 -0.648587
30.495207 -5.103148 -0.215861
30.393808 -5.222611 0.215302
30.368176 -5.218207 0.645445
30.571575 -5.390594 -0.650262
30.488905 -5.376017 -0.216140
30.435637 -5.503660 0.215930
30.360836 -5.490133 0.646283
30.523369 -5.657172 -0.650262
30.430998 -5.640052 -0.216070
30.474869 -5.785835 0.216559
30.390348 -5.769788 0.647958
30.482653 -5.925228 -0.650472
30.459148 -5.920659 -0.216629
30.452641 -6.057407 0.216768
30.417288 -6.050375 0.649634
30.576742 -6.220909 -0.653613
30.533710 -6.212153 -0.217536
30.437782 -6.331068 0.217047
30.441637 -6.331870 0.651309
30.570189 -6.497894 -0.654660
30.517462 -6.486687 -0.217815
30.459551 -6.613417 0.217606
30.776030 -6.682131 0.659686
30.541603 -6.770910 -0.655288
30.537794 -6.770066 -0.218374
30.790806 -6.967248 0.220398
31.262617 -7.074008 0.671414
30.607992 -7.066412 -0.658011
30.506783 -7.043046 -0.218583
31.273914 -7.364029 0.224308
31.043989 -7.309889 0.668063
30.545162 -7.333245 -0.658011
30.726141 -7.376694 -0.220608
31.179321 -7.629531 0.224098
30.901325 -7.561506 0.666388
30.732227 -7.662405 -0.663456
31.126328 -7.760665 -0.223959
30.995249 -7.871790 0.223261
30.882614 -7.843185 0.667435
31.090082 -8.040442 -0.672671
31.251043 -8.082069 -0.225355
30.925375 -8.141972 0.223261
30.890341 -8.132749 0.669110
31.144276 -8.345083 -0.675393
30.976486 -8.300124 -0.223889
30.959270 -8.440466 0.224029
30.885715 -8.420412 0.670576
31.041365 -8.608532 -0.674765
30.979963 -8.591504 -0.224448
31.009552 -8.745598 0.224936
30.926527 -8.722182 0.673089
31.032333 -8.898378 -0.676231
30.971098 -8.880819 -0.224936
30.999254 -9.035459 0.225425
30.926022 -9.014113 0.674765
31.078119 -9.205758 -0.678953
31.026651 -9.190513 -0.225914
31.110735 -9.363269 0.226821
30.970640 -9.321105 0.677487
30.987040 -9.473689 -0.678744
31.021770 -9.484307 -0.226472
31.151991 -9.672951 0.227729
30.964504 -9.614734 0.679163
31.065283 -9.794847 -0.682304
31.052267 -9.790742 -0.227310
31.142584 -9.968820 0.228287
30.984163 -9.918109 0.681466
31.121252 -10.111908 -0.685445
31.032217 -10.082979 -0.227799
31.168365 -10.277785 0.229125
30.972391 -10.213163 0.683142
31.117157 -10.411654 -0.687330
31.142189 -10.420031 -0.229265
31.143772 -10.571886 0.229614
25.296425 -8.586979 0.559581
30.995693 -10.521620 0.685655
31.129099 -10.718608 -0.689634
31.106804 -10.710931 -0.229683
31.125856 -10.869636 0.230172
31.015961 -10.831259 0.688168
31.109772 -11.016548 -0.691309
31.087559 -11.008682 -0.230242
31.114521 -11.171254 0.230800
24.982742 -8.969721 0.556021
31.033178 -11.142049 0.690681
31.172163 -11.345739 -0.694870
31.112465 -11.324011 -0.231150
31.081522 -11.466578 0.231289
31.047323 -11.453962 0.693194
31.100061 -11.627836 -0.695498
31.087393 -11.623099 -0.231708
31.055084 -11.765718 0.231848
25.374004 -9.613350 0.568377
31.095776 -11.781136 0.696545
31.156080 -11.959699 -0.699058
31.106142 -11.940529 -0.232616
31.100346 -12.094263 0.232965
24.869835 -9.671350 0.558953
31.178144 -12.124517 0.700733
31.078434 -12.242121 -0.699686
31.065886 -12.237178 -0.233104
26.182503 -10.445760 0.196802
31.142225 -12.424488 0.234082
23.763023 -9.480485 0.535917
31.294018 -12.485047 0.705760
31.165085 -12.591512 -0.704084
31.152618 -12.586474 -0.234570
25.942268 -10.613262 0.195685
31.106659 -12.726069 0.234640
23.522079 -9.623137 0.532356
31.387449 -12.840944 0.710367
31.118675 -12.889777 -0.705550
26.089722 -10.806717 -0.197151
31.106266 -12.884637 -0.235059
26.023878 -10.912718 0.197011
31.105082 -13.043443 0.235478
23.630827 -9.909228 0.536754
31.218876 -13.091162 0.709110
31.152256 -13.223348 -0.708901
25.985218 -11.030071 -0.197081
31.139921 -13.218112 -0.236176
25.946032 -11.147295 0.197151
31.127888 -13.373596 0.236525
23.938448 -10.284769 0.545759
31.167749 -13.390721 0.710576
31.182373 -13.558481 -0.712252
25.961338 -11.288311 -0.197639
31.170113 -13.553150 -0.237293
25.692167 -11.304824 0.195964
31.119831 -13.693054 0.237363
31.132067 -13.698438 0.712461
25.555395 -11.377995 -0.585969
26.843212 -11.951368 -0.615498
31.126801 -13.858544 -0.713718
25.743084 -11.461559 -0.196732
31.114599 -13.853112 -0.237782
25.373720 -11.430027 0.194288
31.108562 -14.013386 0.238201
31.047804 -13.986016 0.713299
25.482426 -11.613010 -0.586597
31.186630 -14.212566 -0.717906
25.587488 -11.660890 -0.196313
31.174513 -14.207045 -0.239178
25.391064 -11.705441 0.195196
31.139471 -14.355493 0.239387
31.142479 -14.356879 0.718325
25.516029 -11.898320 -0.589739
31.179211 -14.539105 -0.720629
25.394125 -11.841475 -0.195615
31.194353 -14.546166 -0.240295
31.157721 -14.694935 0.240504
25.536211 -12.043659 0.591414
31.079306 -14.657952 0.719791
23.552309 -11.233875 -0.546597
25.366108 -12.099012 -0.588691
31.213577 -14.888113 -0.724398
25.289824 -12.062627 -0.195615
31.192587 -14.878101 -0.241272
25.363045 -12.233681 0.196592
31.163399 -15.031440 0.241552
25.412130 -12.257357 0.590995
31.166328 -15.032853 0.724817
23.444393 -11.434595 -0.546388
25.511168 -12.442627 -0.594555
31.253201 -15.243205 -0.728377
25.426264 -12.401217 -0.197500
31.196381 -15.215491 -0.242320
24.546808 -12.105146 0.191077
31.156599 -15.364735 0.242529
24.712391 -12.186803 0.577173
31.105692 -15.339630 0.726493
23.683718 -11.808266 -0.554346
25.088455 -12.508643 -0.587225
31.280043 -15.595654 -0.732147
23.115591 -11.525008 -0.180326
25.737684 -12.832336 -0.200781
31.223499 -15.567462 -0.243576
23.413338 -11.801293 0.183049
24.542608 -12.370493 0.575707
31.175985 -15.713990 0.731309
23.214537 -11.828398 -0.545759
25.085241 -12.781569 -0.589739
31.258562 -15.927032 -0.734870
23.112146 -11.776227 -0.181094
31.220108 -15.907439 -0.244623
24.358477 -12.545440 0.191287
31.194851 -16.066404 0.244972
24.478163 -12.607082 0.576754
31.179882 -16.058695 0.734660
23.057224 -12.002831 -0.544503
23.381035 -12.171397 -0.184026
24.026829 -12.641127 0.189541
31.177355 -16.403200 0.245950
23.809793 -12.526938 0.563561
31.188972 -16.409311 0.738220
23.101671 -12.283377 -0.548063
24.646490 -13.104772 -0.584712
31.311283 -16.648504 -0.742828
23.238615 -12.356191 -0.183747
31.229095 -16.604805 -0.246927
23.977262 -12.883448 0.190030
31.218006 -16.774040 0.247416
24.007814 -12.899864 0.570890
31.185499 -16.756573 0.741571
23.388981 -12.699181 -0.557487
24.733276 -13.429073 -0.589529
31.322958 -17.006979 -0.746597
23.674757 -12.854343 -0.188075
31.320278 -17.005524 -0.248812
31.210712 -17.122784 0.248533
23.885565 -13.104070 0.570681
31.213392 -17.124254 0.745760
22.857546 -12.670144 -0.547435
24.545191 -13.605621 -0.587854
31.304518 -17.352379 -0.749739
23.631649 -13.099236 -0.188634
31.266893 -17.331522 -0.249580
31.243320 -17.497101 0.249999
23.813917 -13.336434 0.571728
31.193615 -17.469263 0.748901
24.286301 -13.740527 -0.584503
31.334635 -17.728283 -0.754137
31.288525 -17.702196 -0.250976
31.254396 -17.863359 0.251325
23.713989 -13.553661 0.572147
31.222261 -17.844994 0.753299
24.070227 -13.896952 -0.582199
31.308611 -18.076035 -0.757278
23.589956 -13.619668 -0.190170
31.306055 -18.074560 -0.252373
23.668516 -13.803071 0.191287
31.261446 -18.231136 0.252652
31.246714 -18.222546 0.757697
21.156971 -12.462408 -0.514346
23.913580 -14.086175 -0.581362
31.313351 -18.444973 -0.761257
23.444359 -13.809782 -0.189960
31.319456 -18.448570 -0.253769
23.401066 -13.922172 0.190100
31.273037 -18.605501 0.254048
31.249756 -18.591652 0.761676
21.013132 -12.625964 -0.513508
23.858303 -14.335515 -0.583037
31.356873 -18.841110 -0.766283
20.922943 -12.571773 -0.170413
23.622955 -14.194103 -0.192404
31.320129 -18.819033 -0.255095
23.620640 -14.333356 0.192892
31.254816 -18.965889 0.255235
31.223082 -18.946630 0.765027
21.558540 -13.211091 -0.529634
31.361752 -19.218506 -0.770472
23.771029 -14.566905 -0.194638
31.333763 -19.201355 -0.256561
24.498051 -15.159854 0.201130
31.326212 -19.385248 0.257190
21.857761 -13.525992 0.538430
20.806536 -13.001367 -0.513927
31.396334 -19.618607 -0.775498
24.703039 -15.436172 -0.203364
31.334614 -19.580040 -0.257958
21.142681 -13.340037 0.174532
23.696716 -14.951514 0.195615
31.282709 -19.737921 0.258237
22.635168 -14.281728 0.560629
23.666731 -14.932594 0.586178
31.251245 -19.718067 0.774032
21.181347 -13.494006 -0.526074
22.429293 -14.289035 -0.557068
31.460033 -20.042252 -0.781362
20.721622 -13.201130 -0.171530
24.601130 -15.672647 -0.203643
31.364964 -19.981686 -0.259633
20.991821 -13.502394 0.174252
31.311119 -20.139988 0.259912
22.417183 -14.419216 0.558325
31.254564 -20.103611 0.778430
21.205326 -13.770901 -0.529634
31.418095 -20.403149 -0.784712
20.723045 -13.457703 -0.172507
31.357128 -20.363558 -0.261029
21.057173 -13.805687 0.175788
31.267977 -20.500185 0.261029
22.240334 -14.581401 0.557068
23.578098 -15.458478 0.590576
31.236799 -20.479742 0.782409
20.775877 -13.751253 -0.521885
24.535877 -16.239943 -0.616335
31.472286 -20.831051 -0.790576
21.030088 -13.919512 -0.176067
31.428391 -20.801998 -0.263124
21.310047 -14.238918 0.178930
30.904972 -20.650042 0.259493
23.666748 -15.813616 0.596231
30.607996 -20.451611 0.771100
21.152399 -14.267473 -0.534451
23.680408 -15.972637 -0.598325
21.438389 -14.460376 -0.180535
24.439432 -16.484606 -0.205808
20.813023 -14.171082 0.175788
29.905289 -20.361786 0.252582
31.326988 -21.329786 0.264590
19.247053 -13.104852 0.487749
29.932514 -20.380323 0.758534
31.296089 -21.308748 0.793089
21.093004 -14.496819 -0.536126
31.474716 -21.631973 -0.800000
19.547796 -13.434829 -0.165596
21.278419 -14.624252 -0.180256
25.217648 -17.331608 -0.213627
19.751911 -13.702388 0.167829
21.107595 -14.642860 0.179349
19.279825 -13.374890 0.491519
26.377296 -18.298582 0.672461
20.965693 -14.680336 -0.536126
31.481298 -22.043442 -0.805027
19.773848 -13.845798 -0.168528
31.405523 -21.990385 -0.267662
19.509090 -13.787663 0.166782
21.248495 -15.016952 0.181652
19.382818 -13.698421 0.497173
20.966755 -14.817838 0.537801
24.902105 -17.599068 0.638744
21.561190 -15.379448 -0.554765
31.483082 -22.456665 -0.810053
21.321165 -15.208240 -0.182839
26.645351 -19.005945 -0.228497
31.432234 -22.420395 -0.269546
19.306875 -13.898961 0.166084
21.092295 -15.184278 0.181443
25.596420 -18.426785 0.220189
18.816273 -13.545778 0.485655
25.047794 -18.031832 0.646492
20.803354 -15.114521 -0.538639
22.186470 -16.119413 -0.574451
21.066290 -15.305555 -0.181792
23.307211 -16.933680 -0.201130
27.578718 -20.037111 -0.237991
19.104208 -14.007784 0.165386
20.967049 -15.373676 0.181513
18.753788 -13.750846 0.487121
20.775143 -15.372797 -0.541362
24.801582 -18.352205 -0.646283
31.496241 -23.305992 -0.820733
19.348364 -14.317036 -0.168039
20.650579 -15.280625 -0.179349
24.661728 -18.248718 -0.214185
18.580624 -13.874809 0.161895
24.004980 -17.925367 0.209159
18.865389 -14.087454 0.493194
21.805346 -16.282824 0.570053
31.362207 -23.419271 0.819896
20.568338 -15.499355 -0.539477
31.515230 -23.748430 -0.826597
26.985237 -20.334833 -0.235897
21.093538 -16.039900 0.185003
31.481112 -23.938793 0.276109
19.481855 -14.814347 0.512670
21.041677 -16.000463 0.553718
31.451099 -23.915972 0.827644
20.559208 -15.775636 -0.542828
21.598274 -16.572939 -0.570262
26.571508 -20.389036 -0.701571
26.648088 -20.447798 -0.234501
31.479494 -24.155066 -0.277016
19.197475 -14.864273 0.169505
20.723469 -16.045824 0.182979
19.170017 -14.843013 0.507854
31.430923 -24.336420 0.832671
18.592976 -14.526424 -0.494241
20.783165 -16.237587 -0.552461
26.077435 -20.373926 -0.693194
18.502041 -14.455379 -0.163920
18.658676 -14.709313 0.165875
31.482588 -24.818872 0.279879
18.725700 -14.762153 0.499477
31.437193 -24.783085 0.838534
18.395082 -14.632110 -0.492356
22.252495 -17.700434 -0.595602
31.602612 -25.137852 -0.845864
18.680401 -14.859062 -0.166643
20.707308 -16.471336 -0.184724
18.701174 -15.009279 0.167411
18.596165 -14.925001 0.499477
18.631872 -15.087793 -0.502199
20.659779 -16.729959 -0.556859
18.511166 -14.990047 -0.166294
21.674072 -17.551317 -0.194707
18.546251 -15.152924 0.167201
18.681995 -15.263831 0.505341
21.786631 -17.800423 0.589320
31.472157 -25.713831 0.851309
18.661505 -15.383358 -0.506597
31.652813 -26.092566 -0.859267
18.287058 -15.074686 -0.165456
21.705271 -17.892445 -0.196383
18.813101 -15.646691 0.170831
21.757694 -18.095682 0.197570
18.970856 -15.777893 0.516859
31.484856 -26.185677 0.857801
18.174248 -15.250005 -0.496964
31.638355 -26.547733 -0.865131
18.415260 -15.452237 -0.167829
18.965864 -16.055790 0.173484
31.597054 -26.748880 0.289024
18.298300 -15.490655 0.502199
18.306561 -15.635279 -0.504293
24.168005 -20.641426 -0.665760
31.679167 -27.056564 -0.872671
18.599077 -15.885112 -0.170762
31.639721 -27.022875 -0.290490
31.544237 -27.180254 0.290700
21.502554 -18.527784 0.594555
31.500217 -27.142324 0.870995
18.456148 -16.043684 -0.512252
19.912418 -17.309601 -0.552670
22.357140 -19.434765 -0.620524
18.678606 -16.237064 -0.172786
22.353952 -19.431995 -0.206785
18.306852 -16.054680 0.169994
31.599056 -27.711630 0.293422
31.510212 -27.633715 0.877906
18.225584 -16.124636 -0.509739
18.416372 -16.293430 -0.171669
22.243443 -19.679337 -0.207343
20.113216 -17.951733 0.188215
31.535076 -28.146132 0.295098
20.243557 -18.068066 0.568377
18.232775 -16.416864 -0.513927
19.934202 -17.948837 -0.561885
18.087704 -16.286242 -0.169924
18.201521 -16.533096 0.171669
20.429522 -18.556871 0.192683
18.530996 -16.832373 0.524398
20.795568 -18.889364 0.588482
18.206757 -16.683418 -0.517278
22.213625 -20.355038 -0.210345
18.291529 -16.908514 0.173903
31.619156 -29.228447 0.300613
18.566944 -17.163105 0.529634
22.553440 -20.848186 0.643351
18.162842 -16.937124 -0.520210
22.250212 -20.748659 -0.637278
31.726477 -29.585419 -0.908692
17.676388 -16.483500 -0.168737
22.064404 -20.575390 -0.210625
31.637590 -29.502529 -0.302009
18.048594 -16.978420 0.172996
18.066921 -16.995663 0.519581
20.994329 -19.749493 0.603770
17.956331 -17.039921 -0.518534
31.706411 -30.088263 -0.915603
17.633421 -16.733492 -0.169714
17.950308 -17.183681 0.173484
17.636259 -16.883045 0.511414
22.107656 -21.349115 -0.643770
31.665585 -30.579100 -0.922095
17.788839 -17.178482 -0.172647
31.607021 -30.522545 -0.306757
17.455853 -17.004740 0.170133
17.531225 -17.078165 0.512670
20.331352 -19.805927 0.594555
18.098326 -17.785175 -0.531519
31.732683 -31.183622 -0.931938
17.788033 -17.480251 -0.174113
31.674681 -31.126621 -0.310038
17.860727 -17.705540 0.175579
20.164841 -19.989634 0.594765
23.459379 -23.255545 0.691938
17.730349 -17.730349 -0.525236
31.720922 -31.720922 -0.939686
17.776232 -17.776232 -0.175509
31.677612 -31.677612 -0.312760
18.972734 -19.139029 0.188145
17.617624 -17.772041 0.524189
18.969036 -19.135298 0.564398
17.722107 -18.034147 -0.529634
31.786272 -32.345943 -0.949948
17.431189 -17.738106 -0.173624
18.868017 -19.200233 -0.187936
31.722380 -32.280930 -0.315972
19.949343 -20.478573 0.199594
20.887264 -21.441378 0.627016
31.801430 -32.931347 -0.958953
18.901194 -19.572760 -0.189960
21.186563 -21.939329 -0.212928
19.106041 -19.958429 0.192892
21.201273 -22.147139 0.214045
18.127497 -18.936230 0.549110
19.019352 -19.867874 0.576126
20.429729 -21.341173 0.618849
31.788124 -33.497692 -0.967330
19.927380 -20.999077 -0.202107
21.228338 -22.370001 -0.215302
31.753023 -33.460705 -0.322046
19.698530 -20.940155 0.200711
19.201468 -20.411760 0.587016
21.519148 -23.076460 -0.660943
31.842339 -34.146729 -0.978011
19.968426 -21.413515 -0.204411
20.764009 -22.462378 0.213557
19.877714 -21.503590 0.613403
31.659109 -34.248631 0.976964
31.826828 -34.732887 -0.986807
19.936182 -21.756523 -0.206017
21.341375 -23.290024 -0.220538
31.819523 -34.724915 -0.328817
19.827614 -21.828501 0.205877
19.803581 -21.802044 0.616964
20.176554 -22.408333 -0.631623
21.400793 -23.767988 -0.669948
31.816872 -35.336216 -0.996022
20.033281 -22.249214 -0.209019
21.478569 -23.854368 -0.224098
31.709326 -35.216774 -0.330842
19.995939 -22.403557 0.209647
31.688536 -35.504005 0.332238
19.845579 -22.235092 0.624294
31.602470 -35.407578 0.994137
19.794744 -22.373888 -0.625759
31.765663 -35.904552 -1.004189
19.758848 -22.333315 -0.208181
31.679092 -35.806702 -0.333774
31.641235 -36.079914 0.335031
31.588923 -36.020264 1.003561
31.746292 -36.519932 -1.013613
31.660637 -36.421398 -0.336916
31.612385 -36.687977 0.338102
20.133223 -23.365755 0.646074
31.547485 -36.612659 1.012357
31.757538 -37.183300 -1.024294
31.653326 -37.061283 -0.340267
31.549465 -37.267735 0.340895
31.323681 -37.001026 1.015498
31.573229 -37.627510 -1.028901
31.630808 -37.696129 -0.343548
31.504393 -37.879913 0.343967
31.178600 -37.488194 1.021362
31.375093 -38.401196 0.346201
31.280416 -38.285316 1.035603
31.163971 -38.829502 0.347597
31.038996 -38.673786 1.038744
30.873463 -39.162800 0.348155
30.786980 -39.053097 1.041676
30.842754 -39.833969 0.351716
30.702084 -39.652290 1.050472
30.451599 -40.045883 0.351227
30.185442 -39.695873 1.044608
29.885586 -40.021652 0.348714
29.670391 -39.733475 1.038744
29.369635 -40.055126 0.346759
29.109701 -39.700623 1.031205
28.925495 -40.180050 0.345642
0.151872 -0.210963 0.005445
28.569384 -39.685379 1.024294
0.176695 -0.254704 0.002164
0.153865 -0.221796 0.005654
0.146297 -0.214866 0.005445
0.155556 -0.232806 0.001955
0.138862 -0.207822 0.005236
0.148007 -0.225748 0.005654
0.151469 -0.235485 0.001955
0.140623 -0.218622 0.005445
0.128064 -0.202970 0.001676
0.112034 -0.177564 0.004398
0.126288 -0.204080 0.001676
0.136786 -0.221043 0.005445
0.114127 -0.188076 0.001536
0.140038 -0.230776 0.005654
0.138046 -0.232034 0.001885
0.127795 -0.214804 0.005236
0.115843 -0.198639 0.004817