# This PCD file was generated using the MATLAB® pcwrite function
# from Computer Vision System Toolbox®.
# .PCD v.7 - Point Cloud Data file format
VERSION .7
FIELDS x y z
SIZE 4 4 4
TYPE F F F
COUNT 1 1 1
WIDTH 974
HEIGHT 1
VIEWPOINT 0 0 0 1 0 0 0
POINTS 974
DATA ascii
29.979918 32.149525 -0.306896
30.549358 32.192307 -0.929634
30.238680 31.864920 -0.306687
30.718000 31.809422 -0.926283
30.515598 31.599827 -0.306687
30.826237 31.369005 -0.921257
30.678051 31.218212 -0.305570
30.900858 30.900858 -0.915393
30.949310 30.949310 -0.305570
30.969673 30.433813 -0.909529
30.911522 30.376667 -0.302568
30.975170 29.912374 -0.901990
30.887699 29.827904 -0.299775
30.886919 29.310591 -0.891938
30.820406 29.247473 -0.296634
30.739367 28.664923 -0.880419
30.672226 28.602314 -0.292794
30.899887 28.314529 -0.877906
30.537283 27.982264 -0.289164
31.056641 27.963526 -0.875393
30.810034 27.741478 -0.289443
30.999966 27.426455 -0.867016
30.871202 27.312532 -0.287768
30.996670 26.944994 -0.860315
30.866869 26.832161 -0.285534
30.987350 26.465696 -0.853613
30.772879 26.282522 -0.282532
30.941408 25.962925 -0.846074
30.817217 25.858715 -0.280856
31.004791 25.558376 -0.841676
30.941391 25.506115 -0.279949
30.861467 24.991123 -0.831833
30.914112 25.033754 -0.277715
31.015783 24.671068 -0.830158
30.920095 24.594954 -0.275830
31.103842 24.300983 -0.826807
31.031107 24.244158 -0.274922
31.092630 23.858213 -0.820943
31.027292 23.808079 -0.273037
31.076077 23.417503 -0.815079
31.042206 23.391979 -0.271362
31.086365 23.002699 -0.810053
31.052235 22.977444 -0.269686
31.091793 22.589510 -0.805027
31.016956 22.535137 -0.267662
31.124950 22.201210 -0.800838
30.984482 22.101015 -0.265707
31.153709 21.814062 -0.796650
31.086063 21.766695 -0.264939
31.145138 21.405460 -0.791623
31.101765 21.375650 -0.263473
31.173265 21.026632 -0.787644
31.129602 20.997181 -0.262146
31.087891 20.772264 0.261029
31.048578 20.745996 0.782199
31.155479 20.621361 -0.782618
31.069828 20.564671 -0.260122
31.134174 20.412460 0.259912
31.103022 20.392035 0.779058
31.133009 20.218012 -0.777592
31.122307 20.211061 -0.259075
31.075634 19.988520 0.257958
31.044350 19.968397 0.773194
31.148046 19.843494 -0.773613
31.128820 19.831245 -0.257678
31.122025 19.636536 0.256910
30.549444 19.275265 0.756650
30.938488 19.332514 -0.764189
31.131086 19.452862 -0.256282
31.147642 19.274746 0.255724
30.622969 18.950069 0.754346
31.037819 19.020000 -0.762514
31.129133 19.075958 -0.254886
30.613647 18.576818 0.249999
30.821362 18.702862 0.755184
30.517033 18.336483 -0.745760
30.608698 18.391562 -0.249301
31.041002 18.467457 0.252163
30.742817 18.290054 0.749320
30.813715 18.150665 -0.749110
30.845572 18.169430 -0.249929
30.864090 17.999405 0.249440
30.866711 18.000933 0.748482
30.858376 17.816092 -0.746388
30.899033 17.839565 -0.249091
30.881079 17.649990 0.248323
30.883739 17.651510 0.745131
31.056183 17.570742 -0.747435
31.018721 17.549547 -0.248812
30.999027 17.360291 0.248044
30.931923 17.322710 0.742618
31.033445 17.202120 -0.743246
31.100719 17.239410 -0.248254
31.009069 17.012157 0.246927
31.011789 17.013651 0.740943
30.980295 16.820929 -0.738430
31.003912 16.833752 -0.246299
31.085876 16.703045 0.246369
31.018167 16.666662 0.737592
30.940525 16.451370 -0.734032
31.034851 16.501524 -0.245391
31.088858 16.356640 0.245252
30.985470 16.302244 0.733404
30.941021 16.106876 -0.730681
30.929314 16.100782 -0.243437
30.981493 15.956517 0.243297
31.019894 15.976295 0.730890
30.839880 15.713704 -0.725027
30.997362 15.793944 -0.242878
31.048120 15.649542 0.242738
30.943863 15.596991 0.725864
31.083200 15.497513 -0.727540
31.107161 15.509458 -0.242669
31.004135 15.289547 0.241342
30.899456 15.237926 0.721676
31.181313 15.208142 -0.726702
31.052578 15.145354 -0.241203
31.028297 14.966274 0.240504
30.995234 14.950326 0.720838
31.051147 14.810637 -0.720629
31.039152 14.804915 -0.240086
30.976833 14.609623 0.239108
30.943666 14.593981 0.716650
31.152027 14.526429 -0.720000
31.067474 14.487001 -0.239318
31.030497 14.305255 0.238550
31.033525 14.306651 0.715812
31.132046 14.187691 -0.716650
31.010725 14.132401 -0.237921
30.935331 13.935351 0.236874
30.938417 13.936741 0.710786
31.035467 13.817880 -0.711623
30.931896 13.771767 -0.236385
30.955080 13.620561 0.236106
30.949045 13.617906 0.708273
31.109024 13.526588 -0.710576
31.023386 13.489352 -0.236176
30.879820 13.267017 0.234640
30.956472 13.299951 0.705760
31.087835 13.196003 -0.707435
31.029463 13.171226 -0.235338
30.994419 12.997039 0.234640
30.923838 12.967441 0.702409
31.054018 12.862995 -0.704084
31.069311 12.869330 -0.234780
31.078894 12.714711 0.234431
30.998806 12.681947 0.701571
31.081656 12.557804 -0.702199
31.106260 12.567745 -0.234221
31.067923 12.394844 0.233523
30.931860 12.340561 0.697592
31.115643 12.256778 -0.700524
31.103102 12.251838 -0.233384
30.951227 12.036274 0.231848
30.954512 12.037551 0.695707
31.118746 11.945367 -0.698220
31.068800 11.926195 -0.232336
31.027031 11.755090 0.231638
29.478346 11.168346 0.660315
30.936838 11.720920 0.692985
31.184343 11.659348 -0.697383
31.049927 11.609092 -0.231429
29.617979 10.926649 0.220398
31.090902 11.470039 0.231359
29.443367 10.862231 0.657383
28.992554 10.552426 -0.646283
31.172163 11.345739 -0.694870
28.988811 10.551064 -0.215372
31.121861 11.327431 -0.231219
29.486326 10.586673 0.218723
29.348843 10.537311 0.653194
31.156893 11.033235 -0.692356
29.306009 10.377802 -0.217047
29.284927 10.226754 0.216559
30.213661 10.551083 0.670367
29.852928 10.279187 -0.661362
29.367092 10.111900 -0.216838
30.225273 10.260098 0.222842
30.474997 10.344867 0.674137
29.429510 9.846976 -0.650053
29.198174 9.769572 -0.214953
30.446611 10.039787 0.223819
30.488152 10.053485 0.672461
29.514320 9.589784 -0.650053
29.786364 9.678177 -0.218653
30.228306 9.676157 0.221585
30.184326 9.662079 0.663875
29.844793 9.410028 -0.655498
30.022278 9.465988 -0.219770
30.273394 9.400139 0.221306
30.124271 9.353835 0.660733
29.944897 9.155073 -0.655917
30.189806 9.229950 -0.220398
30.277668 9.112544 0.220747
30.128162 9.067548 0.659058
29.946959 8.870693 -0.654241
30.230850 8.954785 -0.220119
30.240833 8.814399 0.219910
30.129356 8.781906 0.657383
29.984787 8.598000 -0.653404
30.154045 8.646533 -0.219002
30.422468 8.580024 0.220678
30.358803 8.562068 0.660733
30.039408 8.330666 -0.652985
30.392164 8.428493 -0.220189
30.390060 8.285281 0.219910
30.229803 8.241590 0.656335
30.246162 8.104435 -0.655917
30.387285 8.142249 -0.219630
30.229120 7.958663 0.218234
30.339247 7.987657 0.657173
30.402847 7.862711 -0.657801
30.302282 7.836703 -0.218513
30.365265 7.711795 0.218723
30.320583 7.700448 0.655288
30.382998 7.575332 -0.655917
30.340408 7.564713 -0.218304
30.382839 7.434634 0.218374
30.347782 7.426055 0.654451
30.341009 7.284232 -0.653613
30.444160 7.308996 -0.218583
30.339493 7.144002 0.217606
30.343309 7.144901 0.652985
30.530060 7.048420 -0.656335
30.477552 7.036297 -0.218374
30.351913 6.867937 0.217257
30.365499 6.871011 0.652147
30.385429 6.736288 -0.651938
30.342541 6.726779 -0.216978
30.381374 6.596443 0.217047
30.297291 6.578187 0.649424
30.491953 6.481265 -0.652985
30.439211 6.470054 -0.217257
30.359461 6.314777 0.216489
30.314388 6.305402 0.648587
30.468975 6.198983 -0.651309
30.416122 6.188230 -0.216698
30.334949 6.033997 0.215930
30.299618 6.026969 0.647121
30.443398 5.917597 -0.649634
30.390436 5.907302 -0.216140
30.337330 5.759722 0.215581
30.262659 5.745545 0.645236
30.454556 5.644418 -0.648796
30.391668 5.632763 -0.215791
30.356916 5.489425 0.215372
30.272291 5.474122 0.644398
30.384502 5.357607 -0.646283
30.321491 5.346497 -0.214953
30.354387 5.215837 0.215023
30.279495 5.202969 0.643561
30.420238 5.090602 -0.646074
30.406445 5.088294 -0.215232
30.359268 4.944321 0.214744
30.323746 4.938536 0.643561
30.424004 4.818689 -0.645236
30.420059 4.818064 -0.215023
30.332075 4.668553 0.214255
30.247110 4.655476 0.641047
30.435232 4.548576 -0.644608
30.421387 4.546507 -0.214744
30.371660 4.403681 0.214255
30.286585 4.391346 0.641047
30.384663 4.270286 -0.642723
30.380684 4.269727 -0.214185
30.319757 4.126338 0.213627
30.294033 4.122837 0.640419
30.420769 4.004970 -0.642723
30.406874 4.003141 -0.214115
30.354612 3.861594 0.213627
30.358612 3.862103 0.641047
30.414867 3.734476 -0.641885
30.400948 3.732767 -0.213836
30.307711 3.587154 0.213068
30.311731 3.587630 0.639372
30.406565 3.464391 -0.641047
30.362816 3.459406 -0.213347
30.337860 3.322536 0.213068
30.302130 3.318623 0.638534
30.435638 3.198915 -0.641047
30.342123 3.189086 -0.212998
30.296053 3.050652 0.212579
30.369726 3.058071 0.639372
30.392733 2.926487 -0.639582
30.378752 2.925141 -0.213068
30.321522 2.786156 0.212579
30.355433 2.789273 0.638534
30.417114 2.661153 -0.639582
30.353313 2.655571 -0.212719
30.344681 2.521448 0.212579
30.348728 2.521785 0.637906
30.389343 2.391693 -0.638534
30.375330 2.390590 -0.212719
30.365528 2.256549 0.212579
30.319727 2.253145 0.636859
30.369164 2.123619 -0.637697
30.405012 2.126126 -0.212789
30.334171 1.988207 0.212230
30.348211 1.989127 0.637068
30.426456 1.860962 -0.638534
30.422407 1.860714 -0.212789
30.350367 1.723419 0.212230
30.324488 1.721949 0.636231
30.441536 1.595373 -0.638534
30.427500 1.594638 -0.212719
30.324299 1.456581 0.211951
30.338358 1.457256 0.636231
30.414347 1.327919 -0.637697
30.410286 1.327742 -0.212510
30.345846 1.192291 0.212021
30.309959 1.190882 0.635393
30.434769 1.062806 -0.637906
30.420715 1.062315 -0.212510
30.355095 0.927432 0.212021
30.319199 0.926335 0.635393
30.352934 0.794820 -0.636021
30.338860 0.794451 -0.211881
30.402021 0.663374 0.212300
30.366110 0.662591 0.636231
30.448681 0.531484 -0.637906
30.434622 0.531238 -0.212510
30.406654 0.398045 0.212300
30.370735 0.397575 0.636231
30.442163 0.265665 -0.637697
30.438099 0.265629 -0.212510
30.398970 0.132641 0.212230
30.373049 0.132528 0.636231
30.403330 0.000000 -0.636859
30.399260 0.000000 -0.212230
30.448969 -0.132860 0.212579
30.453030 -0.132877 0.637906
30.482153 -0.266014 -0.638534
30.478096 -0.265978 -0.212789
30.446650 -0.398568 0.212579
30.410723 -0.398098 0.637068
30.478670 -0.532007 -0.638534
30.464617 -0.531762 -0.212719
30.442013 -0.664247 0.212579
30.446072 -0.664336 0.637906
30.522839 -0.799269 -0.639582
30.508799 -0.798901 -0.213068
30.475037 -0.931097 0.212859
30.439116 -0.929999 0.637906
30.434769 -1.062806 -0.637906
30.420715 -1.062315 -0.212510
30.465752 -1.197003 0.212859
30.429842 -1.195592 0.637906
30.504242 -1.331844 -0.639582
30.480219 -1.330795 -0.212998
30.504086 -1.465216 0.213208
30.388290 -1.459654 0.637278
30.551361 -1.601129 -0.640838
30.537348 -1.600394 -0.213487
30.400286 -1.726253 0.212579
30.324488 -1.721949 0.636231
30.586123 -1.870727 -0.641885
30.532200 -1.867429 -0.213557
30.344151 -1.988861 0.212300
30.308306 -1.986511 0.636231
30.498817 -2.132685 -0.640419
30.355135 -2.122638 -0.212440
30.365528 -2.256549 0.212579
30.289816 -2.250922 0.636231
30.469080 -2.397969 -0.640210
30.425175 -2.394513 -0.213068
30.384542 -2.524761 0.212859
30.308874 -2.518473 0.637068
30.417114 -2.661153 -0.639582
30.323427 -2.652956 -0.212510
30.321522 -2.786156 0.212579
30.285742 -2.782869 0.637068
30.422588 -2.929362 -0.640210
30.378752 -2.925141 -0.213068
30.335852 -3.054660 0.212859
30.300095 -3.051059 0.637906
30.395866 -3.194734 -0.640210
30.381903 -3.193267 -0.213278
30.308039 -3.319270 0.212859
30.272316 -3.315358 0.637906
30.456232 -3.470049 -0.642095
30.442299 -3.468462 -0.213906
30.357363 -3.593031 0.213417
30.311731 -3.587630 0.639372
30.424791 -3.735695 -0.642095
30.410873 -3.733986 -0.213906
30.364532 -3.862856 0.213696
30.368530 -3.863365 0.641257
30.351383 -3.995836 -0.641257
30.337473 -3.994004 -0.213627
30.369299 -4.133080 0.213976
30.809172 -4.192944 0.651309
30.354959 -4.266111 -0.642095
30.341074 -4.264160 -0.213906
30.846682 -4.472556 0.217606
30.810986 -4.467380 0.652147
30.385792 -4.541187 -0.643561
30.619184 -4.576068 -0.216140
30.846010 -4.747655 0.217885
30.770828 -4.736084 0.652147
30.611624 -4.848405 -0.649215
30.884262 -4.891586 -0.218304
30.803406 -5.016653 0.217885
30.767797 -5.010854 0.652985
30.942854 -5.178058 -0.657173
30.840399 -5.160913 -0.218304
30.797876 -5.292043 0.218164
30.801725 -5.292705 0.654660
30.896490 -5.447885 -0.657173
30.843428 -5.438529 -0.218653
30.829245 -5.574835 0.218723
30.793718 -5.568411 0.655498
30.847773 -5.717297 -0.657173
30.873451 -5.722056 -0.219212
30.779421 -5.843656 0.218723
30.783243 -5.844381 0.656335
30.914474 -6.009165 -0.659686
30.861607 -5.998888 -0.219491
30.766485 -6.119834 0.219002
30.770292 -6.120592 0.657173
30.890249 -6.284692 -0.660315
30.866877 -6.279937 -0.219910
30.790230 -6.404377 0.219561
30.754862 -6.397020 0.658011
30.922243 -6.572726 -0.662199
30.898930 -6.567770 -0.220538
30.850433 -6.698286 0.220398
30.815109 -6.690616 0.660524
30.902752 -6.850976 -0.663037
30.889254 -6.847982 -0.220887
30.781054 -6.965041 0.220329
30.794556 -6.968096 0.661362
30.871016 -7.127135 -0.663665
30.857548 -7.124026 -0.221097
30.806704 -7.254015 0.220957
30.810429 -7.254893 0.663037
30.934025 -7.426602 -0.666388
30.920610 -7.423382 -0.222004
30.819933 -7.541590 0.221515
30.784790 -7.532990 0.663875
30.945644 -7.715616 -0.668063
30.883760 -7.700186 -0.222214
30.830484 -7.829946 0.222074
30.795403 -7.821036 0.665550
30.877136 -7.985371 -0.668063
30.863794 -7.981920 -0.222563
30.838343 -8.119059 0.222632
30.841999 -8.120021 0.668063
30.883533 -8.275218 -0.669739
30.860579 -8.269067 -0.223051
30.882090 -8.419424 0.223470
30.847132 -8.409893 0.669739
30.877583 -8.563111 -0.671205
30.864332 -8.559437 -0.223610
30.845938 -8.699454 0.223749
30.849548 -8.700472 0.671414
30.926617 -8.868065 -0.673927
30.913424 -8.864282 -0.224517
30.845650 -8.990687 0.224308
30.849236 -8.991732 0.673089
30.915155 -9.157486 -0.675393
30.863655 -9.142231 -0.224727
30.880924 -9.294104 0.225146
30.836609 -9.280766 0.674555
30.958357 -9.464919 -0.678116
30.897453 -9.446300 -0.225565
30.827293 -9.572128 0.225355
30.840380 -9.576192 0.676440
30.874582 -9.734718 -0.678116
30.861528 -9.730602 -0.225914
30.866396 -9.880411 0.226263
30.831812 -9.869341 0.678116
30.893049 -10.037760 -0.680419
30.851522 -10.024267 -0.226472
30.854973 -10.174444 0.226821
30.820473 -10.163068 0.679791
30.927534 -10.348207 -0.683142
30.914598 -10.343880 -0.227589
30.831293 -10.465814 0.227310
30.806349 -10.457346 0.681466
30.911676 -10.643744 -0.684817
30.860973 -10.626286 -0.227868
30.823755 -10.764137 0.227938
30.827185 -10.765335 0.683979
30.930708 -10.953138 -0.687330
30.908461 -10.945260 -0.228916
30.850998 -11.076640 0.228846
30.844984 -11.074481 0.686493
28.419468 -10.343841 -0.633508
30.927896 -11.256834 -0.689424
30.886944 -11.241928 -0.229474
30.856361 -11.383512 0.229614
30.784687 -11.357071 0.687330
30.997049 -11.589322 -0.693194
27.396994 -10.243317 -0.204202
30.946896 -11.570570 -0.230661
30.868061 -11.694862 0.230451
30.871393 -11.696124 0.691519
24.043756 -9.229534 -0.539477
30.950737 -11.880875 -0.694451
27.306562 -10.482007 -0.204202
30.919430 -11.868857 -0.231219
30.876669 -12.007279 0.231289
26.975710 -10.490280 0.606283
30.870649 -12.004939 0.693822
23.878580 -9.406023 -0.537592
26.771545 -10.545592 -0.602723
30.985413 -12.205479 -0.697592
23.762285 -9.360213 -0.178301
26.804676 -10.558643 -0.201130
30.907719 -12.174874 -0.231917
27.009123 -10.775548 0.203015
30.910028 -12.331851 0.232336
27.106005 -10.814199 0.611309
30.885431 -12.322038 0.696545
23.693623 -9.572845 -0.535288
26.724848 -10.797540 -0.603770
30.961149 -12.509116 -0.699477
23.753872 -9.597187 -0.178860
26.451910 -10.687265 -0.199175
30.939371 -12.500318 -0.232965
23.758045 -9.719673 0.179209
30.875278 -12.631410 0.232895
30.850754 -12.621376 0.698220
23.553761 -9.756288 -0.534032
30.878519 -12.790301 -0.700105
23.807795 -9.861512 -0.179907
26.034290 -10.783756 -0.196732
30.838346 -12.773662 -0.233034
23.829092 -9.992368 0.180396
30.911423 -12.962235 0.234012
30.850077 -12.936511 0.700733
23.384899 -9.926300 -0.532147
23.628784 -10.029823 -0.179209
30.937414 -13.132154 -0.234640
23.566420 -10.124933 0.179069
30.934946 -13.290702 0.235059
30.882986 -13.268378 0.704084
23.251543 -10.110059 -0.531100
23.439484 -10.191778 -0.178441
30.895000 -13.433529 -0.235199
23.559544 -10.366447 0.179698
30.927622 -13.608479 0.235897
30.839231 -13.569587 0.705760
23.290300 -10.369510 -0.534032
30.934999 -13.773149 -0.709320
23.230894 -10.343060 -0.177533
30.877085 -13.747363 -0.235967
23.349657 -10.518253 0.178790
30.926214 -13.931244 0.236804
25.113535 -11.312822 0.576964
30.892839 -13.916209 0.709739
22.925995 -10.447978 -0.527749
24.472589 -11.152802 -0.563351
30.995581 -14.125500 -0.713508
23.185247 -10.566126 -0.177883
30.983427 -14.119961 -0.237712
23.093517 -10.646257 0.177533
30.948765 -14.267576 0.237921
22.880188 -10.547912 0.527749
24.932142 -11.493876 0.575079
30.906414 -14.248052 0.712880
23.241695 -10.837781 -0.537173
23.418423 -10.920190 -0.180396
30.976845 -14.444740 -0.238619
23.017822 -10.855910 0.177673
30.913523 -14.579764 0.238619
25.255892 -11.911452 0.584922
30.862284 -14.555598 0.714765
22.965757 -10.954104 -0.532985
24.328363 -11.604033 -0.564608
22.988287 -10.964850 -0.177813
31.021101 -14.796306 -0.239946
23.660767 -11.412599 0.183398
30.911211 -14.909798 0.239597
26.087505 -12.583118 0.606702
30.869164 -14.889517 0.717906
22.941179 -11.189161 -0.534660
23.457952 -11.441208 -0.182211
30.971687 -15.105902 -0.240574
26.223921 -12.932206 0.204132
30.950323 -15.263011 0.240923
23.681213 -11.678283 0.553089
30.926357 -15.251191 0.722304
22.932137 -11.433542 -0.536754
23.330370 -11.632093 -0.182001
30.937126 -15.424683 -0.241342
24.029478 -12.111854 0.187866
30.923107 -15.586529 0.241761
23.435556 -11.812492 0.549739
30.863512 -15.556491 0.723979
23.098732 -11.769392 -0.543037
31.062584 -15.827177 -0.730262
23.085417 -11.762608 -0.180884
25.909838 -13.201722 -0.203015
30.979542 -15.784865 -0.242738
23.558380 -12.133363 0.185003
24.865204 -12.806421 0.195266
30.919262 -15.924467 0.242808
25.384762 -13.074011 0.598116
30.904346 -15.916784 0.728168
23.172510 -12.062845 -0.547225
25.806355 -13.433938 -0.609424
22.582745 -11.755834 -0.177743
25.163883 -13.099489 -0.198058
30.991404 -16.133104 -0.243925
25.345428 -13.334875 0.199943
30.964962 -16.291454 0.244274
23.783251 -12.512974 0.562932
30.976622 -16.297588 0.733194
23.084015 -12.273989 -0.547644
25.855864 -13.747807 -0.613403
31.028801 -16.498306 -0.736126
23.247444 -12.360885 -0.183817
25.419441 -13.515757 -0.200990
26.981026 -14.497428 0.213836
30.936129 -16.622581 0.245182
23.109503 -12.417184 0.549529
25.372896 -13.633348 0.603351
23.793148 -12.918625 -0.567121
31.006655 -16.835239 -0.739058
23.490210 -12.754143 -0.186609
26.873573 -14.591159 -0.213487
31.012701 -16.838522 -0.246369
23.390499 -12.832468 0.186260
25.047474 -13.741514 0.199455
30.938932 -16.973680 0.246369
23.675196 -12.988657 0.565655
25.629868 -14.061028 0.612356
30.915371 -16.960752 0.738639
23.740717 -13.159695 -0.568587
27.387081 -15.180907 -0.655917
31.085911 -17.231201 -0.744503
23.264317 -12.895621 -0.185702
30.995768 -17.181234 -0.247416
23.356150 -13.080071 0.186888
31.007753 -17.365175 0.248114
23.238195 -13.014015 0.557906
30.949369 -17.332479 0.743037
23.407433 -13.243289 -0.563351
31.012674 -17.546127 -0.746388
23.150898 -13.098147 -0.185702
30.992611 -17.534775 -0.248603
23.241116 -13.283392 0.186888
23.002222 -13.146853 0.554974
30.935820 -17.681278 0.746388
23.031223 -13.297083 -0.557068
31.014227 -17.906073 -0.750157
23.035715 -13.299676 -0.185702
31.046253 -17.924562 -0.250278
23.400734 -13.646904 0.189122
25.188829 -14.689692 0.203574
30.915920 -18.029631 0.249859
22.748438 -13.266497 0.551623
26.341204 -15.361736 0.638744
30.978983 -18.066410 0.751205
22.647263 -13.340258 -0.550576
31.046305 -18.287670 -0.754765
22.711990 -13.378386 -0.184026
31.060974 -18.296312 -0.251674
22.335428 -13.288183 0.181443
25.179995 -14.980522 0.204551
26.082350 -15.517367 0.211881
23.662861 -14.077924 0.576754
22.212904 -13.346859 -0.542828
23.729757 -14.258277 -0.579896
31.048361 -18.655737 -0.758744
22.337236 -13.421565 -0.181932
23.982956 -14.410414 -0.195336
31.011557 -18.633623 -0.252582
23.184645 -14.068788 0.189332
24.902975 -15.111497 0.203364
31.006897 -18.815447 0.253210
22.821140 -13.848208 0.559163
25.428051 -15.430120 0.623037
30.992306 -18.806593 0.759372
22.121161 -13.555864 -0.543456
31.071918 -19.040895 -0.763351
22.313049 -13.673454 -0.182700
23.890396 -14.640053 -0.195615
31.086502 -19.049833 -0.254537
23.035480 -14.254787 0.189122
25.127296 -15.549243 0.206296
30.969074 -19.164244 0.254258
22.359358 -13.836391 0.550786
21.942671 -13.711303 -0.541990
31.074146 -19.417282 -0.767540
25.830915 -16.140947 -0.212649
31.020844 -19.383974 -0.255374
22.800266 -14.385897 0.188215
25.760242 -16.253502 0.212649
22.153210 -13.977634 0.548691
25.729853 -16.234329 0.637278
25.869576 -16.480736 -0.642513
31.097454 -19.811264 -0.772356
23.656553 -15.070887 -0.195824
31.052916 -19.782890 -0.257050
22.985037 -14.784472 0.190798
31.008352 -19.945242 0.257399
22.274237 -14.327271 0.554765
30.977081 -19.925129 0.771519
22.479826 -14.598570 -0.561466
31.049160 -20.163561 -0.775498
22.433891 -14.568739 -0.186749
31.013281 -20.140261 -0.258167
22.177769 -14.540382 0.185143
25.389029 -16.645777 0.211951
31.017097 -20.335701 0.258935
22.365749 -14.663628 0.560210
30.944162 -20.287882 0.775079
22.284880 -14.750040 -0.559791
31.047098 -20.549625 -0.779896
22.422644 -14.841224 -0.187726
26.792099 -17.733303 -0.224308
30.969765 -20.498440 -0.259284
31.029690 -20.733376 0.260541
22.145493 -14.797145 0.557906
30.957138 -20.684898 0.779896
21.939812 -14.798590 -0.554346
26.689156 -18.002062 -0.674346
31.098667 -20.976316 -0.785760
21.852898 -14.739965 -0.184026
26.412493 -17.815453 -0.222423
31.030121 -20.930080 -0.261309
25.904692 -17.637877 0.218793
30.979828 -21.093414 0.261658
21.891560 -14.905433 0.554765
23.246870 -15.828231 0.589110
21.719202 -14.927194 -0.552042
26.308578 -18.081385 -0.668691
25.876932 -17.784723 -0.219212
31.093523 -21.369987 -0.263403
21.879925 -15.178644 0.185911
23.703936 -16.444006 0.201409
25.790869 -17.891762 0.219142
22.910707 -15.893723 0.584084
21.891132 -15.328336 -0.559791
25.977804 -18.189854 -0.664294
31.071812 -21.756718 -0.794555
23.656534 -16.564484 -0.201619
25.769896 -18.044275 -0.219630
31.118828 -21.789639 -0.265218
25.707251 -18.168087 0.219770
23.799881 -16.820093 0.610472
24.991915 -17.662540 0.641047
30.992914 -21.903627 0.794974
21.927462 -15.640707 -0.564189
23.726263 -16.923779 -0.610472
23.038908 -16.433493 -0.197570
25.823114 -18.419449 -0.221446
31.008904 -22.118437 -0.265916
25.977850 -18.701376 0.223470
31.050064 -22.352848 0.267103
22.694746 -16.337879 0.585759
30.995327 -22.313442 0.800000
22.194557 -16.125290 -0.574660
22.190796 -16.122557 -0.191496
31.041225 -22.552771 -0.267871
22.926661 -16.810524 0.198477
25.579800 -18.755884 0.221446
22.704500 -16.647627 0.589739
25.478060 -18.681288 0.661780
31.009058 -22.736782 0.805445
22.334282 -16.526501 -0.581990
26.561642 -19.654581 -0.692147
31.110474 -23.020540 -0.810681
22.025141 -16.297747 -0.191287
22.949554 -16.981777 -0.199315
25.280682 -18.706720 -0.219561
25.479250 -19.026258 0.222004
23.343416 -17.431355 0.610262
25.410196 -18.974693 0.664294
22.061460 -16.624502 -0.578639
26.500898 -19.969860 -0.695079
31.139954 -23.465639 -0.816754
25.715437 -19.377972 -0.224797
31.082136 -23.422070 -0.271711
25.001814 -19.011822 0.219281
31.067202 -23.624048 0.272479
24.256821 -18.445314 0.638325
25.546061 -19.425676 0.672252
22.240749 -17.065928 -0.587225
31.124357 -23.882559 -0.821781
22.308552 -17.117954 -0.196313
31.082827 -23.850691 -0.273526
24.708447 -19.131323 0.218164
31.033810 -24.028942 0.274014
24.585052 -19.035782 0.651309
30.972424 -23.981413 0.820524
22.610949 -17.665609 -0.601047
24.927193 -19.475256 -0.662618
31.158991 -24.344070 -0.828273
24.837494 -19.405176 -0.220049
31.149305 -24.336506 -0.275969
22.545900 -17.773754 0.200432
25.231619 -19.891005 0.224308
22.761345 -17.943598 0.607121
24.951899 -19.670490 0.665550
30.981810 -24.424089 0.826388
22.667187 -18.030294 -0.606702
25.037968 -19.916100 -0.670157
22.718561 -18.071159 -0.202666
24.643730 -19.602509 -0.219840
31.092264 -24.731903 -0.277365
22.538113 -18.088747 0.201758
31.062042 -24.929924 0.278064
24.740307 -19.856195 0.664503
30.939030 -24.831196 0.830995
24.870987 -20.140127 -0.670367
31.141178 -25.217628 -0.839372
22.591082 -18.293898 -0.202945
25.248857 -20.446121 -0.226821
22.665920 -18.518833 0.204341
31.083363 -25.396173 0.280228
30.999882 -25.327965 0.838534
22.156199 -18.264160 -0.601466
31.189939 -25.711002 -0.846702
22.222246 -18.318605 -0.201060
25.162064 -20.742004 -0.227659
31.180590 -25.703295 -0.282113
22.603399 -18.799049 0.205249
31.098894 -25.864677 0.282392
22.460630 -18.680309 0.611938
31.023651 -25.802097 0.845236
22.003630 -18.463238 -0.601676
31.171171 -26.155718 -0.852356
22.245388 -18.666098 -0.202736
31.108307 -26.102968 -0.283509
22.766670 -19.273409 0.208251
31.100965 -26.328911 0.284486
22.006798 -18.630129 0.603979
31.064379 -26.297939 0.852566
21.780853 -18.602606 -0.600000
23.111271 -19.738892 -0.636650
31.169807 -26.621531 -0.858639
21.420115 -18.294506 -0.196662
22.781208 -19.456989 -0.209159
31.153072 -26.607239 -0.286022
22.643066 -19.510513 0.208670
20.411900 -17.588017 0.564398
28.061626 -24.179445 0.775917
21.715778 -18.877237 -0.602723
31.200397 -27.122091 -0.865969
21.727560 -18.887480 -0.200990
31.153652 -27.081457 -0.288186
20.411953 -17.900803 0.189541
21.366766 -18.738152 0.198407
20.490658 -17.969826 0.570890
21.699976 -19.198517 -0.606911
21.479527 -19.003479 -0.200223
22.745232 -20.123280 -0.212021
31.155798 -27.564322 -0.290420
21.247196 -18.963848 0.198826
20.832813 -18.593996 0.584922
22.088850 -19.888889 -0.622618
20.517729 -18.474245 -0.192753
21.937101 -19.752254 -0.206087
21.029085 -19.101475 0.198338
21.061987 -19.131363 0.596021
24.266430 -22.042072 0.686702
20.602383 -18.878605 -0.585341
21.553261 -19.749926 -0.612356
31.187363 -28.577953 -0.886074
20.879185 -19.132248 -0.197709
20.619274 -19.060261 0.196034
21.180557 -19.579107 0.604189
21.577515 -20.121357 -0.618011
22.900974 -21.355503 -0.655917
21.669481 -20.207119 -0.206855
25.889290 -24.142153 -0.247137
31.176849 -29.072882 -0.297611
21.348032 -20.082224 0.204621
25.674452 -24.152111 0.246089
22.050236 -20.742790 0.634136
20.893452 -19.827147 -0.603351
31.256779 -29.661575 -0.902618
20.846752 -19.782829 -0.200641
22.863243 -21.696407 -0.220049
20.182358 -19.320404 0.195056
25.130430 -24.057154 0.242878
20.647856 -19.766022 0.598744
19.914150 -19.230871 -0.579896
20.867538 -20.151548 -0.202526
20.091780 -19.572546 0.195824
20.295546 -19.771044 0.593508
21.534475 -20.977957 0.629739
20.458668 -20.104677 -0.600838
19.728027 -19.386679 -0.193102
20.197180 -20.021690 0.198547
20.718664 -20.538645 0.611100
20.247097 -20.247097 -0.599791
19.621735 -19.621735 -0.193730
21.375317 -21.375317 -0.211043
19.690811 -19.863401 0.195266
19.961479 -20.136440 0.593927
22.115292 -22.309130 0.658011
20.840469 -21.207417 -0.622828
19.463776 -19.806482 -0.193870
20.947159 -21.502861 0.209577
22.161285 -22.749195 0.221725
20.266367 -20.804008 0.608377
21.189379 -21.942244 -0.638953
19.547211 -20.241728 -0.196453
22.541115 -23.342009 -0.226542
19.790621 -20.673553 0.199804
19.766022 -20.647856 0.598744
20.630224 -21.550613 0.624922
22.393196 -23.392237 0.678325
19.400459 -20.443819 -0.590367
19.576326 -20.629145 -0.198547
19.657421 -20.896454 0.200292
19.660439 -20.899662 0.601047
19.916803 -21.358156 -0.611728
19.797930 -21.230680 -0.202666
19.521833 -21.118601 0.200781
19.857353 -21.481564 0.612775
21.445284 -23.403421 -0.664922
19.692974 -21.491110 -0.203504
19.565397 -21.539824 0.203155
19.642250 -21.624430 0.611938
20.069515 -22.289455 -0.628273
19.350786 -21.491224 -0.201898
19.629713 -21.993235 0.205808
23.611588 -26.454550 0.247555
19.898838 -22.294764 0.625969
21.030588 -23.562784 0.661571
19.688749 -22.254082 -0.622409
19.500433 -22.041229 -0.205458
19.568907 -22.314062 0.207204
19.980389 -22.783266 0.634765
22.531498 -25.692249 0.715812
19.408529 -22.326960 -0.619686
20.838425 -23.971865 -0.665341
20.042114 -23.055817 -0.213278
19.862995 -23.052141 0.212440
19.787334 -22.964333 0.634974
22.123703 -25.675821 0.709948
19.686947 -23.050453 -0.634974
19.333597 -22.636734 -0.207832
20.755854 -24.301983 -0.223121
18.866360 -22.285845 0.203853
20.559164 -24.285465 0.222144
19.463446 -22.991152 0.630995
19.433634 -23.160103 -0.633299
19.064615 -22.720324 -0.207064
18.984482 -22.826357 0.207274
18.993567 -22.837280 0.622199
19.126217 -23.409319 0.211043
22.131493 -27.087595 0.244204
19.116161 -23.397013 0.632880
19.321787 -24.074448 0.215512
18.804874 -23.430389 0.629320
18.993340 -24.092936 0.214185
19.169134 -24.315931 0.648587
19.070103 -24.629379 0.217466
19.823112 -25.601904 0.226053
19.641745 -25.367664 0.672042
19.611048 -25.789837 0.226193
0.151872 -0.210963 0.005445
0.153865 -0.221796 0.005654
0.155556 -0.232806 0.001955
0.138862 -0.207822 0.005236
0.148036 -0.225792 0.001885
0.126080 -0.192304 0.004817
0.124421 -0.193434 0.001606
0.162257 -0.252256 0.006283
0.128064 -0.202970 0.001676
0.117369 -0.186019 0.004607
0.126288 -0.204080 0.001676
0.136786 -0.221043 0.005445
0.129690 -0.213723 0.001745
0.119292 -0.196587 0.004817
0.117595 -0.197659 0.001606
0.127795 -0.214804 0.005236
0.110806 -0.190002 0.004607