# This PCD file was generated using the MATLAB® pcwrite function
# from Computer Vision System Toolbox®.
# .PCD v.7 - Point Cloud Data file format
VERSION .7
FIELDS x y z
SIZE 4 4 4
TYPE F F F
COUNT 1 1 1
WIDTH 847
HEIGHT 1
VIEWPOINT 0 0 0 1 0 0 0
POINTS 847
DATA ascii
26.358383 29.792732 -0.277715
26.692455 29.644976 -0.835603
26.818102 29.784519 -0.279809
27.281103 29.772100 -0.845864
27.408028 29.910612 -0.283230
27.785337 29.796127 -0.853404
28.559135 30.095049 -0.289652
28.912285 29.939548 -0.871833
29.105476 30.139603 -0.292515
29.487793 30.006996 -0.881257
29.675776 30.198288 -0.295587
27.173450 27.173450 -0.268290
27.304371 26.831930 -0.801885
27.238371 26.767073 -0.266614
27.393644 26.453733 -0.797697
27.363020 26.424160 -0.265567
27.420389 26.020979 -0.791833
27.367708 25.970985 -0.263403
27.478245 25.623877 -0.787016
27.417782 25.567495 -0.261727
27.531269 25.227760 -0.782199
27.492401 25.192144 -0.260331
27.661215 24.906269 -0.779686
27.622021 24.870979 -0.259493
27.697796 24.504940 -0.774660
27.658260 24.469961 -0.257818
27.759676 24.131119 -0.770472
27.719807 24.096460 -0.256422
27.786743 23.732121 -0.765445
27.746538 23.697783 -0.254746
27.870243 23.385912 -0.762095
27.768435 23.300484 -0.253071
27.471525 22.645779 -0.745760
27.492355 21.868406 -0.245252
28.007639 21.881966 -0.744503
27.753063 21.683069 -0.245880
28.134071 21.588032 -0.742828
28.068157 21.537455 -0.246997
28.281466 21.311613 -0.741781
28.342884 21.357895 -0.247765
28.249372 20.903435 -0.736126
27.909229 20.651743 -0.242389
28.042467 20.374044 -0.726074
27.821417 20.213442 -0.240086
28.154079 20.082109 -0.724398
28.029314 19.993116 -0.240365
28.137188 19.701870 -0.239806
28.261330 19.423473 -0.718325
28.357491 19.489563 -0.240225
28.471195 19.204063 -0.719372
28.402136 19.157482 -0.239178
28.379248 18.783815 -0.712880
28.226347 18.682611 -0.236316
28.366003 18.421097 -0.708482
28.220577 18.326656 -0.234919
28.483515 18.146000 -0.707435
28.345695 18.058199 -0.234640
28.238163 17.816954 0.233104
28.097372 17.728121 0.695917
28.513603 17.817276 -0.704294
28.434361 17.767759 -0.234082
28.562635 17.675095 0.234501
28.463549 17.613779 0.701152
28.463411 17.442400 -0.699267
28.596855 17.524176 -0.234151
28.579008 17.342167 0.233384
28.479416 17.281734 0.697801
28.725946 17.260290 -0.701990
28.680119 17.232754 -0.233593
28.626129 17.030758 0.232546
28.534628 16.976320 0.695498
28.772102 16.948063 -0.699477
28.691551 16.900616 -0.232476
28.644087 16.704739 0.231499
28.569412 16.661188 0.692775
28.849638 16.656345 -0.697801
28.768663 16.609594 -0.231917
28.684589 16.394594 0.230661
28.618237 16.356670 0.690472
28.819859 16.305492 -0.693613
28.703630 16.239733 -0.230242
28.756767 16.104563 0.230102
28.690100 16.067228 0.688796
28.926075 16.033985 -0.692775
28.844255 15.988631 -0.230242
28.782238 15.790477 0.229195
28.724035 15.758545 0.686283
28.924314 15.704621 -0.689424
28.842075 15.659969 -0.229125
28.857277 15.505574 0.228706
28.790003 15.469426 0.684608
28.919020 15.376515 -0.686074
28.880512 15.356041 -0.228357
28.849894 15.178663 0.227589
28.764639 15.133808 0.680838
31.427866 16.535000 0.743875
29.016630 15.105101 -0.685236
28.933588 15.061872 -0.227729
29.292400 15.086577 0.230033
32.290909 16.630911 0.760838
31.748508 16.176672 -0.746388
32.066544 16.338720 -0.251256
29.467587 14.852886 0.230382
31.941078 16.099628 0.249720
33.015118 16.640989 0.774451
32.604256 16.255882 -0.763142
32.780647 16.343828 -0.255724
29.335993 14.466910 0.228357
33.219357 16.381973 0.258586
33.185982 16.365515 0.775079
33.032421 16.110989 -0.769843
33.380398 16.280708 -0.259284
29.199924 14.084372 0.226332
33.397076 16.108837 0.258865
33.327530 16.075293 0.775079
33.577831 16.015804 -0.779267
33.530228 15.993097 -0.259354
29.077524 13.713851 0.224448
33.464024 15.782659 0.258307
33.358032 15.732670 0.772566
26.449322 12.333522 -0.611309
33.634766 15.684150 -0.777383
33.596012 15.666078 -0.258795
33.536911 15.460728 0.257818
33.466816 15.428413 0.771938
33.743061 15.377599 -0.776754
33.667747 15.343276 -0.258307
33.624966 15.146942 0.257469
33.518139 15.098820 0.770053
33.812035 15.054089 -0.775288
33.763817 15.032620 -0.258027
33.655182 14.808635 0.256701
33.547958 14.761456 0.767749
33.896275 14.738520 -0.774241
33.811180 14.701520 -0.257399
33.709629 14.482800 0.256142
33.638756 14.452350 0.766911
26.734802 11.348249 -0.608377
33.836933 14.362926 -0.256631
33.751732 14.153276 0.255514
33.680614 14.123453 0.765027
26.638842 11.034170 -0.603979
26.717945 11.066936 -0.201898
29.683525 12.295319 -0.224308
33.896313 14.040313 -0.256142
33.772148 13.816551 0.254746
33.839592 13.844143 0.765864
26.650690 10.767577 -0.602095
34.001644 13.737556 -0.768168
29.771149 12.028324 -0.224168
33.947163 13.543544 0.255165
33.921970 13.533494 0.765027
34.166740 13.458637 -0.769215
30.200619 11.896340 -0.226612
31.976410 12.434946 0.239527
33.973553 13.211593 0.763561
32.714817 12.558042 -0.734032
32.637177 12.528238 -0.244065
32.897255 12.463655 0.245601
34.012756 12.886281 0.761885
32.823158 12.272077 -0.734032
32.782726 12.256960 -0.244344
34.158714 12.601815 0.254188
34.227093 12.627042 0.764189
33.906071 12.340800 -0.755812
34.391911 12.517632 -0.255514
34.380322 12.343797 0.255025
34.307751 12.317741 0.763561
34.587357 12.248025 -0.768587
34.499836 12.217033 -0.255514
34.411205 12.016932 0.254467
34.376183 12.004700 0.762723
34.645657 11.929456 -0.767540
34.567318 11.902482 -0.255235
34.439011 11.690469 0.253908
34.403893 11.678548 0.761048
34.644146 11.591769 -0.765236
34.480209 11.536916 -0.253839
34.530220 11.386358 0.253839
34.457024 11.362222 0.760000
34.743984 11.289004 -0.765236
34.655655 11.260304 -0.254397
34.590172 11.072401 0.253559
34.554863 11.061099 0.760000
34.793499 10.970348 -0.764189
34.704914 10.942417 -0.254048
34.609081 10.746405 0.253001
34.573689 10.735415 0.758325
34.811420 10.642920 -0.762514
34.760830 10.627453 -0.253769
34.672813 10.435332 0.252791
34.589466 10.410248 0.756650
34.912556 10.341570 -0.762723
34.775543 10.300985 -0.253210
34.714558 10.118371 0.252442
34.640602 10.096814 0.755812
34.876537 10.000686 -0.760000
34.835274 9.988854 -0.253001
34.801533 9.815047 0.252442
34.727390 9.794137 0.755812
34.972115 9.698626 -0.760210
34.911480 9.681810 -0.252931
34.808678 9.489935 0.251884
34.772957 9.480196 0.754974
35.007133 9.380133 -0.759163
34.965664 9.369021 -0.252722
34.890167 9.185815 0.251884
34.815685 9.166205 0.754137
35.048939 9.064272 -0.758325
34.997684 9.051017 -0.252373
34.968998 8.880995 0.251884
34.894352 8.862036 0.754137
35.126701 8.758071 -0.758325
35.075336 8.745263 -0.252373
35.006313 8.565990 0.251605
34.902378 8.540558 0.752671
35.201794 8.451202 -0.758325
35.150314 8.438845 -0.252373
35.079735 8.260180 0.251605
34.965847 8.233364 0.752461
35.235237 8.134695 -0.757487
35.183647 8.122785 -0.252093
35.111469 7.944914 0.251325
34.997360 7.919094 0.751623
35.304882 7.826904 -0.757487
35.175087 7.798129 -0.251535
35.179462 7.638210 0.251325
35.065132 7.613387 0.751623
35.332722 7.510202 -0.756650
35.280926 7.499192 -0.251814
35.244778 7.330925 0.251325
35.130238 7.307099 0.751623
35.436104 7.209557 -0.757487
35.305828 7.183052 -0.251535
35.228951 7.007473 0.250767
35.153442 6.992454 0.750786
35.458412 6.892417 -0.756650
35.376980 6.876589 -0.251605
35.288757 6.699780 0.250767
35.252411 6.692880 0.751623
35.556530 6.590014 -0.757487
35.465141 6.573075 -0.251814
35.345879 6.391576 0.250767
35.270123 6.377877 0.750786
35.612686 6.279477 -0.757487
35.481758 6.256392 -0.251535
35.449589 6.091353 0.251116
35.363850 6.076621 0.751623
35.626682 5.961862 -0.756650
35.535004 5.946520 -0.251535
35.452045 5.773732 0.250767
35.376060 5.761357 0.750786
35.716854 5.656994 -0.757487
35.634926 5.644018 -0.251884
35.550499 5.471745 0.251116
35.464516 5.458511 0.751623
35.725307 5.339183 -0.756650
35.643265 5.326921 -0.251605
35.547413 5.154130 0.250767
35.471222 5.143082 0.750786
35.770538 5.027221 -0.756650
35.688393 5.015676 -0.251605
35.591034 4.843728 0.250767
35.514751 4.833345 0.750786
35.852695 4.720097 -0.757487
35.770458 4.709270 -0.251884
35.631950 4.532957 0.250767
35.555576 4.523241 0.750786
35.852829 4.402174 -0.756650
35.770493 4.392064 -0.251605
35.719803 4.227717 0.251116
35.593697 4.212791 0.750786
35.929611 4.093662 -0.757487
35.886940 4.088800 -0.252163
35.785156 3.919112 0.251325
35.718548 3.911817 0.752671
35.963966 3.779965 -0.757487
35.921257 3.775476 -0.252163
35.817993 3.606682 0.251325
35.751328 3.599969 0.752671
36.035393 3.469814 -0.758325
35.942883 3.460906 -0.252093
35.887936 3.297638 0.251605
35.771423 3.286932 0.752461
36.064301 3.155217 -0.758325
36.011562 3.150603 -0.252373
35.915344 2.984335 0.251605
35.798744 2.974646 0.752461
36.130329 2.843518 -0.759163
36.037682 2.836227 -0.252373
35.979908 2.673769 0.251884
35.913074 2.668802 0.754346
36.153767 2.528118 -0.759163
36.110939 2.525123 -0.252722
36.051765 2.362957 0.252233
35.964924 2.357266 0.754974
36.224346 2.215576 -0.760210
36.171524 2.212345 -0.253001
36.071011 2.048260 0.252233
35.984127 2.043327 0.754974
36.312191 1.903041 -0.761676
36.189453 1.896609 -0.253001
36.087513 1.733407 0.252233
33.324261 1.600679 0.698849
36.060505 1.732110 0.756231
36.367367 1.587834 -0.762514
33.537231 1.464267 -0.234361
36.304527 1.585090 -0.253699
33.283508 1.307713 0.232546
33.177120 1.303532 0.695498
33.532200 1.170970 -0.702828
33.398827 1.166313 -0.233314
33.223686 1.015075 0.232057
33.147259 1.012740 0.694660
33.351250 0.873333 -0.698849
33.257790 0.870886 -0.232267
33.031334 0.720746 0.230661
32.954926 0.719079 0.690472
33.237644 0.580165 -0.696335
33.134144 0.578359 -0.231359
32.956371 0.431423 0.230102
32.879971 0.430422 0.688796
33.361412 0.291141 -0.698849
33.027939 0.288230 -0.230591
31.388937 0.136961 0.219142
32.798889 0.143113 0.228985
32.762501 0.142954 0.686283
33.432667 0.000000 -0.700315
33.109192 0.000000 -0.231150
31.388937 -0.136961 0.219142
32.908886 -0.143593 0.229753
32.682518 -0.142605 0.684608
33.551361 -0.292798 -0.702828
33.267921 -0.290325 -0.232267
31.276558 -0.409433 0.218374
33.076359 -0.432993 0.230940
31.240469 -0.408960 0.654451
32.789997 -0.429245 0.686911
31.438314 -0.548758 -0.658639
33.617504 -0.586796 -0.704294
31.344461 -0.547120 -0.218863
33.184135 -0.579231 -0.231708
31.231804 -0.681480 0.218095
33.091316 -0.722055 0.231080
31.305679 -0.683092 0.655917
32.904949 -0.717988 0.689424
31.352373 -0.820991 -0.656964
33.571125 -0.879091 -0.703456
31.348490 -0.820889 -0.218932
33.307770 -0.872195 -0.232616
31.194683 -0.953084 0.217885
33.123737 -1.012022 0.231359
29.389835 -0.897941 0.615917
31.238567 -0.954425 0.654660
32.887436 -1.004802 0.689215
31.294056 -1.092813 -0.655917
32.952682 -1.150733 -0.690681
31.280170 -1.092328 -0.218513
33.418816 -1.167011 -0.233453
31.105242 -1.222128 0.217327
29.580683 -1.162228 0.620105
31.338940 -1.231310 0.656964
31.253363 -1.364551 -0.655288
33.940212 -1.481862 -0.711623
31.319399 -1.367435 -0.218863
33.177582 -1.448565 -0.231848
30.933580 -1.485846 0.216210
33.091042 -1.589477 0.231289
29.419621 -1.413126 0.616964
30.990662 -1.624152 -0.650053
34.005863 -1.782172 -0.713299
29.658575 -1.554340 -0.207343
31.246357 -1.637552 -0.218444
32.983929 -1.728614 -0.230591
29.401918 -1.669562 0.205598
29.535931 -1.677172 0.619686
29.418560 -1.799316 -0.617383
31.244747 -1.911011 -0.655707
34.078827 -2.084350 -0.715184
29.514126 -1.805161 -0.206436
31.200933 -1.908331 -0.218234
32.698101 -1.999901 -0.228706
29.306402 -1.920843 0.205040
29.450335 -1.930277 0.618220
31.325899 -2.053208 0.657592
28.494154 -1.992505 -0.598325
29.996019 -2.097526 -0.209927
29.527859 -2.194299 0.206715
34.125069 -2.535931 0.238899
29.113319 -2.163493 0.611519
36.790462 -2.734004 0.772775
27.917530 -2.197157 -0.586597
34.236599 -2.694479 -0.719372
29.896822 -2.352931 -0.209368
32.658215 -2.570257 -0.228706
34.263214 -2.696573 -0.239946
29.995892 -2.492466 0.210136
36.961712 -3.071282 0.258935
28.943878 -2.405051 0.608377
30.677523 -2.549106 0.644817
36.864838 -3.063232 0.774870
27.548702 -2.410199 -0.579267
27.016142 -2.363606 -0.189332
29.426874 -2.574518 -0.206226
27.194769 -2.498848 0.190658
36.923546 -3.392797 0.258865
28.991480 -2.663943 0.609843
30.554550 -2.807569 0.642723
36.936260 -3.393965 0.776964
27.476862 -2.645721 -0.578220
37.159943 -3.578095 -0.781990
26.994488 -2.599273 -0.189332
37.077606 -3.570167 -0.260052
27.072433 -2.726051 0.189960
37.011929 -3.726905 0.259703
27.892799 -2.808657 0.587225
27.243923 -2.863452 -0.573822
27.080172 -2.846241 -0.190100
37.144489 -3.904043 -0.260750
27.077435 -2.965461 0.190170
37.067459 -4.059547 0.260331
27.131786 -2.971414 0.571728
27.297367 -3.110142 -0.575498
27.262947 -3.106220 -0.191566
37.089134 -4.225773 -0.260610
27.219343 -3.221622 0.191356
37.169647 -4.399318 0.261309
26.638184 -3.152837 0.561885
27.279110 -3.349453 -0.575707
27.254654 -3.346451 -0.191705
27.140594 -3.452720 0.191007
37.179440 -4.729822 0.261658
27.115467 -3.449523 0.572566
29.188303 -3.713221 0.616335
31.092535 -3.955470 0.656545
27.684982 -3.644797 -0.584922
29.746735 -3.916232 -0.628482
27.194670 -3.580246 -0.191496
26.812178 -3.648977 0.188913
26.767324 -3.642873 0.565864
37.218666 -5.065238 0.786807
26.879881 -3.777721 -0.568587
26.974245 -3.790983 -0.190170
26.769417 -3.881381 0.188843
26.408003 -3.828978 0.558953
37.242310 -5.399878 0.788273
26.559139 -3.969290 -0.562513
26.979694 -4.032143 -0.190449
29.877441 -4.465213 -0.210904
26.655460 -4.102668 0.188285
26.531687 -4.083617 0.562304
26.957977 -4.269724 -0.571728
37.632549 -5.960410 -0.798116
27.180521 -4.304972 -0.192124
26.589035 -4.330299 0.188075
26.662792 -4.342311 0.565864
28.429129 -4.629978 0.603351
26.899971 -4.501511 -0.571309
26.905216 -4.502389 -0.190449
37.596291 -6.291461 -0.266126
26.776905 -4.601114 0.189681
26.623884 -4.574820 0.565864
26.672590 -4.703097 -0.567330
26.628553 -4.695333 -0.188773
26.420849 -4.777668 0.187447
26.573111 -4.805201 0.565655
37.464050 -6.774604 0.797487
26.984428 -5.001268 -0.574869
37.729046 -6.992665 -0.803770
26.409584 -4.894727 -0.187517
26.063774 -4.948362 0.185213
26.618567 -5.053693 0.567540
26.557007 -5.162159 -0.566702
26.336416 -5.119281 -0.187307
26.480556 -5.267310 0.188494
26.338116 -5.238977 0.562513
26.510946 -5.393713 -0.566702
26.065361 -5.303058 -0.185702
29.014864 -5.903141 -0.206715
26.580437 -5.528739 0.189541
26.487160 -5.509337 0.566702
27.166981 -5.774520 -0.581780
27.133154 -5.767330 -0.193660
26.570267 -5.768970 0.189820
29.755962 -6.460653 0.212579
26.672558 -5.791180 0.571728
37.663998 -8.177655 0.807330
27.681683 -6.136881 -0.593927
27.374674 -6.068819 -0.195755
27.445463 -6.210275 0.196453
26.630756 -6.025925 0.571938
37.747219 -8.541324 0.810681
27.705008 -6.396205 -0.595602
32.341991 -7.466737 -0.695288
27.729897 -6.401951 -0.198687
37.970276 -8.766129 -0.272060
26.251398 -6.181384 0.188285
26.207354 -6.171013 0.563979
27.433544 -6.459742 0.590367
30.107693 -7.228217 -0.648587
38.108540 -9.149052 -0.820943
29.919094 -7.182939 -0.214813
32.067978 -7.698841 -0.230242
26.468426 -6.476783 0.190239
26.239906 -6.420864 0.565864
27.327236 -6.813445 -0.589948
30.014366 -7.483422 -0.647958
38.143661 -9.510283 -0.823456
26.866835 -6.698654 -0.193311
32.106304 -8.005000 -0.231010
38.092880 -9.497622 -0.274084
26.837349 -6.815819 0.193311
26.512342 -6.733277 0.572985
26.850525 -6.944018 -0.580943
26.904167 -6.957891 -0.194009
38.105362 -9.854717 -0.274782
26.873552 -7.075216 0.194009
26.713619 -7.033109 0.578639
26.673019 -7.147014 -0.578430
28.305077 -7.584322 -0.613822
26.881062 -7.202758 -0.194288
28.639004 -7.673798 -0.206994
32.415680 -8.685756 -0.234291
26.752901 -7.293678 0.193590
28.271715 -7.707754 0.613822
26.619270 -7.382177 -0.578639
38.401886 -10.649785 -0.834765
26.643732 -7.388961 -0.193032
26.774853 -7.551289 0.194219
27.674141 -7.804915 0.602304
29.646742 -8.361246 0.645236
31.696321 -8.939287 0.689843
27.418781 -7.862209 -0.597487
27.010796 -7.745221 -0.196173
27.696764 -8.072870 0.201409
27.192247 -7.925817 0.593299
29.678230 -8.650415 0.647540
27.147820 -8.041551 -0.593089
27.143526 -8.040278 -0.197639
27.433750 -8.256622 0.200013
27.208210 -8.188742 0.595184
30.367502 -9.139581 0.664294
27.267830 -8.336613 -0.597278
27.846916 -8.513657 -0.203294
38.452076 -11.755980 -0.280716
27.733103 -8.611358 0.202736
29.614447 -9.195530 0.216489
38.419518 -11.929577 0.280856
27.584475 -8.565207 0.605026
29.560932 -9.178914 0.648377
27.689867 -8.730581 -0.608168
27.790634 -8.762354 -0.203434
38.529224 -12.148218 -0.282043
27.675947 -8.859140 0.202875
29.380695 -9.404835 0.215372
27.670551 -8.857413 0.608587
27.574591 -8.959527 -0.607330
31.064201 -10.093371 -0.684189
38.861156 -12.626755 -0.855917
28.188627 -9.159040 -0.206925
38.564404 -12.530334 -0.283090
28.062925 -9.253765 0.206296
29.259518 -9.648342 0.215093
38.528355 -12.704746 0.283230
28.342302 -9.345889 0.625131
38.340439 -12.642781 0.845655
25.703417 -8.600243 -0.567749
29.031301 -9.713737 -0.641257
30.974939 -10.364070 -0.684189
25.205828 -8.433752 -0.185562
27.756758 -9.287281 -0.204341
27.867476 -9.459733 0.205458
38.586464 -13.098339 0.284486
28.875034 -9.801754 0.638744
30.986225 -10.518406 0.685445
25.551762 -8.798177 -0.566074
28.680742 -9.875571 -0.635393
25.528379 -8.790126 -0.188494
25.612511 -8.944289 0.189402
26.447573 -9.235906 0.586807
28.863911 -10.079729 0.640419
25.869835 -9.160989 -0.574869
30.742222 -10.886392 -0.683142
25.686356 -9.096015 -0.190239
25.834652 -9.275588 0.191636
26.328329 -9.452836 0.585969
26.230463 -9.547108 -0.584712
25.850313 -9.408745 -0.192054
26.015411 -9.597592 0.193590
26.038479 -9.606102 0.581362
29.133831 -10.748038 0.650472
26.352175 -9.852674 -0.589320
25.898355 -9.682998 -0.193032
25.865210 -9.799451 0.193102
27.557762 -10.440702 0.205738
25.897564 -9.811709 0.580105
25.798504 -9.903118 -0.578848
27.459913 -10.540873 -0.616126
25.831541 -9.915799 -0.193171
27.605301 -10.596682 -0.206436
26.067625 -10.137145 0.195266
27.335125 -10.630049 0.204760
26.071861 -10.138792 0.585969
25.869238 -10.190164 -0.582409
27.190142 -10.710482 -0.612147
28.557554 -11.249120 -0.642932
25.958017 -10.225135 -0.194777
27.204746 -10.716235 -0.204132
38.964939 -15.348698 -0.292375
26.656185 -10.634739 0.200362
27.412445 -10.936457 0.618220
26.446754 -10.685183 -0.597487
39.109306 -15.801186 -0.883561
26.145948 -10.563648 -0.196872
26.488323 -10.836659 0.199804
26.001984 -10.637692 0.588482
26.269371 -10.881130 -0.595602
26.256016 -10.875598 -0.198407
26.042320 -10.920451 0.197151
26.064903 -10.929921 0.592042
26.394289 -11.203712 -0.600629
26.344208 -11.182452 -0.199804
26.763735 -11.498609 0.203364
26.473755 -11.374022 0.603561
38.975761 -16.745308 0.888587
27.340734 -11.888089 -0.624503
30.788124 -13.387057 -0.703246
39.342419 -17.106569 -0.898639
26.869205 -11.683063 -0.204551
26.882044 -11.828382 0.205040
26.748688 -11.769704 0.612147
27.190283 -12.105894 -0.623456
29.080908 -12.947655 -0.666807
39.438240 -17.559036 -0.904294
26.958069 -12.002506 -0.206017
26.814268 -12.078947 0.205319
26.745232 -12.047849 0.614451
27.265558 -12.425631 -0.627644
26.633917 -12.137775 -0.204341
39.354866 -17.935045 -0.301940
27.180063 -12.530181 0.208949
39.285316 -18.110779 0.302009
26.829744 -12.368682 0.618849
26.730217 -12.464504 -0.617801
27.469519 -12.809247 -0.211602
39.450615 -18.396124 -0.303894
27.458590 -12.950312 0.211951
39.315708 -18.542492 0.303475
29.496857 -13.911620 0.683142
39.235703 -18.504759 0.908692
26.791880 -12.779071 -0.621780
29.002729 -13.833592 -0.673089
27.528181 -13.130268 -0.212928
39.432991 -18.808571 -0.305011
39.377567 -18.993484 0.305221
39.270836 -18.942003 0.913299
26.984865 -13.161398 -0.628901
39.646095 -19.336693 -0.923980
39.528000 -19.279093 -0.307036
39.425564 -19.442537 0.306896
39.283379 -19.372417 0.917487
39.735317 -19.811298 -0.930053
39.617779 -19.752695 -0.309060
39.504425 -19.911869 0.308851
39.398518 -19.858488 0.924189
39.774715 -20.266230 -0.935079
39.657734 -20.206625 -0.310736
39.578079 -20.384050 0.310806
39.472591 -20.329721 0.930053
39.809185 -20.723349 -0.940105
39.728249 -20.681217 -0.312691
39.646481 -20.859022 0.312760
39.541424 -20.803749 0.935917
39.900478 -21.215460 -0.946597
39.828796 -21.177345 -0.314925
39.744820 -21.355663 0.314994
39.604969 -21.280518 0.941781
39.994980 -21.715504 -0.953299
39.897324 -21.662479 -0.316949
39.802425 -21.836357 0.316949
39.663185 -21.759968 0.947644
40.048798 -22.199411 -0.959163
39.934162 -22.135868 -0.318764
39.854645 -22.319674 0.318904
39.750923 -22.261587 0.954346
40.132000 -22.705593 -0.965864
40.026684 -22.646008 -0.321068
39.936172 -22.825403 0.321138
39.798183 -22.746536 0.960210
40.183426 -23.199911 -0.971938
40.035378 -23.114437 -0.322744
40.046436 -23.354393 0.323651
39.874538 -23.254143 0.966912
40.280945 -23.727289 -0.979268
40.168171 -23.660862 -0.325466
40.081738 -23.846128 0.325606
39.979412 -23.785250 0.974451
40.346584 -24.242674 -0.985969
40.251595 -24.185598 -0.327840
40.179878 -24.381748 0.328119
40.035290 -24.294010 0.980943
40.474476 -24.802792 -0.994346
40.303318 -24.697905 -0.330004
40.271702 -24.920883 0.330632
40.102318 -24.816067 0.987854
40.527809 -25.324585 -1.001048
40.391548 -25.239439 -0.332517
40.289490 -25.420776 0.332587
40.188629 -25.357136 0.995393
40.617256 -25.876045 -1.008796
30.977013 -19.734533 -0.256422
40.464935 -25.779007 -0.334961
40.402531 -25.987780 0.335380
40.302158 -25.923220 1.003770
40.658218 -26.403755 -1.015498
40.548733 -26.332655 -0.337544
40.508713 -26.558678 0.338172
40.375401 -26.471273 1.011310
40.718052 -26.950691 -1.022828
40.617588 -26.884195 -0.340057
40.566414 -27.105612 0.340616
40.433811 -27.017010 1.018639
40.812859 -27.528620 -1.031205
40.713043 -27.461294 -0.342850
40.625896 -27.661188 0.343129
40.502277 -27.577021 1.026388
40.933609 -28.132891 -1.040419
40.826218 -28.059082 -0.345852
40.719830 -28.248352 0.345991
40.646175 -28.197254 1.036231
41.022327 -28.724142 -1.049006
40.907455 -28.643709 -0.348644
40.822918 -28.850784 0.348993
40.692490 -28.758608 1.043770
41.120094 -29.330679 -1.058011
40.981575 -29.231874 -0.351437
40.894215 -29.439623 0.351786
40.756420 -29.340424 1.051938
41.186111 -29.923460 -1.066388
41.048523 -29.823498 -0.354229
40.958324 -30.031885 0.354578
40.797146 -29.913706 1.059686
41.285072 -30.549345 -1.075812
41.108238 -30.418495 -0.357022
41.015182 -30.627489 0.357371
32.403610 -24.196922 0.847121
40.951111 -30.579645 1.070577
41.392185 -31.191248 -1.085655
41.184631 -31.034845 -0.360024
41.096581 -31.250566 0.360442
40.969196 -31.153700 1.078116
41.467415 -31.819067 -1.094870
41.300968 -31.691347 -0.363444
41.170204 -31.877377 0.363514
32.047523 -24.813845 0.849006
41.035694 -31.773230 1.087121
41.495422 -32.419777 -1.103037
41.369556 -32.321442 -0.366516
41.141750 -32.433540 0.365748
31.586370 -24.900688 0.842514
40.701900 -32.086792 1.085655
41.649097 -33.129189 -1.114765
41.430267 -32.955120 -0.369588
40.389233 -32.415787 0.361559
40.264400 -32.315598 1.081467
41.731354 -33.793385 -1.124817
41.545212 -33.642647 -0.373218
39.779568 -32.501270 1.076022
41.805164 -34.461517 -1.134870
41.674427 -34.353748 -0.377058
39.063972 -32.489162 1.064294
41.962372 -35.210609 -1.147435
41.771385 -35.050354 -0.380688
37.969891 -32.143883 0.347318
42.018421 -35.887123 -1.157488
31.700552 -27.074829 -0.291049
30.347313 -26.148918 0.279669
38.347103 -33.041977 1.060315
42.065830 -36.567268 -1.167540
36.383663 -31.627834 -0.336567
38.027233 -33.348988 1.059477
31.672565 -28.021519 -0.295238
35.379807 -31.301409 -0.329795
34.817650 -31.075939 0.325815
41.762592 -37.274536 1.172566
31.190378 -28.083942 -0.879163
39.660370 -35.710358 -1.117906
35.172188 -31.669180 -0.330423
34.389698 -31.237400 0.324349
34.146175 -31.016201 0.966283
31.069424 -28.469881 -0.882723
42.023785 -38.507702 -0.397932
30.614532 -28.299784 0.873299
33.617252 -31.075470 0.958953
42.278526 -39.425365 -0.403587
30.554417 -28.742725 0.292864
33.082638 -31.121037 0.951414
30.778137 -29.207361 -0.888796
42.484142 -40.315945 -0.408892
30.475792 -29.174225 0.294539
29.003075 -28.007942 -0.281484
30.105568 -29.584660 -0.294679
34.194851 -34.194851 -0.337614
30.159256 -30.423599 0.299077
29.403702 -29.921425 -0.878744
38.450947 -39.127968 -0.382992
30.192657 -30.993629 0.302079
25.675888 -26.588160 -0.774241
28.848459 -29.873453 -0.289932
28.435234 -29.964485 -0.288396
37.769096 -39.800323 -0.383062
30.100338 -31.997601 0.920210
28.644468 -30.717430 -0.879791
25.396999 -27.234947 -0.259982
28.759171 -30.840433 -0.294400
28.746511 -31.097801 0.295656
29.168457 -31.554260 0.900105
43.270500 -47.221462 -0.447150
30.410410 -33.479252 0.315762
28.663433 -31.555979 0.892985
43.338531 -48.132317 -0.452176
28.060757 -31.439423 0.882723
30.796930 -34.505047 0.968796
30.698439 -34.698273 -0.323442
27.594162 -31.465113 0.876650
27.214111 -31.583532 0.873299
26.087046 -31.928949 0.863665
23.334723 -29.599955 0.789529
0.134374 -0.186657 0.001606
0.134348 -0.186621 0.004817
0.176695 -0.254704 0.002164
0.159564 -0.230011 0.005864
0.151924 -0.223130 0.005654
0.133334 -0.199548 0.001676
0.166635 -0.249386 0.006283
0.148007 -0.225748 0.005654
0.151469 -0.235485 0.001955
0.162257 -0.252256 0.006283
0.128064 -0.202970 0.001676
0.117369 -0.186019 0.004607
0.147336 -0.238093 0.001955
0.136786 -0.221043 0.005445
0.114127 -0.188076 0.001536
0.119292 -0.196587 0.004817
0.117595 -0.197659 0.001606
0.102236 -0.171844 0.004188
0.110806 -0.190002 0.004607