# This PCD file was generated using the MATLAB® pcwrite function
# from Computer Vision System Toolbox®.
# .PCD v.7 - Point Cloud Data file format
VERSION .7
FIELDS x y z
SIZE 4 4 4
TYPE F F F
COUNT 1 1 1
WIDTH 771
HEIGHT 1
VIEWPOINT 0 0 0 1 0 0 0
POINTS 771
DATA ascii
4.942061 5.585984 -0.156230
4.930411 5.475776 -0.154346
4.951446 5.499138 -0.051661
4.950990 5.403058 -0.153508
4.965467 5.418856 -0.051312
4.950222 5.308464 -0.152042
4.958007 5.316812 -0.050754
4.961948 5.228802 -0.150995
4.983566 5.251583 -0.050544
4.944883 5.120576 -0.149110
4.966686 5.143154 -0.049916
4.933319 5.020182 -0.147435
4.990352 5.078219 -0.049707
4.948662 4.948662 -0.146597
4.956698 4.956698 -0.048939
4.941741 4.856236 -0.145131
4.956970 4.871201 -0.048520
4.947972 4.778202 -0.144084
4.948937 4.779133 -0.048031
4.967725 4.714195 -0.143456
4.990454 4.735764 -0.048031
4.972115 4.636572 -0.142408
4.980397 4.644296 -0.047542
4.938675 4.525462 -0.140314
4.983873 4.566878 -0.047193
4.896250 4.408604 -0.138011
4.919499 4.429537 -0.046216
4.927048 4.359084 -0.137801
4.995413 4.419568 -0.046565
4.949809 4.302804 -0.137382
4.958321 4.310203 -0.045867
4.964362 4.239965 -0.136754
4.980538 4.253781 -0.045727
4.924585 4.132218 -0.134660
4.963847 4.165162 -0.045239
4.945029 4.076367 -0.134241
4.992290 4.115326 -0.045169
4.879406 3.951265 -0.131518
4.911443 3.977208 -0.044122
4.944999 3.933430 -0.132356
5.008570 3.983997 -0.044680
4.939744 3.859351 -0.131309
4.980107 3.890886 -0.044122
4.949439 3.797838 -0.130681
5.005938 3.841191 -0.044052
4.942470 3.724418 -0.129634
4.951419 3.731162 -0.043284
4.982820 3.687093 -0.129843
5.023983 3.717552 -0.043633
4.966275 3.608210 -0.128586
4.951063 3.597158 -0.042725
4.948737 3.529900 -0.127330
4.957843 3.536395 -0.042516
4.971162 3.480845 -0.127120
4.980323 3.487260 -0.042446
4.987276 3.459796 0.042376
4.994518 3.464820 0.127330
4.960152 3.409018 -0.126073
5.010565 3.443666 -0.042446
4.959418 3.376747 0.041888
5.016299 3.415477 0.127120
4.956557 3.343240 -0.125236
4.974104 3.355076 -0.041888
4.963753 3.316674 0.041678
4.996037 3.338245 0.125864
4.968870 3.288823 -0.124817
4.994854 3.306022 -0.041818
4.950694 3.245817 0.041329
4.949728 3.245184 0.123979
4.988996 3.239892 -0.124607
4.998355 3.245970 -0.041608
4.953599 3.186262 0.041120
5.003085 3.218092 0.124607
4.941190 3.147885 -0.122723
4.984322 3.175363 -0.041259
4.972758 3.137577 0.041050
4.971789 3.136965 0.123141
4.976951 3.109944 -0.122932
5.020322 3.137046 -0.041329
4.974439 3.078276 0.040840
5.024479 3.109242 0.123770
4.978326 3.050722 -0.122304
4.970771 3.046093 -0.040701
4.958368 3.008811 0.040491
4.957401 3.008225 0.121466
4.961910 2.981416 -0.121257
4.980021 2.992298 -0.040561
5.001624 2.975653 0.040631
4.974872 2.959738 0.121257
4.944667 2.912631 -0.120209
5.005943 2.948726 -0.040561
5.018762 2.926856 0.040561
4.974601 2.901102 0.120628
4.969895 2.869370 -0.120209
4.953545 2.859930 -0.039933
4.974658 2.843251 0.040003
4.991048 2.852619 0.120419
4.872923 2.756967 -0.117278
5.021830 2.841215 -0.040282
4.999280 2.799731 0.040003
4.998306 2.799186 0.120000
4.992983 2.767656 -0.119581
4.967719 2.753652 -0.039654
4.988454 2.736759 0.039723
4.996246 2.741035 0.119372
4.920297 2.671503 -0.117278
4.912468 2.667253 -0.039025
4.976912 2.674191 0.039444
4.975941 2.673670 0.118325
4.996387 2.656626 -0.118534
4.917898 2.614893 -0.038886
4.964660 2.612034 0.039165
4.963692 2.611525 0.117487
4.983908 2.594458 -0.117696
5.002619 2.604199 -0.039374
4.978374 2.564031 0.039095
4.986292 2.568109 0.117487
4.979634 2.537250 -0.117068
5.025154 2.560444 -0.039374
5.009490 2.524991 0.039165
5.008513 2.524498 0.117487
4.938954 2.462472 -0.115602
4.966764 2.476337 -0.038746
5.031333 2.481179 0.039165
4.994485 2.463008 0.116649
4.987213 2.432426 -0.116230
5.033124 2.454818 -0.039095
4.989747 2.406768 0.038676
4.997779 2.410642 0.116230
4.981178 2.375900 -0.115602
4.991175 2.380668 -0.038606
5.001515 2.358868 0.038606
4.955327 2.337084 0.114764
4.956416 2.311215 -0.114555
4.966445 2.315892 -0.038257
4.994666 2.302572 0.038397
4.993692 2.302124 0.115183
4.921811 2.242998 -0.113298
5.031963 2.293198 -0.038606
4.959865 2.234256 0.037978
4.931551 2.221502 0.113298
4.959464 2.208096 -0.113717
4.969566 2.212593 -0.037978
4.988326 2.194916 0.038048
4.996505 2.198515 0.114346
4.914364 2.136826 -0.112251
4.988685 2.169142 -0.037978
4.961351 2.131565 0.037699
4.969570 2.135096 0.113298
4.923621 2.089953 -0.112042
4.933786 2.094268 -0.037420
4.988986 2.092055 0.037769
4.997233 2.095514 0.113508
4.950908 2.050733 -0.112251
5.035021 2.085574 -0.038048
5.007052 2.048439 0.037769
4.932049 2.017755 0.111623
4.894457 1.977489 -0.110576
4.913955 1.985367 -0.037001
4.959722 1.978729 0.037280
4.958755 1.978343 0.111833
4.911527 1.934702 -0.110576
4.940397 1.946074 -0.037070
5.004760 1.946245 0.037489
5.003785 1.945865 0.112461
4.956225 1.902516 -0.111204
4.966527 1.906471 -0.037140
5.021554 1.902496 0.037489
5.020575 1.902126 0.112461
4.841533 1.810175 -0.108272
4.936142 1.845548 -0.036791
4.991056 1.841298 0.037140
4.961944 1.830558 0.110785
4.866540 1.771276 -0.108482
4.858092 1.768201 -0.036093
4.978700 1.787536 0.036931
4.977729 1.787187 0.110785
4.910085 1.738752 -0.109110
4.986452 1.765795 -0.036931
4.994109 1.744021 0.036931
4.955380 1.730496 0.109948
4.915618 1.692583 -0.108901
4.954397 1.705936 -0.036582
4.971262 1.687516 0.036652
4.970293 1.687187 0.109948
4.854352 1.624243 -0.107225
4.969095 1.662636 -0.036582
5.023786 1.656596 0.036931
4.994322 1.646880 0.110157
4.868341 1.581820 -0.107225
4.907332 1.594489 -0.036023
4.999956 1.600499 0.036652
4.998981 1.600187 0.109948
4.901030 1.545289 -0.107644
4.930596 1.554611 -0.036093
5.013732 1.556805 0.036652
5.012755 1.556502 0.109948
4.895206 1.496615 -0.107225
4.972663 1.520296 -0.036303
4.979250 1.498584 0.036303
4.997426 1.504055 0.109319
4.908081 1.453840 -0.107225
4.985741 1.476844 -0.036303
5.040139 1.469067 0.036652
5.010361 1.460387 0.109319
4.949412 1.419221 -0.107853
4.959990 1.422254 -0.036023
4.975772 1.403313 0.036093
4.974802 1.403039 0.108272
4.874901 1.351930 -0.105969
4.924032 1.365555 -0.035674
4.987829 1.359838 0.036093
4.996502 1.362203 0.108482
5.002398 1.340389 -0.108482
4.984056 1.335474 -0.036023
4.999506 1.316260 0.036093
4.959857 1.305822 0.107435
4.917111 1.271652 -0.106387
4.995520 1.291929 -0.036023
5.010802 1.272581 0.036093
5.019515 1.274794 0.108482
4.928021 1.228694 -0.106387
5.006604 1.248287 -0.036023
5.021716 1.228806 0.036093
4.991603 1.221438 0.107644
4.870505 1.169305 -0.104922
4.978413 1.195211 -0.035744
4.983581 1.173477 0.035744
4.963145 1.168666 0.106806
4.831816 1.115512 -0.103874
4.910706 1.133726 -0.035186
4.993631 1.129943 0.035744
4.963404 1.123104 0.106597
4.919453 1.090616 -0.105550
4.998514 1.108144 -0.035744
4.973985 1.079958 0.035535
4.982786 1.081869 0.106806
4.958121 1.053881 -0.106178
4.968869 1.056166 -0.035465
5.012591 1.042620 0.035744
4.972460 1.034273 0.106387
4.976926 1.012567 -0.106387
4.968097 1.010771 -0.035395
4.992075 0.992986 0.035535
4.961685 0.986941 0.105969
4.975759 0.967189 -0.106178
5.025809 0.976918 -0.035744
5.000551 0.949384 0.035535
4.989753 0.947334 0.106387
4.974179 0.921910 -0.105969
5.024310 0.931201 -0.035674
5.008645 0.905711 0.035535
4.978154 0.900197 0.105969
4.942651 0.871523 -0.105131
4.963310 0.875165 -0.035186
4.976937 0.855194 0.035255
5.005527 0.860107 0.106387
4.969789 0.831657 -0.105550
4.980621 0.833470 -0.035255
5.023689 0.818160 0.035535
5.022710 0.818000 0.106597
4.957108 0.785129 -0.105131
4.977828 0.788410 -0.035186
4.991104 0.768204 0.035255
4.990131 0.768055 0.105759
4.943995 0.738885 -0.104712
5.024078 0.750854 -0.035465
5.037203 0.730360 0.035535
5.006538 0.725913 0.105969
4.940354 0.694321 -0.104503
4.951220 0.695849 -0.034906
5.003751 0.680981 0.035255
5.002775 0.680848 0.105759
4.956137 0.652488 -0.104712
5.036417 0.663057 -0.035465
5.049182 0.642337 0.035535
5.018444 0.638427 0.105969
4.981489 0.611650 -0.105131
4.962610 0.609332 -0.034906
5.014874 0.593549 0.035255
5.013896 0.593434 0.105759
4.927036 0.561365 -0.103874
5.047222 0.575058 -0.035465
5.019862 0.549764 0.035255
4.989069 0.546392 0.105131
4.991405 0.524618 -0.105131
4.972488 0.522630 -0.034906
5.014519 0.504936 0.035186
5.023489 0.505839 0.105759
4.975890 0.479124 -0.104712
5.026628 0.484009 -0.035255
5.028692 0.462072 0.035255
4.987888 0.458323 0.104922
4.969921 0.434812 -0.104503
4.980852 0.435768 -0.034906
5.032533 0.418171 0.035255
5.031552 0.418090 0.105759
4.943625 0.389072 -0.103874
5.034310 0.396209 -0.035255
4.996102 0.371275 0.034976
4.995128 0.371202 0.104922
4.976753 0.348008 -0.104503
4.987699 0.348774 -0.034906
5.029087 0.329624 0.035186
5.038083 0.330213 0.105759
4.969621 0.303955 -0.104293
5.040458 0.308288 -0.035255
5.041755 0.286292 0.035255
5.050754 0.286803 0.105969
4.952116 0.259529 -0.103874
4.993026 0.261673 -0.034906
5.044062 0.242284 0.035255
5.043078 0.242236 0.105759
4.954193 0.216305 -0.103874
5.025090 0.219400 -0.035116
5.006015 0.196687 0.034976
5.015029 0.197041 0.105131
4.915925 0.171668 -0.103037
4.926877 0.172050 -0.034418
5.047522 0.154216 0.035255
5.036544 0.153880 0.105550
4.927230 0.129024 -0.103246
5.008161 0.131143 -0.034976
5.008686 0.109290 0.034976
5.017704 0.109487 0.105131
4.918172 0.085847 -0.103037
4.899134 0.085515 -0.034208
5.009449 0.065577 0.034976
5.008472 0.065564 0.104922
4.928731 0.043012 -0.103246
4.959690 0.043283 -0.034627
5.009830 0.021860 0.034976
5.008853 0.021855 0.104922
4.948915 0.000000 -0.103665
4.959879 0.000000 -0.034627
5.009830 -0.021860 0.034976
5.008853 -0.021855 0.104922
4.938728 -0.043100 -0.103456
4.919693 -0.042934 -0.034348
5.049444 -0.066101 0.035255
5.008472 -0.065564 0.104922
4.958157 -0.086545 -0.103874
4.959124 -0.086562 -0.034627
5.008686 -0.109290 0.034976
5.007709 -0.109269 0.104922
4.977201 -0.130333 -0.104293
5.048146 -0.132190 -0.035255
5.087502 -0.155437 0.035535
5.016558 -0.153270 0.105131
4.985867 -0.174110 -0.104503
4.956858 -0.173097 -0.034627
5.006015 -0.196687 0.034976
5.005040 -0.196649 0.104922
4.924228 -0.214996 -0.103246
4.995120 -0.218092 -0.034906
5.044062 -0.242284 0.035255
5.043078 -0.242236 0.105759
4.912180 -0.257436 -0.103037
4.953082 -0.259580 -0.034627
5.031771 -0.285725 0.035186
5.030790 -0.285669 0.105550
4.949663 -0.302734 -0.103874
5.040458 -0.308288 -0.035255
5.039065 -0.330278 0.035255
4.998177 -0.327598 0.104922
4.976753 -0.348008 -0.104503
4.947797 -0.345984 -0.034627
5.035991 -0.374239 0.035255
5.035009 -0.374166 0.105759
4.953592 -0.389856 -0.104084
4.984465 -0.392286 -0.034906
5.072395 -0.421484 0.035535
5.041515 -0.418918 0.105969
4.999801 -0.437426 -0.105131
4.980852 -0.435768 -0.034906
5.028692 -0.462072 0.035255
5.027712 -0.461982 0.105759
4.946034 -0.476249 -0.104084
5.056489 -0.486885 -0.035465
5.064266 -0.509945 0.035535
5.033437 -0.506840 0.105969
4.961576 -0.521483 -0.104503
5.012268 -0.526811 -0.035186
5.019862 -0.549764 0.035255
5.018884 -0.549657 0.105759
4.976703 -0.567024 -0.104922
5.017416 -0.571662 -0.035255
5.054595 -0.598251 0.035535
5.023824 -0.594609 0.105969
4.951719 -0.607995 -0.104503
5.042012 -0.619081 -0.035465
5.049182 -0.642337 0.035535
5.008526 -0.637165 0.105759
4.966049 -0.653793 -0.104922
4.986846 -0.656531 -0.035116
5.043385 -0.686374 0.035535
5.012682 -0.682196 0.105969
4.910652 -0.690147 -0.103874
4.921512 -0.691673 -0.034697
5.037203 -0.730360 0.035535
5.026327 -0.728783 0.106387
4.963771 -0.741840 -0.105131
4.974628 -0.743463 -0.035116
5.030637 -0.774289 0.035535
5.069182 -0.780222 0.107435
5.036106 -0.797641 -0.106806
5.017334 -0.794668 -0.035465
5.023689 -0.818160 0.035535
5.012842 -0.816393 0.106387
4.940207 -0.826707 -0.104922
5.000346 -0.836771 -0.035395
5.016358 -0.861968 0.035535
5.054794 -0.868572 0.107435
4.962343 -0.874995 -0.105550
5.002701 -0.882111 -0.035465
5.008645 -0.905711 0.035535
4.997830 -0.903755 0.106387
4.954518 -0.918266 -0.105550
5.043975 -0.934845 -0.035814
5.039848 -0.956845 0.035814
5.038865 -0.956658 0.107435
4.946316 -0.961466 -0.105550
5.065073 -0.984550 -0.036023
5.021498 -0.998838 0.035744
4.991102 -0.992792 0.106597
4.937737 -1.004594 -0.105550
5.007293 -1.018745 -0.035674
5.061542 -1.052802 0.036093
5.070343 -1.054633 0.108482
4.997238 -1.062196 -0.107016
5.047119 -1.072798 -0.036023
5.013073 -1.088445 0.035814
5.012096 -1.088233 0.107435
5.017061 -1.112256 -0.107644
5.008276 -1.110308 -0.035814
5.042397 -1.140978 0.036093
5.090170 -1.151788 0.109319
4.987680 -1.151497 -0.107225
5.027627 -1.160719 -0.036023
5.032248 -1.184937 0.036093
5.021535 -1.182415 0.108063
4.977442 -1.194978 -0.107225
5.056201 -1.213886 -0.036303
5.060569 -1.238313 0.036372
5.020737 -1.228567 0.108272
5.025030 -1.252881 -0.108482
5.045415 -1.257963 -0.036303
5.010802 -1.272581 0.036093
5.009825 -1.272333 0.108272
4.994546 -1.291677 -0.108063
5.102014 -1.319471 -0.036791
5.076868 -1.336628 0.036652
5.037204 -1.326185 0.109110
5.012055 -1.342976 -0.108691
4.955079 -1.327709 -0.035814
5.026420 -1.370359 0.036372
5.035085 -1.372722 0.109319
4.990511 -1.383991 -0.108482
5.010756 -1.389606 -0.036303
5.091264 -1.435885 0.036931
5.051782 -1.424750 0.109948
5.026296 -1.441267 -0.109529
4.969602 -1.425010 -0.036093
5.040139 -1.469067 0.036652
5.048755 -1.471578 0.110157
5.003942 -1.482235 -0.109319
5.072033 -1.502405 -0.036931
5.065429 -1.524521 0.036931
5.026147 -1.512699 0.109948
5.029060 -1.537538 -0.110157
5.010915 -1.531990 -0.036582
5.051932 -1.568667 0.036931
5.050948 -1.568361 0.110785
5.072661 -1.599404 -0.111414
5.102262 -1.608737 -0.037350
5.038051 -1.612693 0.036931
4.998981 -1.600187 0.109948
4.972935 -1.615804 -0.109529
5.030966 -1.634660 -0.036931
5.099760 -1.681649 0.037489
5.089271 -1.678190 0.112251
5.025013 -1.681346 -0.110995
5.073408 -1.697538 -0.037350
5.084891 -1.726088 0.037489
5.046031 -1.712897 0.111623
4.981790 -1.715368 -0.110367
5.030036 -1.731980 -0.037140
5.069634 -1.770396 0.037489
5.068646 -1.770051 0.112461
5.013753 -1.775463 -0.111414
5.061862 -1.792499 -0.037489
5.053992 -1.814569 0.037489
5.053007 -1.814215 0.112461
5.035648 -1.832826 -0.112251
5.074216 -1.846864 -0.037699
5.075491 -1.872448 0.037769
5.074502 -1.872083 0.113298
5.019462 -1.876700 -0.112251
5.048540 -1.887572 -0.037629
5.049607 -1.913125 0.037699
5.057972 -1.916294 0.113298
5.002893 -1.920431 -0.112251
5.013205 -1.924389 -0.037489
5.116599 -1.989736 0.038327
5.078329 -1.974854 0.114136
4.985944 -1.964016 -0.112251
5.145084 -2.026702 -0.038606
5.061889 -2.019489 0.038048
5.060902 -2.019095 0.114136
5.070583 -2.048649 -0.114555
5.080844 -2.052794 -0.038257
5.118114 -2.093876 0.038606
5.117116 -2.093468 0.115812
4.997092 -2.069863 -0.113298
5.108929 -2.116188 -0.038606
5.062760 -2.122991 0.038327
5.061773 -2.122578 0.114974
5.061666 -2.148550 -0.115183
5.081063 -2.156783 -0.038537
5.080791 -2.182880 0.038606
5.079801 -2.182455 0.115812
5.006050 -2.176692 -0.114346
5.071218 -2.205029 -0.038606
5.061549 -2.227135 0.038606
5.060562 -2.226701 0.115812
5.005131 -2.228428 -0.114764
5.024377 -2.236997 -0.038397
5.078391 -2.287648 0.038886
5.077401 -2.287202 0.116649
5.040080 -2.296897 -0.116021
5.104758 -2.326372 -0.039165
5.094559 -2.348624 0.039165
5.093566 -2.348166 0.117487
5.101394 -2.378819 -0.117906
5.075200 -2.366605 -0.039095
5.110047 -2.410055 0.039444
5.072881 -2.392526 0.117487
5.026298 -2.397421 -0.116649
5.099483 -2.432328 -0.039444
5.124848 -2.471933 0.039723
5.087829 -2.454077 0.118325
5.086059 -2.480637 -0.118534
5.105026 -2.489887 -0.039654
5.103082 -2.516561 0.039723
5.111053 -2.520493 0.119372
5.028428 -2.507082 -0.117696
5.083103 -2.534342 -0.039654
5.152363 -2.597005 0.040282
5.115647 -2.578498 0.120000
5.050899 -2.573562 -0.118744
5.060794 -2.578603 -0.039654
5.093944 -2.623554 0.040003
5.101839 -2.627620 0.120209
5.045985 -2.626773 -0.119162
5.135668 -2.673459 -0.040421
5.106254 -2.686530 0.040282
5.069867 -2.667386 0.120000
5.040525 -2.680095 -0.119581
5.050337 -2.685312 -0.039933
5.082616 -2.730988 0.040282
5.081625 -2.730455 0.120838
5.034518 -2.733520 -0.120000
5.140955 -2.791311 -0.040840
5.058590 -2.775238 0.040282
5.022542 -2.755461 0.120000
4.966751 -2.753115 -0.118953
5.020195 -2.782739 -0.040072
5.103977 -2.858365 0.040840
5.094259 -2.852922 0.122304
5.020851 -2.840661 -0.120838
5.074050 -2.870759 -0.040701
5.078839 -2.902796 0.040840
5.077849 -2.902230 0.122513
5.056479 -2.919360 -0.122304
5.092105 -2.939928 -0.041050
5.087867 -2.967156 0.041120
5.095512 -2.971615 0.123560
5.030811 -2.963374 -0.122304
5.143801 -3.029930 -0.041678
5.130531 -3.052345 0.041678
5.095162 -3.031303 0.124189
5.099027 -3.063804 -0.124607
5.074307 -3.048951 -0.041329
5.103700 -3.097001 0.041678
5.102705 -3.096397 0.125026
5.055048 -3.097737 -0.124189
5.124242 -3.140140 -0.041957
5.110492 -3.162469 0.041957
5.075490 -3.140808 0.125026
5.044779 -3.152328 -0.124607
5.054244 -3.158242 -0.041608
5.116529 -3.228289 0.042237
5.107076 -3.222325 0.126492
5.076103 -3.233834 -0.126073
5.051792 -3.218346 -0.041818
5.121803 -3.294454 0.042516
5.087170 -3.272178 0.126702
5.089614 -3.305234 -0.127120
5.132539 -3.333110 -0.042725
5.084496 -3.333542 0.042446
5.083505 -3.332892 0.127330
5.085588 -3.366077 -0.127749
5.078241 -3.361214 -0.042516
5.055212 -3.377785 0.042446
5.070852 -3.388235 0.127749
5.089174 -3.432691 -0.128586
5.106747 -3.444544 -0.043005
5.066872 -3.449910 0.042795
5.032827 -3.426730 0.127539
5.009588 -3.442995 -0.127330
5.134181 -3.528625 -0.043493
5.135168 -3.562393 0.043633
5.101308 -3.538903 0.130052
5.069439 -3.549659 -0.129634
5.078619 -3.556087 -0.043284
5.071220 -3.583984 0.043354
5.102890 -3.606366 0.130890
5.095245 -3.634403 -0.131100
5.136944 -3.664146 -0.044052
5.104676 -3.674841 0.043912
5.071225 -3.650759 0.130890
5.030982 -3.655222 -0.130262
5.080503 -3.691201 -0.043842
5.104670 -3.742899 0.044191
5.103675 -3.742169 0.132566
5.095335 -3.770350 -0.132775
5.088290 -3.765136 -0.044191
5.071813 -3.787302 0.044191
5.070824 -3.786564 0.132566
5.078208 -3.826704 -0.133194
5.111143 -3.851522 -0.044680
5.134088 -3.904051 0.045029
5.133087 -3.903290 0.135079
5.020825 -3.852615 -0.132566
5.085271 -3.902066 -0.044750
5.099823 -3.948705 0.045029
5.067209 -3.923452 0.134241
5.089433 -3.976301 -0.135288
5.137705 -4.014015 -0.045518
5.127995 -4.042585 0.045588
5.134846 -4.047987 0.136963
5.085837 -4.045458 -0.136126
5.110307 -4.064921 -0.045588
5.092522 -4.087181 0.045588
5.099326 -4.092642 0.136963
5.120269 -4.146312 -0.138011
5.097953 -4.128241 -0.045797
5.087636 -4.156773 0.045867
5.086644 -4.155962 0.137592
5.076176 -4.184477 -0.137801
5.123462 -4.223456 -0.046356
5.143426 -4.277743 0.046705
5.111677 -4.251337 0.139267
5.077761 -4.260747 -0.138848
5.086411 -4.268006 -0.046356
5.105901 -4.322464 0.046705
5.112536 -4.328081 0.140314
5.093603 -4.350348 -0.140314
5.147823 -4.396656 -0.047263
5.098288 -4.392966 0.046984
5.097294 -4.392110 0.140942
5.093173 -4.427427 -0.141361
5.131900 -4.461092 -0.047473
5.119905 -4.490036 0.047542
5.118906 -4.489160 0.142618
5.046854 -4.465080 -0.141152
5.115243 -4.525585 -0.047682
5.110368 -4.561178 0.047822
5.109372 -4.560289 0.143456
5.096856 -4.589229 -0.143665
5.112712 -4.603507 -0.048031
5.092577 -4.625771 0.048031
5.106385 -4.638313 0.144503
5.041871 -4.620024 -0.143246
5.079717 -4.654703 -0.048101
5.088731 -4.703975 0.048380
5.095080 -4.709844 0.145340
5.111041 -4.766123 -0.146388
5.119351 -4.773872 -0.048869
5.105756 -4.803016 0.048939
5.097478 -4.795229 0.146597
5.091012 -4.831189 -0.147016
5.113765 -4.852781 -0.049218
5.121436 -4.902708 0.049497
5.120437 -4.901752 0.148482
5.113384 -4.937938 -0.148901
5.092802 -4.918061 -0.049427
5.135760 -5.003036 0.050056
5.106113 -4.974155 0.149319
5.084361 -4.996387 -0.149319
5.142410 -5.053432 -0.050335
5.120312 -5.075822 0.050335
5.090912 -5.046679 0.150157
5.075913 -5.075913 -0.150367
5.091045 -5.091045 -0.050265
5.075822 -5.120312 0.050335
5.081872 -5.126414 0.151204
5.080478 -5.169932 -0.151833
5.123522 -5.213734 -0.051033
5.086769 -5.221714 0.050893
5.085777 -5.220696 0.152670
5.083784 -5.264412 -0.153299
5.084775 -5.265439 -0.051103
5.123987 -5.352587 0.051731
5.122988 -5.351543 0.155183
5.099589 -5.373845 -0.155183
5.114350 -5.389400 -0.051871
5.104489 -5.426231 0.052010
5.076092 -5.396045 0.155183
5.100229 -5.469326 -0.156649
5.108043 -5.477706 -0.052290
5.138396 -5.558686 0.052848
5.110249 -5.528236 0.157696
5.079324 -5.543109 -0.157487
5.154628 -5.625289 -0.053267
5.143481 -5.662531 0.053407
5.115589 -5.631824 0.159372
5.084277 -5.646662 -0.159162
5.085268 -5.647763 -0.053058
5.093871 -5.707200 0.053407
5.099535 -5.713546 0.160419
5.120930 -5.788158 -0.161885
5.168311 -5.841712 -0.054454
5.096619 -5.811580 0.053965
5.095625 -5.810447 0.161885
5.089901 -5.855262 -0.162513
5.097455 -5.863951 -0.054244
5.097929 -5.916439 0.054524
5.129566 -5.953155 0.164607
5.103542 -5.975480 -0.164607
5.143503 -6.022268 -0.055292
5.097794 -6.021758 0.055082
5.096800 -6.020584 0.165236
5.076909 -6.050424 -0.165445
5.103609 -6.082245 -0.055431
5.096205 -6.127520 0.055641
5.101604 -6.134012 0.167121
5.118462 -6.264684 0.056478
5.092161 -6.232493 0.168586
5.088634 -6.340306 0.056758
5.093900 -6.346868 0.170471
5.107400 -6.478707 0.057595
5.075457 -6.438187 0.171728
5.075158 -6.554657 0.057875
5.080289 -6.561284 0.173822
5.084346 -6.686254 0.058643
5.077303 -6.676992 0.175707
5.097601 -6.826516 0.059480
5.078662 -6.801153 0.177801
5.085139 -6.935255 0.060039
5.048677 -6.885527 0.178848
5.094533 -7.076753 0.060877
0.151872 -0.210963 0.005445
5.099381 -7.083487 0.182827
0.136796 -0.197190 0.001676
0.131071 -0.188937 0.004817
0.140670 -0.206602 0.005236
0.155556 -0.232806 0.001955
0.166635 -0.249386 0.006283
0.148007 -0.225748 0.005654
0.151469 -0.235485 0.001955
0.162257 -0.252256 0.006283
0.149408 -0.236798 0.001955
0.117369 -0.186019 0.004607
0.147336 -0.238093 0.001955
0.157830 -0.255050 0.006283
0.129690 -0.213723 0.001745
0.140038 -0.230776 0.005654
0.158497 -0.266409 0.002164
0.127795 -0.214804 0.005236
0.151099 -0.259094 0.006283