# This PCD file was generated using the MATLAB® pcwrite function
# from Computer Vision System Toolbox®.
# .PCD v.7 - Point Cloud Data file format
VERSION .7
FIELDS x y z
SIZE 4 4 4
TYPE F F F
COUNT 1 1 1
WIDTH 800
HEIGHT 1
VIEWPOINT 0 0 0 1 0 0 0
POINTS 800
DATA ascii
26.191994 28.583546 -0.270663
27.014849 28.969879 -0.829739
26.385874 28.295385 -0.270105
26.879591 28.325178 -0.272618
26.465839 27.406179 -0.265986
26.865198 27.338224 -0.267592
27.472143 27.472143 -0.813822
29.728889 29.214499 -0.873089
30.255346 29.731846 -0.296145
34.584671 33.986263 -0.338521
29.932356 28.905340 -0.871624
34.635368 33.446987 -0.336148
31.226606 29.632942 -0.300543
34.760395 32.414593 -0.331819
30.647873 28.083601 -0.290211
28.731108 25.869606 -0.809843
30.579664 27.534054 -0.287279
29.038134 25.690769 -0.812147
30.683968 27.146881 -0.286022
29.329128 25.495422 -0.814032
30.891033 26.853167 -0.857383
30.836681 26.805918 -0.285254
30.918928 26.407259 -0.851728
30.909750 26.399420 -0.283788
30.964384 25.982203 -0.846702
30.932121 25.955132 -0.281903
31.035648 25.583815 -0.842514
30.964540 25.525196 -0.280158
31.079021 25.167295 -0.837697
31.038454 25.134443 -0.278832
31.164446 24.789320 -0.834137
31.092264 24.731903 -0.277365
31.190504 24.368692 -0.829110
31.125666 24.318035 -0.275760
31.243334 23.973854 -0.824922
31.209761 23.948092 -0.274643
31.291662 23.579958 -0.820733
31.217901 23.524376 -0.272897
31.335505 23.187054 -0.816545
31.293385 23.155888 -0.271780
31.342533 22.771683 -0.811519
31.332464 22.764368 -0.270384
31.442385 22.427635 -0.809006
31.407812 22.402973 -0.269337
31.407591 21.991833 -0.803142
31.495628 22.053476 -0.268429
31.697182 21.784868 -0.805655
31.522058 21.664511 -0.267033
31.620848 21.328531 -0.798953
31.552401 21.282364 -0.265707
31.639027 20.941414 -0.794765
31.603502 20.917902 -0.264590
31.569033 20.697565 0.263543
31.652870 20.555614 -0.790576
31.650656 20.554176 -0.263473
31.647528 20.356373 0.262705
31.565680 20.303728 0.786178
31.704563 20.198034 -0.787435
31.660143 20.169735 -0.262076
31.654821 19.972704 0.261309
31.581007 19.926130 0.782199
31.777872 19.857018 -0.784922
31.733187 19.829096 -0.261239
31.691854 19.611515 0.260192
31.617664 19.565603 0.778849
31.805027 19.490147 -0.781362
31.768599 19.467823 -0.260122
31.759203 19.271957 0.259354
31.693180 19.231894 0.776545
31.845350 19.134617 -0.778220
31.800133 19.107447 -0.259005
31.788668 18.912270 0.258237
31.722326 18.872801 0.773194
31.907745 18.795097 -0.775707
31.862270 18.768311 -0.258167
31.779734 18.533394 0.256841
31.713083 18.494524 0.769006
31.932013 18.435955 -0.772356
31.886278 18.409552 -0.257050
31.836075 18.195816 0.256003
31.769108 18.157541 0.766493
31.943750 18.072905 -0.768796
31.906462 18.051807 -0.255933
31.888952 17.858671 0.255165
31.821674 17.820993 0.763979
31.969084 17.720753 -0.765655
31.957825 17.714512 -0.255095
31.938377 17.521994 0.254327
31.870794 17.484917 0.761466
32.043430 17.398163 -0.763770
32.005741 17.377699 -0.254258
31.913895 17.147953 0.252931
31.881250 17.130415 0.758116
32.052795 17.042774 -0.760419
32.050217 17.041403 -0.253420
31.956125 16.812931 0.252093
31.932199 16.800343 0.755812
32.031803 16.674702 -0.756440
32.020309 16.668718 -0.252023
32.039398 16.501373 0.251605
31.962046 16.461535 0.753089
32.176098 16.394541 -0.756440
32.128914 16.370499 -0.251744
32.039303 16.149139 0.250488
32.006275 16.132490 0.750786
32.174782 16.041754 -0.753089
32.163158 16.035959 -0.250906
32.107262 15.833549 0.249929
32.074100 15.817197 0.749110
32.205715 15.707776 -0.750576
32.194019 15.702072 -0.250069
32.487392 15.670058 0.251814
35.774860 17.255745 0.277296
35.920975 17.326221 0.835393
35.806728 17.078934 -0.830995
35.903969 17.125315 -0.277715
35.969303 16.964226 0.277645
36.106972 17.029154 0.836231
36.280605 16.917925 -0.838534
36.233303 16.895866 -0.279111
36.215866 16.695744 0.278413
36.145252 16.663189 0.833718
36.354076 16.567507 -0.836859
36.306568 16.545856 -0.278552
28.956858 13.044113 0.221725
28.960327 13.045676 0.665341
29.035240 12.927322 -0.665760
36.415070 16.213034 -0.834974
29.077444 12.946112 -0.222214
29.115349 12.811060 0.222074
28.963255 12.744137 0.662828
29.201958 12.697372 -0.667016
29.189310 12.691874 -0.222214
29.033094 12.473602 0.220608
29.082550 12.494849 0.663037
29.164402 12.379554 -0.663665
29.179293 12.385875 -0.221306
29.140841 12.219769 0.220608
28.923100 12.128462 0.656964
29.345215 12.155187 -0.665341
29.212358 12.100155 -0.220747
29.209347 11.949860 0.220329
29.185144 11.939959 0.660524
29.255505 11.819991 -0.660943
29.289024 11.833534 -0.220538
29.052454 11.590755 0.218374
28.666063 11.436600 0.646492
29.404049 11.582563 -0.661990
29.205095 11.504193 -0.219142
29.236374 11.369404 0.219002
29.382666 11.278949 -0.659267
36.756332 14.109435 -0.824713
29.388395 11.281148 -0.219770
29.212912 11.067782 0.218095
29.367598 10.980095 -0.656754
36.775051 13.749628 -0.822409
29.326492 10.964725 -0.218583
29.345909 10.826278 0.218374
28.861816 10.647686 0.644398
29.499878 10.737077 -0.657592
36.818478 13.400829 -0.820733
29.458645 10.722070 -0.218863
29.288683 10.515712 0.217257
29.057140 10.432580 0.646702
29.780939 10.545983 -0.661780
36.820927 13.038974 -0.818220
29.390846 10.407845 -0.217676
29.426538 10.276207 0.217606
29.081003 10.155541 0.645236
30.259411 10.419151 -0.670367
29.527826 10.167246 -0.218025
29.429871 9.990095 0.216978
29.253723 9.930301 0.647121
30.794798 10.303795 -0.680210
29.539562 9.883800 -0.217466
29.477943 9.720367 0.216698
29.215834 9.633937 0.644398
32.129150 10.439394 -0.707644
37.007000 12.024303 -0.815079
29.548605 9.600924 -0.216908
29.523550 9.450563 0.216419
29.384489 9.406049 0.646283
31.809019 10.029346 -0.698639
29.593115 9.330673 -0.216629
29.452097 9.145120 0.215302
29.341326 9.110724 0.643561
31.493771 9.628612 -0.689843
29.520409 9.025294 -0.215512
32.274498 9.867305 -0.235618
29.616961 8.913693 0.215930
29.544170 8.891787 0.646283
31.547836 9.344895 -0.689215
37.117359 10.994662 -0.810890
29.674747 8.790061 -0.216070
37.134182 10.999646 -0.270384
29.530415 8.607330 0.214744
29.534256 8.608450 0.644398
33.319633 9.554252 -0.726074
37.173447 10.659315 -0.810053
29.625364 8.494936 -0.215162
33.047371 9.476181 -0.240016
29.691021 8.373734 0.215372
29.608253 8.350390 0.644398
33.324669 9.241748 -0.724398
37.236149 10.326498 -0.809425
29.736912 8.246776 -0.215442
33.109535 9.182087 -0.239876
29.608601 8.072231 0.214255
29.679995 8.091696 0.644398
37.295876 9.993400 -0.808796
30.445240 8.157778 -0.220049
37.283829 9.990171 -0.269477
29.745607 7.831365 0.214744
29.633457 7.801838 0.641885
37.294548 9.645026 -0.806911
30.921883 7.996943 -0.222981
29.696512 7.541953 0.213906
29.777933 7.562632 0.643561
37.386997 9.321625 -0.807121
30.990490 7.726797 -0.222981
29.838902 7.301533 0.214464
29.648569 7.254959 0.639372
37.389145 8.976339 -0.805445
31.056738 7.456063 -0.222981
30.183756 7.107331 0.216489
29.837263 7.025743 0.642095
37.417347 8.638475 -0.804398
31.101135 7.180263 -0.222842
37.424641 8.640160 -0.268150
30.254381 6.845868 0.216559
29.663406 6.712143 0.637068
37.491306 8.311623 -0.804398
32.509865 7.207263 -0.232476
37.469326 8.306750 -0.267941
29.902544 6.492478 0.213627
37.358635 8.111355 0.266894
29.877172 6.486970 0.640419
37.484177 7.967507 -0.802723
37.471920 7.964903 -0.267452
29.830788 6.204813 0.212719
37.427998 7.785035 0.266894
29.727091 6.183244 0.636021
37.513088 7.632124 -0.801885
37.471409 7.623644 -0.266963
30.001492 5.967668 0.213557
35.228951 7.007473 0.250767
29.985836 5.964554 0.640419
35.988373 6.995431 -0.767959
37.617519 7.312105 -0.802723
35.141396 6.830796 -0.249929
37.565956 7.302083 -0.267173
37.459919 7.111988 0.266195
29.830475 5.663493 0.636021
36.500248 6.764921 -0.777592
35.602791 6.598588 -0.252791
37.618416 6.972161 -0.267103
37.520557 6.784822 0.266195
30.036173 5.431425 0.639372
35.868679 6.324615 -0.762932
35.826431 6.317167 -0.253978
37.599045 6.629726 -0.266545
33.586933 5.771290 0.237921
37.598049 6.460526 0.266335
29.964188 5.148789 0.636859
35.537937 5.947011 -0.754765
35.692806 5.972927 -0.252652
37.685055 6.306315 -0.266754
33.586666 5.469936 0.237572
37.583904 6.120928 0.265846
30.126390 4.906394 0.639372
37.635784 6.129377 0.798744
35.627979 5.642918 -0.755603
35.595421 5.637761 -0.251605
37.699146 5.970958 -0.266475
37.635891 5.792717 0.265846
30.128532 4.637225 0.638534
37.658195 5.796151 0.798116
35.389114 5.288939 -0.749529
35.593815 5.319531 -0.251256
37.858604 5.658006 -0.267243
37.685005 5.464066 0.265846
30.118382 4.366958 0.637487
37.677658 5.463001 0.797487
35.592331 5.002176 -0.752880
35.520050 4.992017 -0.250418
37.797611 5.312108 -0.266475
37.731255 5.134998 0.265846
30.214783 4.112051 0.638744
37.694180 5.129952 0.796859
35.476028 4.670508 -0.749529
35.334232 4.651840 -0.248812
37.763214 4.971622 -0.265916
35.830345 4.558196 0.252163
37.774628 4.805540 0.265846
37.697838 4.795771 0.796021
35.594822 4.370495 -0.751205
36.346153 4.462747 -0.255654
37.825012 4.644328 -0.266056
37.815125 4.475715 0.265846
37.787895 4.472492 0.797068
35.929611 4.093662 -0.757487
37.936188 4.322283 -0.799791
37.874035 4.315201 -0.266126
37.852741 4.145550 0.265846
37.815548 4.141476 0.796859
38.002289 3.994202 -0.800419
32.828369 3.450401 -0.230451
37.940086 3.987664 -0.266335
37.887478 3.815068 0.265846
37.810459 3.807313 0.796021
32.811016 3.159341 -0.690472
38.035698 3.662421 -0.800419
32.757690 3.154207 -0.229753
38.003300 3.659302 -0.266545
37.919327 3.484297 0.265846
37.892025 3.481788 0.797068
32.648102 2.856339 -0.686493
38.086132 3.332105 -0.800838
32.774006 2.867354 -0.229683
38.023827 3.326654 -0.266475
32.636726 2.711903 0.228636
34.330845 2.852673 0.240504
38.018047 3.159056 0.266335
32.660252 2.713858 0.686493
37.970783 3.155129 0.798116
32.651848 2.569756 -0.686074
32.588432 2.564765 -0.228217
32.798759 2.437369 0.229614
32.273911 2.398366 0.677906
32.423695 2.267286 -0.680838
32.400089 2.265635 -0.226751
32.369755 2.121626 0.226472
32.263680 2.114673 0.677278
32.252640 1.972656 -0.676859
32.318817 1.976704 -0.226053
32.267231 1.832266 0.225634
32.700138 1.856848 0.686074
32.388435 1.697406 -0.679372
32.324852 1.694074 -0.225983
32.411839 1.556852 0.226542
32.575287 1.564703 0.683142
32.481922 1.418191 -0.681047
32.418324 1.415415 -0.226542
32.304287 1.269239 0.225704
32.587704 1.280374 0.683142
32.453094 1.133287 -0.680210
32.269543 1.126877 -0.225425
32.324127 0.987591 0.225774
32.237881 0.984956 0.675602
32.161919 0.842189 -0.673927
32.408100 0.848636 -0.226332
31.881634 0.695660 0.222632
32.315216 0.705121 0.677068
32.048088 0.559401 -0.671414
32.114326 0.560558 -0.224238
31.836496 0.416763 0.222283
32.490089 0.425319 0.680629
32.211708 0.281107 -0.674765
31.718019 0.276799 -0.221446
31.958918 0.139448 0.223121
32.642529 0.142431 0.683770
31.683050 0.000000 -0.663665
31.989220 0.000000 -0.223331
32.228909 -0.140626 0.225006
32.092655 -0.140032 0.672252
32.001762 -0.279275 -0.670367
31.968004 -0.278981 -0.223191
32.046474 -0.419511 0.223749
31.790302 -0.416158 0.665969
32.218025 -0.562368 -0.674974
32.174316 -0.561605 -0.224657
32.101578 -0.700459 0.224168
32.505131 -0.709264 0.681047
32.261860 -0.844807 -0.676021
32.198177 -0.843139 -0.224866
31.544512 -0.963772 0.220329
31.858143 -0.973354 0.667644
32.553013 -1.136776 -0.682304
31.979727 -1.116757 -0.223400
31.984543 -1.256676 0.223470
32.168118 -1.263889 0.674346
31.972521 -1.395950 -0.670367
31.808920 -1.388807 -0.222283
32.331936 -1.553014 0.225983
32.435482 -1.557988 0.680210
32.378452 -1.696883 -0.679163
32.065212 -1.680467 -0.224168
32.397018 -1.839636 0.226542
32.191071 -1.827941 0.675393
32.033100 -1.959228 -0.672252
31.899611 -1.951064 -0.223121
32.419647 -2.124896 0.226821
32.423302 -2.125135 0.680629
32.034729 -2.240087 -0.672671
31.841469 -2.226572 -0.222842
32.639202 -2.425512 0.228497
32.453373 -2.411702 0.681676
32.173435 -2.532104 -0.676021
31.820826 -2.504353 -0.222842
32.417484 -2.693685 0.227100
32.470947 -2.698128 0.682513
32.219830 -2.818870 -0.677487
32.345654 -2.829878 -0.226682
32.283211 -2.966410 0.226332
32.655239 -3.000595 0.686911
32.223862 -3.102805 -0.678116
32.757690 -3.154207 -0.229753
32.365536 -3.259038 0.227100
32.657654 -3.288453 0.687540
32.294987 -3.394340 -0.680210
39.623005 -4.164546 -0.834555
33.096882 -3.478622 -0.232336
32.634075 -3.574013 0.229195
32.737034 -3.585288 0.689843
39.316246 -4.305829 0.828482
33.307159 -3.794871 -0.702199
39.763958 -4.530531 -0.838325
33.025524 -3.762783 -0.232057
32.869766 -3.890393 0.231080
39.572815 -4.683751 0.278203
33.329998 -3.944865 0.703037
39.436028 -4.667562 0.831833
32.766685 -4.023243 -0.691519
39.782448 -4.884670 -0.839582
32.832626 -4.031340 -0.230940
39.641327 -4.867343 -0.278832
33.390072 -4.247754 0.234989
34.762146 -4.422304 0.734032
39.807693 -5.240782 -0.841048
39.696484 -5.226141 -0.279530
33.985870 -4.625274 0.239457
34.633076 -4.713355 0.732147
39.859447 -5.601880 -0.843142
39.768196 -5.589056 -0.280367
32.093613 -4.653352 0.226402
33.934319 -4.920242 0.239387
33.640766 -4.877679 0.712042
33.787262 -5.049540 -0.715603
39.907925 -5.964280 -0.845236
33.714729 -5.038700 -0.237991
31.952950 -4.918029 0.225704
32.569252 -5.012887 0.690262
40.032104 -6.340462 -0.849006
31.437353 -4.979187 -0.222214
34.281826 -5.429708 -0.242320
39.990528 -6.333877 -0.282671
31.395590 -5.113096 0.222074
31.922329 -5.198882 0.677487
32.402237 -5.422275 -0.688168
34.108135 -5.707745 -0.724398
31.678722 -5.301200 -0.224238
31.468039 -5.407198 0.222912
32.486656 -5.582229 0.690472
32.038616 -5.649272 -0.681466
32.212276 -5.679893 -0.228357
32.265907 -5.834627 0.228916
31.885765 -5.765885 0.678744
31.889793 -5.910424 -0.679372
32.014000 -5.933444 -0.227310
33.078300 -6.280111 0.235059
31.696722 -6.017810 0.675812
32.357151 -6.289593 -0.690472
33.060398 -6.426291 -0.235129
32.070896 -6.379298 0.228287
32.054840 -6.376104 0.684608
33.084801 -6.731179 -0.707226
40.373840 -8.214150 -0.863037
31.572405 -6.423478 -0.224936
31.896524 -6.634487 0.227449
32.086071 -6.673913 0.686493
33.103035 -7.036267 -0.708901
31.554272 -6.707067 -0.225215
31.896046 -6.925311 0.227868
32.143852 -6.979115 0.689006
32.913483 -7.296743 -0.706178
31.972916 -7.088224 -0.228636
32.741444 -7.408632 0.234361
32.354759 -7.321135 0.694870
33.053127 -7.630915 -0.710576
32.854958 -7.585165 -0.235408
32.179134 -7.577180 0.230800
32.017155 -7.539039 0.689006
32.868618 -7.891057 -0.708063
32.661110 -7.841238 -0.234501
32.228344 -7.886226 0.231638
34.005856 -8.321180 0.244414
32.115238 -7.858549 0.692566
40.636772 -10.131886 -0.877278
33.891605 -8.450126 -0.243855
40.586483 -10.119347 -0.292026
33.738106 -8.568387 0.243018
32.161720 -8.168036 0.695079
40.711361 -10.528673 -0.880838
33.642311 -8.700493 -0.242599
40.641846 -10.510696 -0.293073
33.159199 -8.730088 0.239387
40.585930 -10.685384 0.293003
33.172070 -8.733477 0.718534
40.772446 -10.924944 -0.884189
40.606533 -10.880487 -0.293492
33.554485 -9.148003 0.242808
33.393612 -9.104143 0.725027
40.781532 -11.309719 -0.886493
34.342953 -9.524143 -0.248812
40.760574 -11.303907 -0.295307
32.732304 -9.231464 0.237433
34.339565 -9.684759 0.249091
33.207047 -9.365355 0.722723
40.806221 -11.700995 -0.889215
34.095123 -9.776619 -0.247625
40.746891 -11.683983 -0.295936
32.381691 -9.438402 0.235478
33.268028 -9.696747 0.725864
35.523651 -10.354200 0.775079
40.970966 -12.136153 -0.895079
32.301849 -9.568244 -0.235199
40.796787 -12.084558 -0.297053
32.882198 -9.896419 0.239736
40.705368 -12.250925 0.296773
33.153423 -9.978048 0.725236
41.054722 -12.551687 -0.899267
40.460270 -12.369946 -0.295377
32.622684 -10.129613 0.238480
40.787907 -12.664982 0.298170
32.492203 -10.089097 0.712671
40.972229 -12.918494 -0.899896
40.131432 -12.653392 -0.293771
32.466381 -10.392570 0.237991
32.193439 -10.305202 0.708063
41.019581 -13.328070 -0.903456
40.970516 -13.312128 -0.300753
35.850269 -11.821646 0.263543
40.997513 -13.518952 0.301381
32.577030 -10.742293 0.718534
41.157700 -13.771174 -0.909110
41.061413 -13.738956 -0.302289
35.527954 -12.060115 0.261937
41.095768 -13.950132 0.302987
33.201557 -11.270410 0.734451
41.234474 -14.198169 -0.913508
41.138512 -14.165125 -0.303755
35.317509 -12.333426 0.261169
41.151836 -14.370865 0.304313
33.205769 -11.595973 0.736754
41.259792 -14.610859 -0.916859
35.433029 -12.547494 -0.262426
41.314968 -14.630398 -0.305989
34.916779 -12.536405 0.259005
34.016052 -12.213010 0.757068
41.346802 -15.049006 -0.921676
33.950268 -12.356887 -0.252233
41.289089 -15.027999 -0.306757
33.605194 -12.397611 0.250069
33.908180 -12.509388 0.757068
41.410561 -15.482774 -0.926074
33.916073 -12.680700 -0.252791
41.428001 -15.489295 -0.308781
33.364811 -12.640796 0.249091
33.563992 -12.716259 0.751833
34.702908 -13.321198 -0.778639
41.199203 -15.814892 -0.924398
33.514721 -12.865096 -0.250627
33.402348 -12.989463 0.250208
33.125614 -12.881846 0.744503
33.971397 -13.381689 -0.764817
41.478222 -16.338705 -0.933823
33.680294 -13.267021 -0.252722
33.129829 -13.217462 0.249022
33.206944 -13.248228 0.748901
34.168503 -13.804971 -0.771938
33.609596 -13.579158 -0.253071
33.198330 -13.581795 0.250418
32.599640 -13.336865 0.737801
33.991310 -14.079661 -0.770681
33.295807 -13.791574 -0.251605
33.023212 -13.847782 0.249999
32.943016 -13.814153 0.748273
34.032803 -14.446068 -0.774451
41.404430 -17.575138 -0.942199
33.367489 -14.163658 -0.253071
32.873547 -14.123591 0.249789
32.839581 -14.108998 0.748691
34.070480 -14.814265 -0.778220
41.506203 -18.047411 -0.948063
33.123402 -14.402466 -0.252163
32.749046 -14.409925 0.249789
32.706059 -14.391010 0.748482
34.177372 -15.216747 -0.783665
41.465866 -18.461794 -0.950786
33.142620 -14.756045 -0.253280
32.941158 -14.838910 0.252233
32.734196 -14.745679 0.752042
34.816582 -15.866830 -0.801466
41.557915 -18.939034 -0.956650
33.485760 -15.260340 -0.256910
32.955711 -15.192792 0.253350
32.822174 -15.131230 0.757068
41.445427 -19.326321 -0.957906
33.224434 -15.492808 -0.255933
41.489758 -19.346992 -0.319602
32.948498 -15.539520 0.254327
32.743137 -15.442666 0.758325
41.085693 -19.596872 -0.953508
33.214329 -15.842422 -0.256910
41.021500 -19.566252 -0.317298
33.343037 -16.082771 0.258446
33.291512 -16.057919 0.774241
41.128780 -20.059847 -0.958535
33.964600 -16.565641 -0.263822
41.073887 -20.033073 -0.319044
40.968147 -20.203255 0.318904
33.159081 -16.352249 0.774451
41.122162 -20.502754 -0.962514
41.076485 -20.479980 -0.320440
38.173920 -19.241240 0.298449
41.031384 -20.681519 0.320789
40.969818 -20.650488 0.961048
38.260338 -19.494616 -0.899477
41.208923 -20.996994 -0.968796
38.151970 -19.439400 -0.298938
38.040115 -19.591948 0.298728
40.441410 -20.828693 0.952880
38.239517 -19.906233 -0.903037
38.158276 -19.863941 -0.300334
38.080090 -20.034904 0.300404
39.798012 -20.938747 0.941990
38.240902 -20.333048 -0.907226
38.160065 -20.290066 -0.301730
38.088787 -20.465843 0.301870
39.111778 -21.015516 0.930053
38.237732 -20.761395 -0.911414
38.157310 -20.717728 -0.303126
35.418900 -19.431473 0.282043
35.350636 -19.394022 0.844608
35.545494 -19.703188 -0.851309
35.473709 -19.663399 -0.283160
35.387577 -19.817995 0.283160
35.249832 -19.740854 0.846283
35.511425 -20.091398 -0.854660
35.466129 -20.065771 -0.284486
35.343513 -20.200481 0.284207
35.241142 -20.141972 0.850262
35.464622 -20.475508 -0.857801
35.419575 -20.449501 -0.285534
35.269543 -20.568590 0.285045
35.202213 -20.529324 0.853613
35.422421 -20.865400 -0.861152
35.343166 -20.818716 -0.286371
35.226212 -20.957394 0.286162
35.133423 -20.902189 0.856336
35.341827 -21.235512 -0.863665
35.263004 -21.188150 -0.287209
35.144569 -21.326248 0.287000
35.043701 -21.265039 0.858639
35.291561 -21.626696 -0.867016
35.213181 -21.578665 -0.288326
35.093182 -21.716320 0.288117
34.992821 -21.654215 0.861990
35.237148 -22.018614 -0.870367
35.159218 -21.969917 -0.289443
35.079937 -22.133791 0.289583
34.980087 -22.070791 0.866388
35.178574 -22.411224 -0.873718
35.101097 -22.361864 -0.290560
35.020012 -22.525627 0.290700
34.912281 -22.456333 0.869529
35.149361 -22.826262 -0.877906
35.072350 -22.776249 -0.291956
34.955910 -22.918098 0.291817
34.848763 -22.847849 0.872880
35.082218 -23.220415 -0.881257
34.972321 -23.147673 -0.292794
34.912560 -23.327826 0.293143
34.814312 -23.262178 0.877069
35.044022 -23.637491 -0.885446
34.967953 -23.586182 -0.294470
34.839909 -23.721649 0.294260
34.742210 -23.655130 0.880419
34.968246 -24.033009 -0.888796
34.933857 -24.009375 -0.295936
34.804115 -24.144474 0.295726
34.706970 -24.077082 0.884817
34.953743 -24.474873 -0.893822
34.845879 -24.399347 -0.296983
34.747250 -24.556929 0.297053
34.650665 -24.488670 0.888796
34.901619 -24.895082 -0.898011
34.827015 -24.841867 -0.298658
34.702057 -24.981907 0.298519
34.638496 -24.936148 0.894032
34.812454 -25.292728 -0.901362
34.738342 -25.238884 -0.299775
34.635952 -25.396130 0.299845
34.540508 -25.326149 0.897173
34.751148 -25.714497 -0.905550
34.677540 -25.660030 -0.301172
34.573261 -25.817078 0.301241
34.486412 -25.752226 0.901571
34.748993 -26.185246 -0.911414
34.612019 -26.082027 -0.302568
34.537685 -26.263065 0.302917
34.419537 -26.173223 0.905760
34.614346 -26.560522 -0.913927
34.541763 -26.504827 -0.303964
34.465317 -26.685902 0.304313
34.371643 -26.613369 0.910576
34.593964 -27.027767 -0.919582
34.529789 -26.977629 -0.305919
34.419601 -27.134226 0.305989
34.334377 -27.067041 0.915812
34.583694 -27.509113 -0.925655
34.441746 -27.396202 -0.307245
34.368671 -27.583775 0.307664
34.245014 -27.484529 0.919791
34.458866 -27.904238 -0.928796
34.364555 -27.827869 -0.308711
34.343475 -28.059797 0.309619
34.220650 -27.959442 0.925655
34.468624 -28.413742 -0.935707
34.367321 -28.330233 -0.310945
34.374081 -28.588621 0.312132
34.313572 -28.538298 0.934870
34.609955 -29.041201 -0.946388
34.540104 -28.982588 -0.314785
34.611748 -29.301008 0.316600
34.543957 -29.243618 0.948063
34.811352 -29.731705 -0.958953
34.711685 -29.646582 -0.318695
34.771385 -29.960943 0.320440
34.734310 -29.928997 0.960419
35.003300 -30.427904 -0.971519
34.964844 -30.394474 -0.323442
36.463341 -31.977493 0.338591
36.373550 -31.898746 1.013404
36.683292 -32.454636 -1.025969
36.615551 -32.394703 -0.341314
36.697666 -32.753922 0.343408
36.593548 -32.660992 1.027435
36.933628 -33.255188 -1.041048
36.866516 -33.194759 -0.346340
36.913780 -33.530117 0.348155
36.810375 -33.436192 1.041676
37.113773 -34.008507 -1.054451
37.076775 -33.974602 -0.351088
37.177841 -34.366844 0.353461
37.082497 -34.278706 1.057802
37.451721 -34.924294 -1.072671
37.393204 -34.869728 -0.356952
37.459206 -35.238102 0.359046
37.298981 -35.087376 1.072671
37.834480 -35.903584 -1.092566
38.059467 -36.117085 -0.366307
38.385487 -36.746109 0.370984
37.900894 -36.600468 -1.103665
38.203205 -36.892406 -0.370775
38.099171 -37.114571 0.371333
37.223507 -36.579441 -1.093194
37.416206 -36.768803 -0.366237
37.972687 -37.642750 0.373288
37.030128 -37.030128 -1.096964
37.327259 -37.327259 -0.368541
37.945469 -38.278057 0.376290
36.670536 -37.316212 -1.095917
37.476704 -38.136574 -0.373288
36.329609 -37.620411 -1.095498
37.065784 -38.382744 -1.117697
37.316139 -38.641991 -0.375033
36.344032 -38.298618 -1.105969
36.282284 -38.233551 -0.367982
36.151623 -38.767868 -1.110367
40.808506 -44.146393 0.419713
40.725899 -44.057030 1.256755
36.230713 -39.538883 -1.123351
45.371532 -49.514339 -0.468861
40.152767 -44.204750 0.416921
40.044106 -44.085125 1.247540
45.452934 -50.480598 -0.474237
39.572384 -44.337109 0.414896
41.109177 -46.058941 1.293194
44.750168 -50.580864 -1.414660
45.487759 -51.414558 -0.479264
44.051262 -50.675179 -1.406493
0.151872 -0.210963 0.005445
0.113997 -0.164325 0.001396
0.131071 -0.188937 0.004817
0.140670 -0.206602 0.005236
0.155556 -0.232806 0.001955
0.138862 -0.207822 0.005236
0.169934 -0.259192 0.006492
0.151469 -0.235485 0.001955
0.162257 -0.252256 0.006283
0.128064 -0.202970 0.001676
0.117369 -0.186019 0.004607
0.147336 -0.238093 0.001955
0.157830 -0.255050 0.006283
0.129690 -0.213723 0.001745
0.119292 -0.196587 0.004817
0.138046 -0.232034 0.001885
0.127795 -0.214804 0.005236
0.130953 -0.224548 0.005445