# This PCD file was generated using the MATLAB® pcwrite function
# from Computer Vision System Toolbox®.
# .PCD v.7 - Point Cloud Data file format
VERSION .7
FIELDS x y z
SIZE 4 4 4
TYPE F F F
COUNT 1 1 1
WIDTH 1046
HEIGHT 1
VIEWPOINT 0 0 0 1 0 0 0
POINTS 1046
DATA ascii
25.887934 29.260986 -0.272758
26.237547 29.139748 -0.821362
26.436707 29.360937 -0.275830
26.815048 29.263491 -0.831414
26.975660 29.438766 -0.278762
27.376228 29.357410 -0.840838
27.504324 29.494776 -0.281554
27.879128 29.378471 -0.848377
24.993546 26.337702 -0.253490
25.071667 25.962471 -0.756021
25.055717 25.945953 -0.251814
25.192162 25.635731 -0.752880
25.119976 25.562273 -0.250208
25.238176 25.238176 -0.747644
25.200672 25.200672 -0.248812
25.264921 24.827768 -0.741990
25.198524 24.762522 -0.246648
25.308016 24.439667 -0.736964
25.269791 24.402754 -0.245252
25.346273 24.052715 -0.731938
25.278681 23.988573 -0.243297
25.343161 23.632879 -0.725864
25.128700 23.432892 -0.239876
25.258507 23.145157 -0.239178
25.092785 21.431263 -0.230382
25.365425 20.540518 -0.227868
25.851702 20.563374 -0.691938
25.809788 20.530033 -0.230242
26.116827 20.404701 -0.694241
25.861883 20.205517 -0.229125
25.889374 19.865616 -0.683561
25.846823 19.832964 -0.227449
25.933992 19.542665 -0.680210
25.891132 19.510368 -0.226332
26.007103 19.244244 -0.677697
25.931791 19.188515 -0.225215
26.044634 18.922535 -0.674346
26.033533 18.914469 -0.224657
26.045982 18.578419 -0.670157
26.034781 18.570429 -0.223261
26.076080 18.258669 -0.666807
26.072973 18.256493 -0.222214
26.135550 17.962465 -0.664294
26.091200 17.931984 -0.221027
26.125534 17.621895 -0.660105
26.114048 17.614147 -0.219910
26.099195 17.438925 0.219142
26.044230 17.402199 0.656126
26.178272 17.327021 -0.657592
26.133345 17.297283 -0.218793
26.150030 17.144711 0.218304
26.111488 17.119442 0.654032
26.261402 17.054354 -0.655917
26.216204 17.025002 -0.218234
26.231367 16.872583 0.217746
26.167395 16.831434 0.651728
26.316475 16.765444 -0.653613
26.237268 16.714983 -0.217187
26.208466 16.536310 0.216349
26.211813 16.538422 0.649215
26.427862 16.513962 -0.652775
26.280371 16.421799 -0.216349
26.249733 16.243828 0.215512
26.193605 16.209095 0.645236
26.562441 16.277485 -0.652566
26.311834 16.123913 -0.215442
26.296448 15.957076 0.214744
26.231491 15.917660 0.642723
26.600637 15.983275 -0.650053
26.348680 15.831884 -0.214604
26.297195 15.645187 0.213627
26.188963 15.580795 0.638325
26.704645 15.730239 -0.649215
26.347977 15.520144 -0.213487
26.294512 15.334506 0.212510
26.194386 15.276114 0.635184
26.737000 15.436614 -0.646702
26.343851 15.209629 -0.212370
26.323147 15.044918 0.211672
26.291975 15.027102 0.634346
26.835882 15.183012 -0.645864
26.449465 14.964387 -0.212160
26.348738 14.756001 0.210834
26.282539 14.718929 0.630995
26.897402 14.909473 -0.644189
26.509077 14.694221 -0.211602
26.371298 14.467790 0.209996
26.339861 14.450542 0.629320
26.885906 14.597856 -0.640838
26.592358 14.438472 -0.211253
26.426079 14.199244 0.209438
26.438540 14.205940 0.628691
30.577818 16.430056 0.727121
26.941650 14.325130 -0.639163
26.876270 14.290366 -0.212510
26.575531 13.982063 0.209647
31.035761 16.328703 0.244833
31.012014 16.316210 0.734032
27.065634 14.089477 -0.639163
26.946732 14.027581 -0.212091
26.589855 13.694675 0.208809
31.141512 16.038933 0.244554
31.117664 16.026649 0.733194
27.045025 13.780128 -0.635812
27.032478 13.773736 -0.211811
26.610125 13.412606 0.208042
31.199924 15.726056 0.243925
31.149202 15.700491 0.730681
27.137405 13.530211 -0.635184
27.053207 13.488232 -0.211043
26.690283 13.162190 0.207762
31.291128 15.431076 0.243576
31.249161 15.410380 0.729843
27.110670 13.222757 -0.631833
27.097980 13.216568 -0.210485
26.813133 12.933120 0.207832
31.238369 15.067600 0.726493
27.225025 12.985671 -0.631833
27.176180 12.962373 -0.210206
26.897840 12.685845 0.207623
31.296328 14.760306 0.724817
27.264820 12.713795 -0.630157
27.215759 12.690917 -0.209647
26.962114 12.429705 0.207274
31.351307 14.453150 0.723142
27.301949 12.442215 -0.628482
27.289074 12.436347 -0.209368
27.151611 12.230909 0.207902
26.754347 12.051954 0.614660
31.403313 14.146161 0.721466
27.382086 12.191290 -0.627854
27.323479 12.165196 -0.208809
27.357994 12.037806 0.208670
26.803593 11.793863 0.613403
31.443205 13.835341 0.719582
27.404915 11.915996 -0.625969
27.391916 11.910344 -0.208530
27.388498 11.767028 0.208111
26.795261 11.512153 0.610890
31.480068 13.524905 0.717697
27.471045 11.660767 -0.625131
27.421171 11.639597 -0.207972
27.416367 11.496636 0.207553
26.867043 11.266286 0.610262
31.523136 13.218748 0.716021
27.497862 11.389987 -0.623456
27.484747 11.384555 -0.207692
26.886297 10.999475 0.202806
26.927322 11.016258 0.609424
27.077101 10.939858 -0.611728
26.961849 10.893294 -0.203015
27.622124 11.020109 0.207623
27.923178 11.140219 0.629739
27.431997 10.805751 -0.617592
27.753679 10.932466 -0.208251
31.324020 12.181246 0.234640
31.737226 12.341932 0.713299
28.430624 10.913494 -0.637906
31.828110 12.217667 -0.714137
31.731625 12.180630 -0.237293
31.354319 11.879089 0.234082
31.843719 12.064507 0.713299
31.858599 11.911442 -0.712461
31.761780 11.875243 -0.236735
31.719477 11.701933 0.236036
31.910269 11.772320 0.712461
31.886173 11.605618 -0.710786
31.760836 11.559999 -0.235967
32.112144 11.529437 0.238201
32.011787 11.493405 0.712461
32.023933 11.340269 -0.711623
32.162144 11.389213 -0.238201
32.145447 11.225693 0.237712
32.035355 11.187246 0.710786
32.301285 11.122224 -0.715603
32.260307 11.108115 -0.238201
32.081211 10.890103 0.236525
32.018154 10.868698 0.708273
32.207489 10.776475 -0.711414
32.204285 10.775404 -0.237084
32.032570 10.562757 0.235478
29.348763 9.677771 0.647330
32.054810 10.570091 0.707016
29.752031 9.667021 -0.655288
32.290794 10.491916 -0.711205
29.577137 9.610194 -0.217117
32.297092 10.493961 -0.237084
29.209267 9.349960 0.214115
29.098833 9.314610 0.640000
29.644558 9.346893 -0.651100
29.326082 9.246478 -0.214674
29.108299 9.038367 0.212789
28.921209 8.980274 0.634346
29.763239 9.099535 -0.651938
29.482157 9.013600 -0.215232
29.262669 8.807063 0.213347
28.998476 8.727551 0.634346
29.841513 8.839458 -0.651938
29.559692 8.755980 -0.215232
29.415211 8.573752 0.213906
29.159918 8.499341 0.636231
29.965567 8.592488 -0.652985
29.673426 8.508718 -0.215512
29.488911 8.316732 0.213906
29.223354 8.241838 0.636021
29.991238 8.317307 -0.651938
32.525028 9.019989 -0.707016
29.746548 8.249448 -0.215512
29.560364 8.059080 0.213906
29.342394 7.999655 0.637068
30.053019 8.052682 -0.651728
32.476963 8.702175 -0.704294
29.817404 7.989549 -0.215512
29.629566 7.800814 0.213906
29.362743 7.730566 0.636021
30.122147 7.790117 -0.651728
32.561344 8.420936 -0.704503
29.934395 7.741561 -0.215861
29.696512 7.541953 0.213906
29.429087 7.474036 0.636021
30.218082 7.534214 -0.652356
32.604488 8.129211 -0.703875
30.000813 7.480043 -0.215861
29.761196 7.282518 0.213906
29.502901 7.219314 0.636231
32.674187 7.844378 -0.703875
30.064945 7.217955 -0.215861
29.823614 7.022529 0.213906
29.555044 6.959289 0.636021
30.481352 7.037175 -0.655288
32.663464 7.540955 -0.702199
30.126789 6.955317 -0.215861
29.883760 6.762005 0.213906
29.585396 6.694492 0.635393
30.434233 6.747107 -0.652985
32.679222 7.244809 -0.701152
30.186337 6.692150 -0.215861
29.941631 6.500966 0.213906
29.593838 6.425452 0.634346
30.452835 6.472950 -0.652147
32.702084 6.951042 -0.700315
30.243587 6.428473 -0.215861
29.997223 6.239431 0.213906
29.648783 6.166956 0.634346
30.498365 6.204963 -0.651938
32.761494 6.665401 -0.700315
30.298534 6.164306 -0.215861
30.050529 5.977422 0.213906
29.701471 5.907990 0.634346
30.580795 5.944304 -0.652566
32.818413 6.379253 -0.700315
30.351173 5.899671 -0.215861
30.062250 5.707497 0.213627
29.791185 5.656034 0.635184
30.631504 5.677214 -0.652566
32.833511 6.085331 -0.699477
30.440830 5.641874 -0.216140
30.110912 5.444940 0.213627
32.672825 5.908209 0.695498
30.610958 5.397538 -0.651100
32.875519 5.796841 -0.699267
30.439667 5.367334 -0.215791
32.759087 5.629040 0.232057
32.732990 5.624557 0.695707
30.587870 5.118654 -0.649634
30.593834 5.119652 -0.216559
32.881962 5.502553 -0.232755
32.816830 5.344560 0.232127
32.780827 5.338697 0.695707
32.922306 5.214381 -0.698220
32.869469 5.206012 -0.232336
32.862221 5.057979 0.232127
32.826168 5.052431 0.695707
33.006107 4.932796 -0.699058
32.992764 4.930802 -0.232895
32.895210 4.769578 0.232057
32.869007 4.765779 0.695707
33.087502 4.650145 -0.699896
33.034538 4.642702 -0.232895
32.935581 4.482336 0.232057
32.899441 4.477417 0.695498
33.047523 4.350789 -0.698220
33.034138 4.349027 -0.232616
33.023041 4.201061 0.232406
32.986847 4.196457 0.696545
33.074306 4.061014 -0.698011
33.070831 4.060587 -0.232616
33.058445 3.912724 0.232406
33.022213 3.908437 0.696545
33.197887 3.782422 -0.699896
33.144749 3.776367 -0.232895
33.041626 3.618647 0.232057
33.015308 3.615764 0.695707
33.229633 3.492575 -0.699896
33.176441 3.486984 -0.232895
33.071949 3.330170 0.232057
33.045605 3.327518 0.695707
33.258846 3.202462 -0.699896
33.245422 3.201170 -0.233174
33.139580 3.045100 0.232336
33.113209 3.042676 0.696545
33.285526 2.912106 -0.699896
33.272091 2.910931 -0.233174
33.164890 2.755790 0.232336
33.138500 2.753597 0.696545
33.309669 2.621528 -0.699896
33.296227 2.620470 -0.233174
33.237537 2.469976 0.232685
33.201149 2.467272 0.697383
33.331280 2.330750 -0.699896
33.317829 2.329809 -0.233174
33.257828 2.179833 0.232685
33.221413 2.177447 0.697383
33.380287 2.041626 -0.700524
33.336891 2.038971 -0.233174
33.275585 1.889525 0.232685
33.239151 1.887456 0.697383
33.446751 1.752870 -0.701571
33.383373 1.749548 -0.233384
33.330757 1.600991 0.232965
33.294300 1.599240 0.698220
33.540680 1.464418 -0.703246
33.487282 1.462086 -0.234012
33.303493 1.308498 0.232685
33.267029 1.307065 0.697383
33.552185 1.171668 -0.703246
33.538738 1.171199 -0.234291
33.433582 1.021488 0.233523
33.397087 1.020373 0.699896
33.561131 0.878829 -0.703246
33.547684 0.878477 -0.234291
33.441223 0.729690 0.233523
33.404720 0.728894 0.699896
33.647491 0.587319 -0.704922
33.554070 0.585688 -0.234291
33.486313 0.438360 0.233802
30.270765 0.396266 0.634136
33.439800 0.437751 0.700524
30.482153 0.266014 -0.638534
30.388102 0.265193 -0.212160
30.158978 0.131594 0.210555
30.043123 0.131089 0.629320
30.403330 0.000000 -0.636859
30.149265 0.000000 -0.210485
29.888987 -0.130416 0.208670
29.803179 -0.130042 0.624294
30.642111 -0.267410 -0.641885
30.298107 -0.264408 -0.211532
30.076691 -0.393725 0.209996
29.800909 -0.390115 0.624294
30.718580 -0.536195 -0.643561
30.424623 -0.531064 -0.212440
30.232067 -0.659666 0.211113
29.996279 -0.654521 0.628482
30.872643 -0.808429 -0.646911
30.578772 -0.800733 -0.213557
30.345100 -0.927127 0.211951
30.109343 -0.919924 0.630995
30.944345 -1.080600 -0.648587
33.841942 -1.181787 -0.709320
30.690544 -1.071737 -0.214395
30.455759 -1.196610 0.212789
30.260010 -1.188919 0.634346
31.033621 -1.354957 -0.650681
33.880283 -1.479245 -0.710367
30.839867 -1.346498 -0.215512
30.603970 -1.470014 0.213906
30.328373 -1.456776 0.636021
33.925991 -1.777986 -0.711623
30.906832 -1.619758 -0.216070
30.709780 -1.743828 0.214744
30.434286 -1.728184 0.638534
33.949100 -2.076416 -0.712461
31.051216 -1.899174 -0.217187
30.813133 -2.019599 0.215581
28.881680 -1.893005 0.606283
30.577669 -2.004166 0.641885
31.516111 -2.203821 -0.661780
33.999500 -2.377477 -0.713927
31.193068 -2.181232 -0.218304
30.884085 -2.295084 0.216210
28.903942 -2.147934 0.607121
30.638777 -2.276855 0.643561
31.296339 -2.463075 -0.657592
34.007359 -2.676437 -0.714555
31.242628 -2.458848 -0.218793
34.023960 -2.677744 -0.238270
31.052225 -2.580241 0.217536
28.933914 -2.404223 0.608168
30.697449 -2.550761 0.645236
31.393169 -2.746547 -0.660105
34.062386 -2.980073 -0.716231
31.379368 -2.745339 -0.219910
33.919601 -2.967581 -0.237712
29.027006 -2.667207 0.203504
31.108189 -2.858441 0.218095
29.071127 -2.671261 0.611519
30.634197 -2.814887 0.644398
31.368008 -3.020396 -0.660105
34.114697 -3.284872 -0.717906
31.513475 -3.034403 -0.221027
34.071583 -3.280720 -0.238969
29.012575 -2.921413 0.203574
31.032312 -3.124789 0.217746
29.066605 -2.926853 0.611938
30.668152 -3.088120 0.645655
31.131651 -3.272069 -0.655707
34.164276 -3.590810 -0.719582
31.555410 -3.316607 -0.221515
34.151051 -3.589420 -0.239736
30.695711 -3.361727 0.215581
30.669851 -3.358895 0.646283
34.131641 -3.888809 -0.719582
29.418945 -3.351866 -0.206715
31.773653 -3.620151 -0.223261
34.138298 -3.889568 -0.239876
28.520231 -3.375592 0.200502
28.524599 -3.376109 0.601676
34.024994 -4.027123 0.717697
29.472155 -3.618726 -0.621990
34.275024 -4.208444 -0.723351
29.209921 -3.586527 -0.205458
31.929432 -3.920441 -0.224587
34.212231 -4.200734 -0.240644
28.608727 -3.639490 0.201340
34.143978 -4.343663 0.240295
28.216351 -3.589573 0.595812
30.130501 -3.833084 0.636231
34.077816 -4.335246 0.719582
30.797436 -4.054559 -0.650681
34.266731 -4.511301 -0.723979
29.058540 -3.825629 -0.204621
31.963404 -4.208062 -0.225076
34.273415 -4.512180 -0.241342
29.398275 -4.000930 0.207134
34.203857 -4.654941 0.240993
28.342457 -3.857239 0.599163
34.197189 -4.654033 0.722932
28.790680 -4.046266 -0.609006
34.334965 -4.825465 -0.726283
29.786537 -4.186225 -0.209996
34.292149 -4.819447 -0.241761
28.372614 -4.113833 0.200153
30.173735 -4.374983 0.212859
34.231209 -4.963289 0.241482
28.119724 -4.077166 0.595184
34.214638 -4.960886 0.724189
28.675169 -4.285533 -0.607330
30.286913 -4.526409 -0.641466
34.370651 -5.136728 -0.727959
29.630194 -4.428262 -0.209159
34.347683 -5.133296 -0.242459
28.760618 -4.426682 0.203155
34.334843 -5.284637 0.242529
30.098888 -4.632662 0.637906
34.239216 -5.269919 0.725655
27.056725 -4.285364 -0.573822
28.656429 -4.538733 -0.607749
34.364017 -5.442726 -0.728796
29.185480 -4.622526 -0.206296
34.360840 -5.442223 -0.242878
28.651806 -4.666243 0.202666
34.307159 -5.587276 0.242669
28.152830 -4.584980 0.597487
29.879696 -4.866218 0.634136
34.300468 -5.586186 0.727959
26.929552 -4.506462 -0.571938
28.743919 -4.810082 -0.610472
34.463123 -5.767148 -0.731938
26.836178 -4.490836 -0.189960
28.719936 -4.806069 -0.203294
34.420528 -5.760021 -0.243646
26.343271 -4.526602 0.186609
28.343901 -4.870373 0.200781
34.326080 -5.898300 0.243157
28.161015 -4.838947 0.598534
34.279976 -5.890377 0.728587
26.810434 -4.727403 -0.570262
28.779617 -5.074623 -0.612147
34.539478 -6.090242 -0.734660
26.392204 -4.653658 -0.187098
28.982185 -5.110342 -0.205458
34.447735 -6.074065 -0.244204
26.450369 -4.783006 0.187656
28.979292 -5.240310 0.205598
34.371704 -6.215416 0.243855
26.760036 -4.839003 0.569634
29.780378 -5.385170 0.633927
34.394516 -6.219542 0.732147
28.734238 -5.325576 -0.612147
34.563660 -6.405996 -0.736335
26.389919 -4.891082 -0.187377
34.511406 -6.396311 -0.245042
26.260260 -4.985666 0.186609
34.502815 -6.550564 0.245182
26.657856 -5.061152 0.568377
29.653673 -5.629926 0.632252
34.417511 -6.534369 0.733822
34.604584 -6.726449 -0.738430
26.503288 -5.151717 -0.188494
28.790424 -5.596292 -0.204760
34.532803 -6.712497 -0.245601
26.078445 -5.187325 0.185632
34.483570 -6.859209 0.245461
26.338116 -5.238977 0.562513
29.534773 -5.874832 0.630786
34.467041 -6.855921 0.736126
26.687294 -5.429592 -0.570472
34.564163 -7.032158 -0.738849
26.182951 -5.326982 -0.186539
34.502308 -7.019574 -0.245810
25.777639 -5.361757 0.183817
34.549671 -7.186342 0.246369
26.526314 -5.517481 0.567540
34.435265 -7.162546 0.736754
26.922497 -5.722554 -0.576545
34.657948 -7.366774 -0.742199
25.978968 -5.522000 -0.185422
34.635361 -7.361974 -0.247206
26.628899 -5.781701 0.190239
34.573593 -7.506663 0.246997
25.920256 -5.627839 0.555602
27.017946 -5.989735 -0.579686
34.709473 -7.694905 -0.744712
26.427689 -5.858878 -0.188983
34.686951 -7.689912 -0.248044
26.831013 -6.071239 0.192054
34.604301 -7.830154 0.247695
26.152945 -5.917807 0.561676
27.013355 -6.236525 -0.580733
29.799444 -6.879744 -0.640629
34.757900 -8.024493 -0.747226
27.164776 -6.271482 -0.194638
34.715958 -8.014811 -0.248742
26.621273 -6.268478 0.190937
34.651459 -8.159335 0.248533
26.431183 -6.223717 0.568796
34.605774 -8.148579 0.744712
27.405096 -6.579381 -0.590367
34.832375 -8.362513 -0.750367
27.527122 -6.608677 -0.197639
29.530155 -7.089563 -0.212021
34.761379 -8.345469 -0.249580
29.207544 -7.147041 0.209927
34.695492 -8.489933 0.249371
26.191351 -6.408983 0.564817
34.640171 -8.476397 0.747016
27.220528 -6.786839 -0.587644
34.787174 -8.673416 -0.750995
27.157915 -6.771229 -0.195405
34.784256 -8.672688 -0.250278
26.750122 -6.793665 0.192683
29.202215 -7.416418 0.210345
34.755772 -8.826842 0.250348
26.492962 -6.728355 0.572566
34.690857 -8.810355 0.749739
26.986036 -6.979064 -0.583875
34.913425 -9.029226 -0.755393
27.000980 -6.982928 -0.194707
31.009014 -8.019476 -0.223610
34.804058 -9.000942 -0.250976
26.312679 -6.927550 0.189960
34.841816 -9.173084 0.251535
26.394564 -6.949109 0.571728
34.767345 -9.153478 0.753089
27.223476 -7.294509 -0.590367
27.740713 -7.433102 -0.200502
34.898048 -9.350904 -0.252233
25.971441 -7.080628 0.187936
34.847267 -9.500456 0.252163
25.783110 -7.029283 0.559791
34.830830 -9.495975 0.756231
26.889027 -7.456987 -0.584503
29.962334 -8.309291 -0.651309
34.991383 -9.703969 -0.760629
27.886786 -7.733690 -0.202038
34.911480 -9.681810 -0.252931
26.534245 -7.483431 0.192473
34.907402 -9.844905 0.253210
26.298132 -7.416841 0.572356
25.996426 -7.454355 -0.566492
27.486055 -7.881499 -0.598953
35.087967 -10.061313 -0.764608
26.414827 -7.574330 -0.191845
35.344730 -10.134938 -0.256701
26.784739 -7.807039 0.194777
25.502930 -7.433426 0.556440
26.981083 -7.864268 0.588691
26.773962 -7.930809 -0.584922
35.152210 -10.412559 -0.767959
26.577835 -7.872714 -0.193521
35.072773 -10.389029 -0.255374
26.466627 -7.965551 0.192962
35.007957 -10.536199 0.255235
25.867903 -7.785356 0.565864
34.934116 -10.513975 0.764189
26.474272 -8.093997 -0.579896
35.146053 -10.745227 -0.769843
26.393368 -8.069263 -0.192683
35.057278 -10.718085 -0.255933
26.482058 -8.222898 0.193590
35.057926 -10.885776 0.256282
26.305029 -8.167929 0.576964
35.041546 -10.880689 0.768587
26.107042 -8.231519 -0.573403
35.165367 -11.087598 -0.772356
27.304251 -8.608997 -0.199873
35.115002 -11.071717 -0.257050
27.409283 -8.773781 0.200921
26.451754 -8.467273 0.581780
35.030956 -11.213498 0.770472
26.186352 -8.508462 -0.576754
35.219406 -11.443480 -0.775707
27.608498 -8.970545 -0.202666
35.207253 -11.439530 -0.258446
26.885326 -8.865451 0.197639
35.071533 -11.564857 0.257818
26.557259 -8.757271 0.585759
35.055202 -11.559472 0.773194
26.025776 -8.708102 -0.574869
35.260422 -11.797972 -0.778849
25.139448 -8.411541 -0.185073
26.666212 -8.922389 -0.196313
35.210400 -11.781235 -0.259214
26.447115 -8.977586 0.194987
27.246672 -9.248999 0.602723
35.076065 -11.906720 0.775917
25.646294 -8.830727 -0.568168
25.377100 -8.738036 -0.187377
35.181889 -12.114096 -0.259773
25.140478 -8.779448 0.185911
28.378624 -9.910259 0.209857
35.213661 -12.297161 0.260401
25.371548 -8.860141 0.562932
28.391970 -9.914920 0.629948
35.112408 -12.261803 0.779058
25.360920 -8.980773 -0.563561
28.122253 -9.958612 -0.624922
35.360153 -12.521687 -0.785760
25.215046 -8.929116 -0.186749
35.253933 -12.484073 -0.261099
25.157022 -9.032293 0.186609
35.217949 -12.644535 0.261239
25.161528 -9.033912 0.560000
35.088757 -12.598151 0.780943
28.710709 -10.449843 -0.640000
35.362274 -12.870814 -0.788273
25.211338 -9.176177 -0.187307
35.322186 -12.856224 -0.262426
25.293022 -9.331088 0.188215
35.293900 -13.020606 0.262635
25.222431 -9.305046 0.563142
35.221359 -12.993845 0.786388
25.649824 -9.590076 -0.573613
28.019085 -10.475906 -0.626597
25.486229 -9.528911 -0.189960
29.129795 -10.891184 -0.217117
35.424080 -13.244520 -0.264031
25.350897 -9.604596 0.189262
27.744785 -10.511559 0.207134
35.328548 -13.384789 0.263752
25.617085 -9.705445 0.573822
35.293613 -13.371553 0.790576
28.309284 -10.866916 -0.635184
35.477608 -13.618578 -0.796021
25.710178 -9.869213 -0.192264
35.409843 -13.592566 -0.264799
25.760069 -10.017543 0.192962
27.605400 -10.735153 0.206785
35.406116 -13.768685 0.265218
25.950726 -10.091685 0.583246
35.361942 -13.751507 0.794765
28.138958 -11.084230 -0.633508
25.883587 -10.195816 -0.194219
35.494564 -13.981681 -0.266335
35.396069 -14.121600 0.266056
25.833815 -10.306647 0.582618
27.967003 -11.299402 -0.631833
22.845253 -9.230082 -0.172018
25.534021 -10.316414 -0.192264
35.463917 -14.328353 -0.267033
25.572062 -10.461806 0.192892
27.413841 -11.215299 0.206785
35.493614 -14.520821 0.267731
22.781809 -9.320285 0.515602
35.421921 -14.491490 0.801676
29.428347 -12.189620 -0.667225
35.616982 -14.753036 -0.807540
22.422010 -9.287500 -0.169435
28.750431 -11.908818 -0.217257
35.568497 -14.732953 -0.268779
22.538042 -9.450986 0.170622
35.549980 -14.907344 0.269128
22.653509 -9.499405 0.514555
35.441631 -14.861909 0.805027
29.707380 -12.610035 -0.676021
35.670944 -15.141418 -0.811728
29.298956 -12.436668 -0.222214
35.622669 -15.120926 -0.270175
35.620667 -15.303846 0.270663
22.689165 -9.748034 0.517278
27.686295 -11.894971 0.631205
29.522858 -12.836905 -0.674346
35.748329 -15.543817 -0.816545
22.834240 -9.928610 -0.173833
24.952597 -10.849698 -0.189960
35.663597 -15.506973 -0.271501
35.586445 -15.658410 0.271431
22.886919 -10.070486 0.523770
35.542900 -15.639251 0.813404
29.446245 -13.110313 -0.675184
35.784863 -15.932446 -0.820524
22.755863 -10.131563 -0.173903
24.911777 -11.091438 -0.190379
35.746162 -15.915217 -0.273177
26.212521 -11.807879 0.200711
35.649029 -16.058716 0.272967
23.053406 -10.384802 0.529634
35.614731 -16.043266 0.818220
22.744043 -10.365057 -0.523561
27.056313 -12.330273 -0.622828
35.762733 -16.298016 -0.823247
22.775776 -10.379519 -0.174741
24.713945 -11.262794 -0.189611
35.669613 -16.255579 -0.273665
22.239883 -10.252728 0.170971
21.917768 -10.104230 0.505550
23.105780 -10.774403 -0.534032
24.673349 -11.505371 -0.570262
35.872856 -16.727787 -0.829110
22.657143 -10.565199 -0.174532
23.198709 -10.941221 0.179069
21.901100 -10.329229 0.507225
23.384081 -11.028648 0.541571
25.301105 -11.932775 0.585969
25.086369 -11.965584 -0.582199
26.710665 -12.740334 -0.619896
29.083944 -13.872330 -0.674974
22.925108 -10.934715 -0.177324
25.226645 -12.032492 -0.195126
22.949232 -11.069395 0.177883
27.101349 -13.072139 0.210066
35.828903 -17.281811 0.277715
21.702066 -10.467834 0.504712
23.534254 -11.478422 -0.548482
26.661371 -13.003619 -0.621362
28.197971 -13.753070 -0.657173
22.568169 -11.007232 -0.175299
24.860037 -12.125051 -0.193102
22.726202 -11.207322 0.176905
27.380857 -13.502745 0.213138
22.058231 -10.877915 0.515184
28.005302 -13.962929 -0.655498
36.040051 -17.968906 -0.843561
22.417559 -11.176983 -0.174881
25.173889 -12.551239 -0.196383
27.482765 -13.702401 -0.214395
25.208181 -12.705970 0.197081
27.601307 -13.912204 0.215791
21.944609 -11.060993 0.514765
27.855663 -14.193170 -0.654869
36.068943 -18.378044 -0.847959
24.974304 -12.725043 -0.195685
27.629438 -14.077903 -0.216489
36.049244 -18.368008 -0.282462
27.994467 -14.418098 0.219840
24.522604 -12.629971 0.577801
35.908417 -18.494049 0.846074
24.697834 -12.856878 -0.583246
28.830399 -15.008155 -0.680838
36.066818 -18.775198 -0.851728
24.472033 -12.739334 -0.192613
28.170778 -14.664779 -0.221725
36.082722 -18.783476 -0.283998
22.292295 -11.728544 0.175858
24.256920 -12.762183 0.191356
27.301203 -14.363858 0.215372
22.137535 -11.647120 0.523979
26.977356 -14.193473 0.638534
35.949162 -18.913769 0.850891
28.177505 -14.982245 -0.668482
36.086983 -19.187788 -0.856126
24.042076 -12.783400 -0.190100
27.847488 -14.806772 -0.220189
36.094017 -19.191530 -0.285394
22.127436 -11.889501 0.175369
24.135818 -12.968643 0.191287
24.624304 -13.231115 0.585550
35.967690 -19.326136 0.855288
24.917788 -13.529255 -0.593927
28.766163 -15.618752 -0.685655
36.155392 -19.630777 -0.861781
23.964758 -13.011803 -0.190379
27.963280 -15.182821 -0.222144
36.171230 -19.639376 -0.287349
23.916523 -13.121054 0.190449
36.137794 -19.825874 0.287768
21.983484 -12.060553 0.525236
24.282862 -13.460211 -0.581571
36.166336 -20.047329 -0.866179
24.130169 -13.375571 -0.192613
36.112167 -20.017302 -0.288256
24.219898 -13.563795 0.193800
36.146629 -20.243084 0.289234
22.269938 -12.471765 0.534660
24.878128 -13.932422 0.597278
24.207985 -13.696219 -0.582618
36.111839 -20.431095 -0.869110
24.317146 -13.757979 -0.195056
36.188507 -20.474472 -0.290281
24.751745 -14.146788 0.199036
36.176964 -20.676838 0.290909
24.955242 -14.263096 0.602095
29.668528 -16.956961 0.715812
36.126511 -20.648001 0.871624
24.061567 -13.891953 -0.581990
36.088024 -20.835430 -0.872880
24.135540 -13.934660 -0.194568
36.207642 -20.904491 -0.291886
36.141998 -21.077389 0.292096
25.339375 -14.777487 0.614451
36.143589 -21.078318 0.876440
25.102367 -14.786425 -0.610262
36.077114 -21.251045 -0.877069
24.392128 -14.368061 -0.197639
36.170311 -21.305941 -0.293073
36.162941 -21.514688 0.293771
25.218046 -15.003160 0.614660
36.121521 -21.490047 0.880419
36.095970 -21.688646 -0.882095
36.163006 -21.728928 -0.294539
23.868557 -14.483796 0.194917
36.221733 -21.979887 0.295796
22.727121 -13.791156 0.556859
36.109917 -22.128185 -0.887121
36.151062 -22.153399 -0.296005
23.741255 -14.691535 0.194917
24.999746 -15.470312 0.205249
22.410368 -13.867957 0.552042
23.617603 -14.615017 0.581780
36.217060 -22.411797 0.892147
36.220669 -22.633186 -0.894660
25.347540 -15.838901 -0.208670
36.176849 -22.605804 -0.297821
26.208466 -16.536310 0.216349
36.289295 -22.896841 0.299566
22.491426 -14.191033 0.557068
23.675186 -14.937929 0.586388
25.357815 -15.999590 0.628063
25.928598 -16.518339 -0.643979
36.359062 -23.163279 -0.903037
25.933655 -16.521561 -0.214674
36.298683 -23.124811 -0.300473
24.120411 -15.514770 0.200223
25.802448 -16.596693 0.214185
36.306770 -23.353298 0.301381
23.443026 -15.079061 0.583875
25.519936 -16.414974 0.635602
36.249241 -23.316296 0.902828
36.390320 -23.632151 -0.908901
23.448658 -15.227736 -0.195196
24.385509 -15.987841 0.203574
36.252121 -23.767933 0.302638
22.558052 -14.789707 0.565026
23.837290 -15.628411 0.597068
25.819780 -17.089739 -0.648587
36.499516 -24.158503 -0.916859
23.981972 -15.873321 -0.200781
23.704620 -15.838922 0.199036
25.966164 -17.350035 0.218025
23.699999 -15.835834 0.597068
26.135672 -17.463297 0.658430
25.802280 -17.403858 -0.651938
36.560825 -24.660589 -0.923770
23.991762 -16.182648 -0.202038
36.451893 -24.587112 -0.306966
36.426922 -24.802208 0.307664
26.519447 -18.056450 0.672042
36.386765 -24.774866 0.922095
24.042728 -16.524109 -0.611100
25.797731 -17.730289 -0.655707
36.607895 -25.159910 -0.930472
23.981487 -16.482019 -0.203155
36.507900 -25.091185 -0.309270
36.439156 -25.278740 0.309619
36.440266 -25.279510 0.929006
23.946753 -16.767696 -0.612356
25.773062 -18.046492 -0.659058
23.689301 -16.587427 -0.201898
36.607014 -25.632505 -0.311993
36.551987 -25.832390 0.312481
36.487705 -25.786963 0.935917
23.921608 -17.063116 -0.615498
36.855064 -26.288464 -0.948273
23.828581 -16.996761 -0.204341
36.675011 -26.160030 -0.314506
23.689268 -17.053833 0.203783
36.609211 -26.354860 0.314925
23.603510 -16.992096 0.609215
23.731352 -17.241837 -0.614451
36.939701 -26.838264 -0.956440
23.574181 -17.127645 -0.203434
36.704208 -26.667168 -0.316740
23.684700 -17.366341 0.205040
23.494642 -17.226984 0.610262
36.588428 -26.827747 0.950367
23.756798 -17.579105 -0.619058
37.041637 -27.409370 -0.965236
23.737314 -17.564690 -0.206157
25.023455 -18.516382 -0.217327
36.855938 -27.271959 -0.320091
23.700510 -17.698009 0.206506
36.792679 -27.474396 0.320579
23.639814 -17.652687 0.618011
36.657333 -27.373329 0.958325
23.897919 -18.008373 -0.626807
37.112438 -27.966227 -0.973404
23.758827 -17.903561 -0.207692
24.078474 -18.309696 0.211183
23.453033 -17.834101 0.617173
36.727436 -27.928190 0.966493
23.938152 -18.368391 -0.632042
37.208042 -28.550735 -0.982409
23.728621 -18.207611 -0.208809
25.037621 -19.212042 -0.220329
37.128033 -28.489340 -0.326723
23.475002 -18.176289 0.207274
23.636433 -18.301283 0.626178
36.861767 -28.541431 0.976545
24.092083 -18.822800 -0.640419
37.217464 -29.077469 -0.989320
23.600348 -18.438612 -0.209089
37.089615 -29.239094 0.329725
23.617153 -18.618261 0.629948
37.267452 -29.643869 -0.997487
24.150700 -19.210333 -0.215442
37.227764 -29.612299 -0.332099
23.559736 -18.908688 0.210904
37.191784 -29.849564 0.332936
23.773462 -19.080221 0.638534
36.942822 -29.649750 0.992252
37.318134 -30.219629 -1.005864
23.632433 -19.137167 -0.212300
37.247700 -30.162592 -0.334612
23.533218 -19.227446 0.212160
37.262867 -30.445038 0.335938
37.046562 -30.268311 1.002095
37.361584 -30.798512 -1.014241
37.322571 -30.766354 -0.337684
37.364803 -31.075977 0.339289
37.119228 -30.871737 1.011310
37.428383 -31.406141 -1.023456
37.389717 -31.373699 -0.340755
37.389847 -31.652842 0.342012
37.237576 -31.523935 1.021990
37.548214 -32.069202 -1.034346
37.479496 -32.010513 -0.344106
37.506130 -32.317348 0.345642
37.385208 -32.213154 1.033718
37.629112 -32.710487 -1.044398
37.560982 -32.651260 -0.347457
37.553482 -32.933521 0.348714
37.493546 -32.880955 1.044608
37.701649 -33.355602 -1.054451
37.634109 -33.295845 -0.350808
37.645138 -33.599571 0.352274
37.555752 -33.519791 1.054451
37.765766 -34.004448 -1.064503
37.728542 -33.970932 -0.354439
37.646576 -34.195744 0.355067
37.587433 -34.142021 1.063666
37.880371 -34.710968 -1.076231
37.784542 -34.623154 -0.357790
37.757942 -34.903084 0.358976
37.669823 -34.821629 1.074556
37.985493 -35.422043 -1.087959
37.861259 -35.306194 -0.361420
37.888935 -35.642349 0.363165
37.801445 -35.560047 1.087121
38.015785 -36.075634 -1.097802
37.928902 -35.993183 -0.365050
37.952076 -36.331211 0.366795
37.886902 -36.268818 1.098639
38.166992 -36.857433 -1.111414
38.044956 -36.739586 -0.369239
38.041870 -37.058746 0.370775
37.919868 -36.939903 1.108901
38.271755 -37.609550 -1.123980
38.179367 -37.518757 -0.373707
38.107620 -37.776508 0.374614
38.014984 -37.684681 1.121257
38.394547 -38.394547 -1.137383
38.246475 -38.246475 -0.377616
38.234108 -38.569229 0.379152
38.106998 -38.441002 1.133823
38.499508 -39.177387 -1.150577
38.324783 -38.999584 -0.381735
38.314739 -39.331181 0.383341
38.167744 -39.180286 1.145760
38.600643 -39.972137 -1.163980
38.427563 -39.792908 -0.386203
38.405701 -40.119118 0.387739
38.322163 -40.031853 1.160838
38.745865 -40.829620 -1.179058
38.574451 -40.648991 -0.391230
38.547455 -40.977154 0.392766
38.409786 -40.830803 1.174241
38.817650 -41.626835 -1.192252
38.702465 -41.503311 -0.396187
38.629608 -41.789276 0.397304
38.499920 -41.648979 1.188064
38.939232 -42.494717 -1.207330
38.852245 -42.399788 -0.401492
38.551781 -42.442200 1.201048
39.048588 -43.367851 -1.222409
38.895615 -43.197956 -0.405821
38.853249 -43.531387 0.407357
38.705868 -43.366264 1.217592
39.225128 -44.335941 -1.240001
39.033997 -44.119907 -0.411266
39.205132 -45.100346 -0.417200
39.386879 -46.116108 -1.270367
39.264671 -45.973022 -0.422087
31.220324 -36.878937 1.012147
30.839392 -37.080338 0.336706
31.018776 -37.296024 1.016126
30.609896 -37.464642 1.013404
30.757391 -38.322914 1.029320
0.128507 -0.178507 0.004607
0.153865 -0.221796 0.005654
0.140670 -0.206602 0.005236
0.155556 -0.232806 0.001955
0.166635 -0.249386 0.006283
0.153518 -0.234154 0.001955
0.148007 -0.225748 0.005654
0.151469 -0.235485 0.001955
0.162257 -0.252256 0.006283
0.128064 -0.202970 0.001676
0.117369 -0.186019 0.004607
0.147336 -0.238093 0.001955
0.157830 -0.255050 0.006283
0.129690 -0.213723 0.001745
0.119292 -0.196587 0.004817
0.117595 -0.197659 0.001606
0.102236 -0.171844 0.004188
0.110806 -0.190002 0.004607