# This PCD file was generated using the MATLAB® pcwrite function
# from Computer Vision System Toolbox®.
# .PCD v.7 - Point Cloud Data file format
VERSION .7
FIELDS x y z
SIZE 4 4 4
TYPE F F F
COUNT 1 1 1
WIDTH 875
HEIGHT 1
VIEWPOINT 0 0 0 1 0 0 0
POINTS 875
DATA ascii
31.085485 33.335102 -0.954765
31.036989 33.283096 -0.317717
31.037983 32.707211 -0.944503
30.899485 32.561260 -0.313389
30.968023 32.068329 -0.933823
30.821241 31.916328 -0.309759
30.798206 31.340483 -0.920419
30.453766 30.989977 -0.303336
30.787746 30.787746 -0.912042
30.588694 30.588694 -0.302009
30.827055 30.293663 -0.905341
30.825933 30.292561 -0.301730
30.917635 29.856813 -0.900315
30.830153 29.772333 -0.299217
30.538816 28.980253 -0.881885
30.711603 29.144222 -0.295587
30.242155 28.201265 -0.866179
30.789240 28.711432 -0.293911
30.310196 27.774178 -0.861152
30.212889 27.685013 -0.286092
30.432537 27.401579 -0.857801
30.037182 27.045601 -0.282183
30.700451 27.161463 -0.858639
30.242096 26.755945 -0.281903
30.815578 26.787575 -0.855288
30.595181 26.595985 -0.283020
30.842905 26.342329 -0.849634
30.765276 26.276028 -0.282462
30.849503 25.885807 -0.843561
30.901480 25.929420 -0.281624
30.950788 25.513861 -0.840210
30.949108 25.512476 -0.280018
30.923626 25.041458 -0.833508
30.890799 25.014875 -0.277505
30.992310 24.652397 -0.829529
30.794880 24.495354 -0.274713
31.017179 24.233276 -0.824503
30.912909 24.151812 -0.273875
31.124357 23.882559 -0.821781
31.027292 23.808079 -0.273037
31.052124 23.399454 -0.814451
31.042206 23.391979 -0.271362
30.805077 22.794558 -0.802723
30.955772 22.906067 -0.268848
30.646931 22.266298 -0.793508
30.604366 22.235374 -0.264101
30.612169 21.835447 -0.787644
30.642561 21.857126 -0.262775
30.670517 21.475727 -0.784294
30.570009 21.405352 -0.260541
30.996828 21.303530 -0.787854
30.096355 20.684652 -0.254956
30.800243 20.971140 0.780524
30.046021 20.266296 -0.759163
30.167942 20.348534 -0.254048
30.888344 20.638931 0.259354
30.849070 20.612690 0.777173
30.080002 19.909519 -0.755603
30.552832 20.222479 -0.255793
30.866570 20.237009 0.257678
30.768581 20.172766 0.770681
30.395140 19.738834 -0.759163
30.921030 20.080353 -0.257399
30.915840 19.885736 0.256631
30.750051 19.779099 0.765864
30.937246 19.709200 -0.768377
30.968578 19.729160 -0.256352
30.919056 19.508471 0.255235
30.752375 19.403303 0.761676
31.074146 19.417282 -0.767540
30.995403 19.368076 -0.255165
30.918053 19.132671 0.253839
30.818508 19.071072 0.759163
30.969624 18.978210 -0.760838
30.992714 18.992359 -0.253769
30.878664 18.737633 0.252163
30.812813 18.697674 0.754974
31.031221 18.645439 -0.758325
30.951557 18.597572 -0.252093
30.980846 18.431667 0.251674
30.914661 18.392290 0.753508
31.089376 18.313042 -0.755812
31.052359 18.291237 -0.251605
30.993662 18.074970 0.250488
31.004892 18.081520 0.751833
31.074835 17.941065 -0.751623
31.098215 17.954563 -0.250697
31.124168 17.788929 0.250278
31.092060 17.770576 0.750157
31.090988 17.590435 -0.748273
31.123161 17.608637 -0.249650
31.094999 17.414036 0.248812
31.071491 17.400871 0.745969
31.182098 17.284519 -0.746807
31.170687 17.278194 -0.248812
31.114275 17.069876 0.247765
31.116974 17.071356 0.743456
31.191166 16.935421 -0.743456
31.179672 16.929180 -0.247695
31.156345 16.740910 0.246927
31.159079 16.742376 0.740943
31.152388 16.564018 -0.739058
31.114315 16.543776 -0.246020
31.124256 16.375263 0.245531
31.127037 16.376726 0.736754
31.189329 16.236137 -0.736545
31.142191 16.211599 -0.245112
31.123732 16.029776 0.244414
31.126553 16.031227 0.733404
31.196205 15.895261 -0.733404
31.184469 15.889280 -0.244344
31.083839 15.667545 0.243018
31.122419 15.686991 0.730053
31.118990 15.515356 -0.728377
31.107161 15.509458 -0.242669
31.004135 15.289547 0.241342
31.042925 15.308677 0.725027
31.109426 15.173080 -0.725027
31.061565 15.149737 -0.241272
30.992271 14.948897 0.240225
31.031254 14.967700 0.721676
31.051147 14.810637 -0.720629
30.939869 14.757561 -0.239318
30.976833 14.609623 0.239108
30.943666 14.593981 0.716650
31.079540 14.492627 -0.718325
31.031223 14.470097 -0.239038
31.003252 14.292695 0.238340
29.181320 13.452773 0.673089
31.132046 14.187691 -0.716650
31.083519 14.165576 -0.238480
29.513018 13.294645 0.225983
31.017389 13.972315 0.237502
29.124409 13.119590 0.669110
31.072001 13.834146 -0.712461
29.168797 12.986785 -0.222912
31.087194 13.840911 -0.237572
29.335018 12.907717 0.223749
29.347601 12.913254 0.671623
31.035675 13.494696 -0.708901
29.336037 12.755672 -0.223331
29.308725 12.592022 0.222702
29.789864 12.798736 0.679163
29.320852 12.445964 -0.667225
29.262136 12.421040 -0.221934
29.638817 12.428587 0.224378
30.075598 12.611745 0.683142
29.308268 12.139882 -0.664503
29.831343 12.356547 -0.225425
29.709126 12.154325 0.224098
30.156750 12.337452 0.682513
29.542870 11.936093 -0.667435
30.086384 12.155687 -0.226542
29.776909 11.879782 0.223819
30.114687 12.014543 0.679163
30.213335 11.901349 -0.680210
30.228531 11.907334 -0.226821
30.131081 11.717337 0.225704
30.171797 11.733170 0.678116
30.400045 11.669484 -0.682095
30.312618 11.635923 -0.226682
30.157375 11.425608 0.225146
30.198242 11.441091 0.676440
30.453899 11.386247 -0.681047
30.309973 11.332435 -0.225914
30.143353 11.120470 0.224308
30.259415 11.163287 0.675602
30.157518 10.976439 -0.672252
30.285555 11.023041 -0.225006
30.248659 10.860378 0.224378
30.167486 10.831234 0.671414
30.393520 10.762910 -0.675393
30.380594 10.758333 -0.225006
30.191231 10.543250 0.223261
30.223101 10.554379 0.670576
30.382301 10.461466 -0.673089
30.359861 10.453738 -0.224168
30.234743 10.263312 0.222912
30.314053 10.290235 0.670576
30.349182 10.154695 -0.670367
30.193890 10.102734 -0.222283
30.323154 9.999077 0.222912
30.317242 9.997128 0.668691
30.208439 9.815317 -0.665341
30.318943 9.851222 -0.222563
30.247353 9.682254 0.221725
30.212891 9.671223 0.664503
30.340618 9.566360 -0.666388
30.356071 9.571233 -0.222214
30.302044 9.409035 0.221515
30.257944 9.395342 0.663665
30.375139 9.286612 -0.665341
30.371498 9.285499 -0.221725
30.258518 9.106780 0.220608
30.223898 9.096361 0.661152
30.339989 8.987114 -0.662828
30.326729 8.983187 -0.220817
30.260035 8.819996 0.220049
30.225340 8.809883 0.659477
30.301933 8.688940 -0.660315
30.250168 8.674096 -0.219700
30.229982 8.525737 0.219281
30.185598 8.513220 0.656964
30.222458 8.381430 -0.656964
30.209078 8.377719 -0.218863
30.216402 8.237937 0.218653
30.181574 8.228441 0.655288
30.294447 8.117373 -0.656964
30.281036 8.113779 -0.218863
30.209780 7.953571 0.218095
30.174885 7.944384 0.653613
30.257658 7.825162 -0.654660
30.273239 7.829192 -0.218304
30.210192 7.672411 0.217606
30.213991 7.673377 0.652985
30.208382 7.531796 -0.652147
30.194868 7.528426 -0.217257
30.188576 7.387097 0.216978
30.192402 7.388034 0.651100
30.272959 7.267894 -0.652147
30.210796 7.252971 -0.216908
30.183756 7.107331 0.216489
30.177872 7.105945 0.649424
30.169622 6.965206 -0.648587
30.156019 6.962066 -0.216070
30.166603 6.826005 0.215930
30.170473 6.826881 0.647958
30.151169 6.684353 -0.646911
30.186337 6.692150 -0.215861
30.137074 6.543400 0.215302
30.140968 6.544246 0.646074
30.218132 6.423062 -0.647121
30.194681 6.418077 -0.215512
30.202816 6.282195 0.215372
30.157776 6.272826 0.645236
30.224047 6.149152 -0.646074
30.249538 6.154338 -0.215512
30.207451 6.008636 0.215023
30.172144 6.001613 0.644398
30.237301 5.877536 -0.645236
30.272644 5.884406 -0.215302
30.180141 5.729879 0.214464
30.184080 5.730627 0.643561
30.208797 5.598869 -0.643561
30.244184 5.605428 -0.214744
30.199472 5.460954 0.214255
30.193586 5.459890 0.642723
30.217121 5.328094 -0.642723
30.203318 5.325660 -0.214115
30.196701 5.188742 0.213906
30.210522 5.191117 0.642095
30.193441 5.052649 -0.641257
30.179604 5.050333 -0.213627
30.211222 4.920210 0.213696
30.175730 4.914430 0.640419
30.226509 4.787409 -0.641047
30.212650 4.785213 -0.213557
30.213474 4.650299 0.213417
30.217466 4.650913 0.640419
30.197920 4.513109 -0.639582
30.184029 4.511033 -0.213068
30.173735 4.374983 0.212859
30.177748 4.375565 0.638744
30.236155 4.249414 -0.639582
30.251953 4.251635 -0.213278
30.200857 4.110156 0.212789
30.214783 4.112051 0.638744
30.192787 3.974956 -0.637906
30.178846 3.973120 -0.212510
30.156216 3.836355 0.212230
30.170172 3.838131 0.637068
30.216402 3.710108 -0.637697
30.252069 3.714487 -0.212789
30.188545 3.573050 0.212230
30.202517 3.574703 0.637068
30.257561 3.447414 -0.637906
30.243589 3.445822 -0.212510
30.188755 3.306206 0.212021
30.192808 3.306650 0.636231
30.236778 3.178013 -0.636859
30.272509 3.181769 -0.212510
30.216457 3.042637 0.212021
30.180725 3.039039 0.635393
30.223553 2.910197 -0.636021
30.209538 2.908848 -0.211881
30.241859 2.778836 0.212021
30.206095 2.775550 0.635393
30.257757 2.647211 -0.636231
30.243734 2.645984 -0.211951
30.175268 2.507371 0.211393
30.229166 2.511850 0.635393
30.199970 2.376789 -0.634555
30.175953 2.374899 -0.211323
30.205973 2.244691 0.211462
30.210054 2.244995 0.634555
30.249481 2.115250 -0.635184
30.235430 2.114267 -0.211602
30.214432 1.980358 0.211393
30.228495 1.981280 0.634555
30.236851 1.849365 -0.634555
30.252729 1.850336 -0.211602
30.200611 1.714915 0.211183
30.194725 1.714581 0.633508
30.251839 1.585432 -0.634555
30.267723 1.586264 -0.211602
30.214428 1.451303 0.211183
30.218523 1.451500 0.633718
30.264523 1.321378 -0.634555
30.280415 1.322071 -0.211602
30.225943 1.187580 0.211183
30.230040 1.187742 0.633718
30.224943 1.055478 -0.633508
30.210848 1.054986 -0.211043
30.235155 0.923768 0.211183
30.199280 0.922671 0.632880
30.282974 0.792988 -0.634555
30.298876 0.793404 -0.211602
30.242064 0.659884 0.211183
30.086237 0.656484 0.630367
30.288740 0.528692 -0.634555
30.304646 0.528970 -0.211602
30.126684 0.394380 0.210345
30.130808 0.394434 0.631205
30.282204 0.264269 -0.634346
30.218113 0.263709 -0.210974
30.128979 0.131463 0.210345
30.133102 0.131481 0.631205
30.233368 0.000000 -0.633299
30.099266 0.000000 -0.210136
30.088980 -0.131289 0.210066
30.093113 -0.131307 0.630367
30.152237 -0.263135 -0.631623
30.198114 -0.263535 -0.210834
30.086689 -0.393856 0.210066
30.130808 -0.394434 0.631205
30.168785 -0.526598 -0.632042
30.104681 -0.525479 -0.210206
22.634060 -0.493877 0.158056
30.072109 -0.656176 0.209996
30.086237 -0.656484 0.630367
30.153048 -0.789585 -0.631833
22.671675 -0.593679 -0.158335
30.138933 -0.789216 -0.210485
22.608898 -0.690764 0.157916
30.045248 -0.917965 0.209857
30.049383 -0.918092 0.629739
30.155001 -1.053036 -0.632042
30.130899 -1.052194 -0.210485
22.761883 -0.894317 0.159033
30.070198 -1.181461 0.630367
30.084732 -1.313528 -0.630786
30.070620 -1.312912 -0.210136
30.094568 -1.445546 0.210345
30.018797 -1.441906 0.629529
30.082109 -1.576537 -0.630995
30.058016 -1.575274 -0.210136
30.010921 -1.704144 0.209857
23.177570 -1.316118 0.486283
30.084925 -1.708346 0.631205
30.057226 -1.838379 -0.630786
29.823542 -1.824086 -0.208600
30.184496 -1.978396 0.211183
23.394659 -1.533367 0.491100
30.507833 -1.999589 0.640419
29.292030 -2.048298 -0.615079
30.115725 -2.105897 -0.210764
30.485195 -2.265441 0.213417
30.449341 -2.262777 0.639582
28.914228 -2.275599 -0.607540
29.667538 -2.334886 -0.207762
30.504128 -2.534698 0.213696
30.388582 -2.525096 0.638744
29.640253 -2.593186 -0.623246
30.562508 -2.673873 -0.214185
30.411140 -2.794391 0.213208
23.336548 -2.144328 0.490890
30.435080 -2.796591 0.640210
30.502203 -2.937028 -0.641885
30.458382 -2.932809 -0.213627
30.415447 -3.062675 0.213417
30.419464 -3.063079 0.640419
30.485353 -3.204140 -0.642095
30.471409 -3.202674 -0.213906
30.467085 -3.336689 0.213976
30.431330 -3.332773 0.641257
30.456232 -3.470049 -0.642095
30.442299 -3.468462 -0.213906
30.436806 -3.602433 0.213976
30.440802 -3.602906 0.642095
30.464483 -3.740568 -0.642932
30.450573 -3.738860 -0.214185
30.443890 -3.872952 0.214255
30.447872 -3.873459 0.642932
30.509979 -4.016715 -0.644608
30.496101 -4.014888 -0.214744
30.448566 -4.143868 0.214534
30.412912 -4.139016 0.642932
30.503468 -4.286983 -0.645236
30.489611 -4.285035 -0.214953
30.450830 -4.415160 0.214813
30.454788 -4.415734 0.644608
30.464895 -4.553009 -0.645236
30.500505 -4.558331 -0.215302
30.411142 -4.680723 0.214813
30.415094 -4.681331 0.644608
30.473377 -4.826509 -0.646283
30.459566 -4.824321 -0.215302
30.408617 -4.952358 0.215093
30.412556 -4.953000 0.645445
30.469542 -5.098853 -0.647121
30.495207 -5.103148 -0.215861
30.443085 -5.231079 0.215651
30.407589 -5.224979 0.646283
30.463270 -5.371496 -0.647958
30.449514 -5.369071 -0.215861
30.474998 -5.510777 0.216210
30.439543 -5.504366 0.647958
30.484047 -5.649884 -0.649424
30.470327 -5.647341 -0.216349
30.425747 -5.776509 0.216210
30.429638 -5.777247 0.648796
30.472839 -5.923320 -0.650262
30.459148 -5.920659 -0.216629
30.452641 -6.057407 0.216768
30.417288 -6.050375 0.649634
30.449381 -6.194996 -0.650890
30.445518 -6.194211 -0.216908
30.398621 -6.322922 0.216768
30.402483 -6.323726 0.650472
30.482174 -6.479186 -0.652775
30.468555 -6.476291 -0.217466
30.459551 -6.613417 0.217606
30.463383 -6.614249 0.652985
30.463516 -6.753599 -0.653613
30.459694 -6.752751 -0.217815
30.439692 -6.887799 0.217885
30.404505 -6.879837 0.652985
30.481352 -7.037175 -0.655288
30.467810 -7.034048 -0.218304
30.456295 -7.171505 0.218444
30.421162 -7.163233 0.654660
30.506275 -7.323909 -0.657173
30.492777 -7.320668 -0.218932
30.431406 -7.446517 0.218723
30.435184 -7.447442 0.656335
30.480005 -7.599519 -0.658011
30.466543 -7.596162 -0.219212
30.404032 -7.721641 0.219002
30.369036 -7.712752 0.656335
30.451244 -7.875227 -0.658849
30.476545 -7.881771 -0.219770
30.451534 -8.017220 0.219840
30.455267 -8.018203 0.659686
30.419991 -8.151011 -0.659686
30.435581 -8.155190 -0.219980
30.457594 -8.303693 0.220398
30.422718 -8.294185 0.660524
30.463312 -8.448224 -0.662199
30.449980 -8.444527 -0.220608
30.460966 -8.590881 0.220957
30.464649 -8.591920 0.663037
30.465313 -8.735787 -0.663875
30.413578 -8.720953 -0.220887
30.423239 -8.867565 0.221236
30.388512 -8.857444 0.663037
30.455023 -9.021189 -0.665341
30.441784 -9.017267 -0.221655
30.373423 -9.141363 0.221446
30.377075 -9.142462 0.664503
30.461187 -9.312920 -0.667225
30.448002 -9.308888 -0.222283
30.378445 -9.432757 0.222074
30.382071 -9.433884 0.666388
30.455038 -9.602437 -0.668901
30.441904 -9.598295 -0.222842
30.371162 -9.721886 0.222632
30.374763 -9.723039 0.668063
30.408117 -9.880197 -0.669739
30.395025 -9.875942 -0.223121
30.437115 -10.036655 0.223749
30.440676 -10.037829 0.671414
30.434513 -10.183246 -0.672252
30.421482 -10.178885 -0.223959
30.424124 -10.327599 0.224308
30.389791 -10.315944 0.672252
30.457928 -10.487505 -0.674765
30.444956 -10.483039 -0.224797
30.398926 -10.615780 0.224797
30.364683 -10.603822 0.673718
30.355824 -10.749561 -0.674555
30.390020 -10.761671 -0.225076
30.389833 -10.911065 0.225425
27.786833 -9.976492 0.618430
30.412138 -10.919073 0.676859
30.420574 -11.072184 -0.678116
30.407713 -11.067502 -0.225914
27.891748 -10.289809 0.207553
30.424803 -11.224302 0.226402
27.604916 -10.183991 0.616335
30.400112 -11.215194 0.678744
30.350887 -11.347732 -0.678744
27.884052 -10.425420 -0.207832
30.384905 -11.360451 -0.226472
27.539061 -10.433617 0.205598
30.419207 -11.524807 0.227100
30.385229 -11.511933 0.680629
27.982603 -10.741515 -0.627854
30.428047 -11.680233 -0.682723
27.549288 -10.575180 -0.206017
30.424644 -11.678926 -0.227519
30.392036 -11.818816 0.227659
27.553429 -10.714942 0.619267
27.497112 -10.831400 -0.619058
30.371471 -11.963640 -0.683770
30.396002 -11.973303 -0.228078
27.612835 -11.016404 0.207553
27.458876 -10.954980 0.619267
30.386421 -12.276911 -0.686493
27.657221 -11.174242 -0.208251
30.420160 -12.290543 -0.229055
27.515648 -11.256949 0.207553
27.362230 -11.194184 0.619267
27.719543 -11.481812 -0.628482
27.595610 -11.430475 -0.208530
27.416367 -11.496636 0.207553
27.263502 -11.432535 0.619267
27.590683 -11.711550 -0.627854
27.457991 -11.655226 -0.208251
27.342560 -11.747291 0.207762
27.199442 -11.685802 0.620105
27.551611 -11.979781 -0.629320
27.428598 -11.926294 -0.208809
27.275618 -12.001559 0.208042
27.096430 -11.922714 0.620105
27.409487 -12.203489 -0.628482
27.323479 -12.165196 -0.208809
27.169847 -12.239123 0.208042
27.027815 -12.175143 0.620943
27.238266 -12.413193 -0.627016
27.216278 -12.403172 -0.208809
27.098331 -12.492502 0.208321
26.956858 -12.427281 0.621780
27.165148 -12.667316 -0.627854
27.143257 -12.657108 -0.209089
26.988283 -12.728501 0.208321
26.883554 -12.679108 0.622618
25.582682 -12.202312 -0.593718
27.035524 -12.895284 -0.627435
26.968592 -12.863358 -0.208600
26.912207 -12.980908 0.208600
26.807905 -12.930599 0.623456
26.966894 -13.152633 -0.628482
25.534117 -12.453821 -0.198338
26.927214 -13.133280 -0.209159
25.569220 -12.609344 0.199036
26.762030 -13.197573 0.208321
26.729914 -13.181734 0.624294
25.956352 -12.941360 -0.607540
26.059853 -12.992964 -0.203294
26.717279 -13.466618 0.208879
26.649576 -13.432492 0.625131
25.503922 -12.994898 -0.599581
27.312269 -13.916296 -0.642095
26.684996 -13.596684 -0.209089
26.598745 -13.699254 0.208879
26.531342 -13.664538 0.625131
27.358282 -14.241820 -0.646074
30.391195 -15.820655 -0.717697
25.864605 -13.464261 -0.203574
26.442785 -13.912223 0.208600
26.446480 -13.914165 0.625969
25.952967 -13.799437 -0.615707
30.357908 -16.141586 -0.720210
25.534222 -13.576787 -0.201898
26.893929 -14.299755 -0.212649
26.012070 -13.976789 0.206157
26.368084 -14.168083 0.627016
25.541611 -13.867963 -0.608796
30.400404 -16.506073 -0.724608
25.318104 -13.746609 -0.201130
27.365698 -14.858361 -0.217396
26.309929 -14.434121 0.209508
26.339861 -14.450542 0.629320
25.611994 -14.196959 -0.613403
30.360136 -16.828897 -0.727121
26.482840 -14.679678 -0.211393
26.662828 -14.931901 0.213347
26.457001 -14.816632 0.635184
25.269587 -14.296844 -0.608168
26.548729 -15.020548 -0.638953
30.316542 -17.152275 -0.729634
26.188364 -14.816664 -0.210066
30.296343 -17.140846 -0.243018
27.078461 -15.476616 0.217746
26.561058 -15.180895 0.640838
25.646046 -14.806752 -0.620314
30.347534 -17.521156 -0.734032
25.876209 -14.939636 -0.208600
30.370771 -17.534573 -0.244833
26.277235 -15.324430 0.212370
26.643480 -15.538018 0.646074
30.374382 -17.891878 -0.738430
26.227352 -15.449091 -0.212510
30.345840 -17.875065 -0.245880
26.795639 -15.941730 0.217676
26.850561 -15.974404 0.654451
27.191954 -16.338573 -0.664503
30.328497 -18.223200 -0.741152
26.802969 -16.104849 -0.218304
26.681149 -16.190519 0.217885
30.340082 -18.410814 0.247765
26.752872 -16.234041 0.655498
27.014240 -16.554348 -0.663665
30.287661 -18.560303 -0.744084
26.627304 -16.317232 -0.218025
26.606873 -16.464832 0.218444
26.712208 -16.530016 0.658011
25.147591 -15.713959 -0.621152
26.656784 -16.657007 -0.658430
30.344984 -18.961651 -0.749529
26.695904 -16.681452 -0.219770
30.300020 -18.933554 -0.249440
26.436808 -16.680384 0.218234
26.609217 -16.789165 0.659058
25.043232 -15.954299 -0.621990
26.451387 -16.851393 -0.656964
30.338570 -19.327801 -0.753508
26.574617 -16.929897 -0.219980
30.403521 -19.369179 -0.251674
26.391161 -16.975365 0.219072
27.193237 -17.491278 0.677278
26.990885 -17.528086 -0.674137
30.378370 -19.727945 -0.758744
25.100798 -16.300650 -0.208949
26.652302 -17.308207 -0.221864
30.367521 -19.720900 -0.252791
26.835770 -17.594301 0.224029
30.289547 -19.858696 0.252861
24.606504 -16.132730 0.616335
27.323837 -17.914293 0.684398
30.250196 -19.832899 0.757697
25.061110 -16.587587 -0.629529
26.611797 -17.613964 -0.668482
30.271753 -20.036436 -0.760419
25.057659 -16.585302 -0.209787
30.277657 -20.040344 -0.253490
24.660788 -16.477812 0.207064
26.240541 -17.533369 0.220329
30.281385 -20.233376 0.254258
24.680918 -16.491262 0.621780
26.626131 -17.791012 0.670786
30.217291 -20.190548 0.761257
26.589693 -17.934975 -0.671833
30.369274 -20.484335 -0.767330
30.300585 -20.438002 -0.255165
24.788822 -16.878109 0.209368
26.152662 -17.806713 0.220887
24.660028 -16.790417 0.624922
30.254814 -20.599770 0.766702
26.613438 -18.290909 -0.676440
30.354151 -20.861830 -0.771519
26.099440 -17.937649 -0.221097
30.310623 -20.831913 -0.256771
24.755619 -17.173584 0.210345
24.545425 -17.027767 0.625759
30.318357 -21.229143 -0.775288
24.533007 -17.178196 -0.209089
30.250547 -21.181662 -0.257818
24.670139 -17.435131 0.210904
26.107395 -18.450882 0.223191
24.575520 -17.368259 0.630367
25.971670 -18.354961 0.666178
25.923893 -18.491333 -0.667016
30.327291 -21.632246 -0.780315
24.479856 -17.461313 -0.209927
26.116190 -18.628496 -0.223959
23.080601 -16.615656 0.198547
24.590092 -17.702333 0.211532
24.487930 -17.628788 0.632042
30.355749 -22.054743 -0.785969
23.113052 -16.792616 -0.199455
24.415539 -17.738926 -0.210694
26.535110 -19.278887 -0.228985
23.087946 -16.928783 0.199873
24.297585 -17.815725 0.210345
24.486351 -17.954136 0.636021
30.267290 -22.192896 0.786178
23.154037 -17.133085 -0.603351
23.271090 -17.219700 -0.202107
26.373901 -19.515659 -0.229055
23.211758 -17.333042 0.202247
24.128471 -18.017584 0.630786
30.280752 -22.611710 0.791623
23.131397 -17.430758 -0.606702
23.095976 -17.404066 -0.201898
23.027777 -17.510729 0.201968
22.808414 -17.343922 0.600210
23.065655 -17.698900 -0.609006
23.006685 -17.653650 -0.202457
25.561222 -19.613815 -0.224936
23.055946 -17.851820 0.203574
30.258953 -23.428984 0.267173
23.098883 -17.885065 0.611938
23.170313 -18.102633 -0.615917
30.339638 -23.703924 -0.806493
23.056633 -18.013815 -0.204272
30.290396 -23.665451 -0.268360
23.433287 -18.473312 0.208321
25.773474 -20.318169 0.229125
23.248135 -18.327351 0.620105
30.267328 -23.860838 0.807330
22.854971 -18.179665 -0.611728
22.640303 -18.008909 -0.201968
25.488926 -20.274807 -0.227380
30.333153 -24.128078 -0.270594
23.084019 -18.526884 0.206645
24.277212 -19.484524 0.217327
25.602983 -20.548567 0.229195
23.157490 -18.585850 0.621990
22.501211 -18.221121 -0.606492
25.655731 -20.775602 -0.691519
30.364202 -24.588448 -0.818430
22.435658 -18.168037 -0.201549
23.539177 -19.061649 -0.211462
30.331268 -24.561777 -0.272479
22.247759 -18.177181 0.200572
22.622791 -18.483595 0.611938
22.518782 -18.563051 -0.611309
30.325911 -24.998751 -0.823247
22.260826 -18.350409 -0.201409
22.119040 -18.396212 0.200851
22.368391 -18.603594 0.609424
30.324158 -25.220337 0.826178
21.283707 -17.859150 -0.581990
24.691856 -20.718927 -0.675184
30.298071 -25.423101 -0.828482
22.237728 -18.659670 -0.202666
24.037889 -20.170183 -0.219072
22.232420 -18.821133 0.203364
24.766291 -20.966211 0.226542
22.312023 -18.888521 0.612356
24.349407 -20.613295 0.668273
24.069174 -20.557016 -0.663037
21.929573 -18.729626 -0.201340
21.946123 -18.909988 0.202247
24.021801 -20.698507 0.221376
22.494745 -19.382713 0.621990
23.994501 -20.858101 -0.665969
30.294945 -26.334993 -0.840838
21.855856 -18.999006 -0.202177
24.678402 -21.452608 -0.228287
30.338585 -26.372931 -0.280647
21.923115 -19.226055 0.203574
30.298407 -26.570990 0.281345
22.204477 -19.472803 0.618639
21.363020 -18.900404 -0.597487
30.251175 -26.763979 -0.846074
21.479527 -19.003479 -0.200223
23.883615 -21.130438 -0.222632
21.374023 -19.077045 0.200013
22.138126 -19.759033 0.621571
23.953735 -21.568039 -0.675184
30.343378 -27.321301 -0.855288
21.483793 -19.344095 -0.201828
23.705742 -21.344746 -0.222702
30.327002 -27.306555 -0.284905
21.413988 -19.451097 0.201968
22.342283 -20.294302 0.632252
21.192074 -19.418959 -0.602095
22.165068 -20.310543 -0.629739
30.317566 -27.780931 -0.861362
21.092991 -19.328165 -0.199734
24.543364 -22.489849 -0.232406
30.293987 -27.759325 -0.286860
21.287491 -19.677954 0.202387
23.478483 -21.703287 0.669739
20.714706 -19.316776 -0.593299
20.967400 -19.552416 -0.200153
23.841549 -22.232605 -0.227589
30.262678 -28.220404 -0.288885
21.158661 -19.904081 0.202806
20.593813 -19.372725 0.592252
30.293587 -28.497360 0.871205
20.777418 -19.717033 -0.600000
20.621891 -19.569443 -0.198477
22.297464 -21.159504 -0.214604
20.846916 -19.956581 0.201479
21.757072 -20.827866 0.210276
30.238747 -28.947302 0.876859
21.014500 -20.293467 -0.611938
20.594196 -19.887585 -0.199873
21.746397 -21.184402 0.211951
21.004528 -20.461706 0.614241
21.285856 -20.917553 -0.625131
20.591038 -20.234756 -0.201549
21.042280 -20.859447 0.206855
30.260262 -29.997335 0.297471
20.747065 -20.566799 0.611938
20.699545 -20.699545 -0.613194
20.555094 -20.555094 -0.202945
20.331450 -20.509653 0.201619
20.594954 -20.775467 0.612775
20.665281 -21.029142 -0.617592
20.353909 -20.712288 -0.202736
19.907476 -20.435596 0.199175
20.196604 -20.732393 0.606283
20.335136 -21.057650 -0.613194
19.741711 -20.443138 -0.198407
20.309244 -21.215313 0.205040
20.208494 -21.110067 0.612147
20.212540 -21.299572 -0.615079
20.133881 -21.216682 -0.204202
20.267220 -21.544689 0.206506
20.064608 -21.329308 0.613403
20.244091 -21.709129 -0.621780
20.077543 -21.530529 -0.205528
19.915529 -21.544497 0.204830
20.020229 -21.657763 0.617801
20.107910 -21.943933 -0.623456
19.868624 -21.682798 -0.205319
20.177237 -22.213406 0.209508
19.938026 -21.950054 0.621152
19.935719 -22.140860 -0.624084
20.280855 -22.524170 -0.211602
20.462046 -22.925785 0.214534
20.225048 -22.660252 0.636231
19.986862 -22.591038 -0.631833
21.554504 -24.362936 -0.227100
22.502029 -25.433916 -0.237084
20.313950 -23.163620 0.215093
19.967205 -22.768232 0.634346
19.684013 -22.643867 -0.628482
21.553371 -24.794317 -0.688168
20.888411 -24.029367 -0.222283
20.137148 -23.370310 0.215372
19.943962 -23.146109 0.640000
19.531113 -22.867994 -0.629948
20.307745 -23.777315 -0.218304
20.526859 -24.247305 0.221795
20.102968 -23.746586 0.651728
19.266546 -22.960976 -0.627854
19.932358 -23.754459 -0.216489
20.902752 -25.132828 0.228217
19.645651 -23.621328 0.643561
19.385618 -23.726812 0.213906
19.521004 -23.892515 0.646283
19.303009 -24.051052 0.215302
20.101490 -25.498619 0.226682
20.475136 -25.972586 0.692775
19.951675 -25.767944 0.227519
20.149773 -26.023792 0.689424
19.671576 -25.869434 0.226891
19.819031 -26.063349 0.685864
19.997604 -26.780041 0.700105
20.584887 -28.074244 0.729215
0.163586 -0.227235 0.001955
0.157713 -0.219077 0.005654
0.176695 -0.254704 0.002164
0.136769 -0.197152 0.005026
0.151924 -0.223130 0.005654
0.155556 -0.232806 0.001955
0.166635 -0.249386 0.006283
0.153518 -0.234154 0.001955
0.126080 -0.192304 0.004817
0.151469 -0.235485 0.001955
0.140623 -0.218622 0.005445
0.128064 -0.202970 0.001676
0.096030 -0.152198 0.003770
0.147336 -0.238093 0.001955
0.157830 -0.255050 0.006283
0.145253 -0.239369 0.001955
0.140038 -0.230776 0.005654
0.117595 -0.197659 0.001606
0.102236 -0.171844 0.004188
0.115843 -0.198639 0.004817