# This PCD file was generated using the MATLAB® pcwrite function
# from Computer Vision System Toolbox®.
# .PCD v.7 - Point Cloud Data file format
VERSION .7
FIELDS x y z
SIZE 4 4 4
TYPE F F F
COUNT 1 1 1
WIDTH 762
HEIGHT 1
VIEWPOINT 0 0 0 1 0 0 0
POINTS 762
DATA ascii
32.799465 35.794334 -1.016964
37.277565 37.277565 -1.104294
37.270691 37.270691 -0.367982
37.373257 36.726597 -1.097592
37.287827 36.642643 -0.364980
37.447807 36.162930 -1.090472
37.404758 36.121353 -0.363026
37.486378 35.573246 -1.082514
37.421150 35.511349 -0.360163
37.590649 35.053844 -1.076650
37.502903 34.972023 -0.357999
37.666611 34.515087 -1.070158
37.578110 34.433994 -0.355835
37.691467 33.937550 -1.062409
37.602211 33.857185 -0.353252
37.724113 33.375477 -1.055079
37.656574 33.315723 -0.351018
37.772476 32.835114 -1.048378
37.674183 32.749668 -0.348505
37.791489 32.276981 -1.041048
37.745632 32.237816 -0.346550
37.880249 31.785303 -1.035812
33.888981 28.436232 -0.308851
33.959465 27.994022 -0.921885
33.927505 27.967678 -0.306966
34.085915 27.602230 -0.918744
33.983765 27.519510 -0.305291
34.137707 27.154356 -0.913718
34.066101 27.097403 -0.303894
34.215801 26.732313 -0.909529
34.143673 26.675962 -0.302498
34.257416 26.286640 -0.904503
34.216496 26.255241 -0.301102
34.293873 25.842287 -0.899477
34.252644 25.811218 -0.299426
34.389492 25.446884 -0.896126
34.315815 25.392366 -0.298030
34.480831 25.051790 -0.892775
34.374294 24.974386 -0.296634
34.502789 24.610600 -0.887749
34.395542 24.534101 -0.294958
34.519688 24.170944 -0.882723
34.477268 24.141243 -0.293841
34.597469 23.778181 -0.879372
34.554768 23.748835 -0.292724
34.671036 23.385910 -0.876021
34.628056 23.356918 -0.291607
34.673706 22.950026 -0.870995
34.630436 22.921385 -0.289932
34.613041 22.693304 0.288954
34.746887 22.564892 -0.867854
34.694958 22.531168 -0.288815
34.784527 22.374159 0.288745
34.559124 22.229174 0.860733
34.993069 22.293043 -0.869110
34.923988 22.249035 -0.289094
34.699368 21.893669 0.286441
34.624958 21.846722 0.857592
34.787781 21.737820 -0.859267
34.709763 21.689068 -0.285743
34.719036 21.484791 0.285045
34.652756 21.443775 0.853613
34.873859 21.370728 -0.856754
34.829502 21.343546 -0.285184
34.836811 21.139496 0.284486
34.727451 21.073135 0.850891
34.956184 21.003796 -0.854241
34.843002 20.935787 -0.283788
34.848080 20.732430 0.283090
34.781143 20.692604 0.847749
35.008930 20.621836 -0.851100
34.895130 20.554802 -0.282741
34.854912 20.326784 0.281694
34.787663 20.287565 0.843561
35.005730 20.210566 -0.846702
34.960594 20.184507 -0.281833
34.926788 19.962303 0.280856
34.893936 19.943529 0.841885
35.006729 19.805855 -0.842514
34.961338 19.780172 -0.280437
34.925163 19.559032 0.279460
34.892185 19.540564 0.837697
35.108280 19.460836 -0.840838
35.027664 19.416153 -0.279599
34.989311 19.195793 0.278622
34.929897 19.163198 0.834555
35.144974 19.082165 -0.837697
35.099102 19.057257 -0.278832
35.049789 18.832932 0.277784
34.981308 18.796133 0.831833
35.195400 18.713726 -0.834974
35.158115 18.693903 -0.277994
35.071205 18.451855 0.276667
35.002434 18.415670 0.828482
35.215477 18.332016 -0.831623
35.177994 18.312504 -0.276877
35.097542 18.076422 0.275620
35.028481 18.040854 0.825341
35.267212 17.969542 -0.829110
35.229538 17.950346 -0.276039
35.137867 17.710941 0.274713
35.104233 17.693989 0.823456
35.288471 17.594183 -0.825969
35.277454 17.588690 -0.275201
35.192429 17.354986 0.273945
35.158669 17.338337 0.821152
35.368774 17.250504 -0.824294
35.321747 17.227566 -0.274364
35.225449 16.990740 0.273037
35.155548 16.957024 0.817592
35.373585 16.872334 -0.820943
35.326328 16.849794 -0.273247
35.272892 16.635775 0.272269
35.202717 16.602678 0.815288
35.410740 16.512299 -0.818430
35.363270 16.490162 -0.272409
35.307747 16.277094 0.271431
35.273624 16.261364 0.813613
35.480705 16.169489 -0.816754
35.433029 16.147762 -0.271850
35.694614 16.079250 0.273316
39.140991 17.631731 0.299706
39.206284 17.661144 0.900733
35.593060 15.847051 -0.816126
39.164238 17.437042 -0.898011
39.299767 17.497383 -0.300334
39.311668 17.297548 0.299845
39.249100 17.270018 0.898220
39.498283 17.174343 -0.902199
29.583637 12.863332 -0.225215
29.575169 12.706495 0.224727
39.360058 16.910416 0.299077
39.288082 16.879492 0.895707
29.606146 12.567063 -0.673718
29.593510 12.561700 -0.224448
29.574265 12.401518 0.223889
39.404686 16.523756 0.298309
39.323246 16.489605 0.893194
29.714685 12.308226 -0.673718
29.628094 12.272359 -0.223889
29.616575 12.116461 0.223400
39.428631 16.130678 0.892357
29.746805 12.018489 -0.672042
29.632074 11.972135 -0.223121
29.572575 11.798262 0.222283
39.456463 15.741532 0.889843
29.822645 11.747453 -0.671414
29.772636 11.727754 -0.223400
29.758286 11.572365 0.222912
34.234459 13.313053 0.769424
30.026695 11.526169 -0.673718
29.976538 11.506914 -0.224168
29.820736 11.298066 0.222632
30.051218 11.235690 -0.672042
30.038345 11.230877 -0.223889
29.843140 11.009715 0.222074
34.311512 12.658185 0.766074
30.110544 10.959341 -0.671205
30.022448 10.927278 -0.223051
29.966314 10.759007 0.222283
29.809917 10.702854 0.663456
34.354801 12.334634 0.764608
30.091942 10.656116 -0.668691
30.041252 10.638165 -0.222493
29.832485 10.417971 0.220608
29.798353 10.406051 0.661152
30.155428 10.383347 -0.668063
29.953299 10.313747 -0.221166
30.604036 10.388670 0.225634
29.850159 10.132764 0.660315
30.273333 10.129315 -0.668691
30.715454 10.277247 -0.226123
31.833139 10.496995 0.234012
29.861486 9.846842 0.658639
31.893398 10.516865 0.703456
31.615694 10.272562 -0.696335
32.068844 10.419799 -0.235408
32.075909 10.267579 0.235129
29.908192 9.573688 0.657801
31.917305 10.216810 0.701990
32.390659 10.212736 -0.711414
32.225311 10.160602 -0.235897
32.126087 9.975415 0.234850
29.942858 9.297504 0.656754
32.005249 9.937894 0.701990
32.430744 9.915073 -0.710367
32.274498 9.867305 -0.235618
32.173615 9.683159 0.234570
29.917542 9.004158 0.654451
32.023739 9.638051 0.700524
32.448929 9.611811 -0.708901
32.359379 9.585284 -0.235618
32.218487 9.390833 0.234291
32.068230 9.347037 0.699686
32.493130 9.317255 -0.708063
32.412956 9.294265 -0.235408
32.260712 9.098462 0.234012
32.148579 9.066836 0.699686
32.534664 9.022660 -0.707226
32.406101 8.987007 -0.234780
32.300293 8.806070 0.233733
32.187893 8.775427 0.698849
32.612160 8.738402 -0.707226
32.492954 8.706461 -0.234850
32.375908 8.523866 0.233733
32.185898 8.473840 0.697173
32.687176 8.453479 -0.707226
32.519287 8.410059 -0.234501
32.371525 8.221319 0.233174
32.219860 8.182802 0.696335
32.720898 8.158236 -0.706388
32.591438 8.125958 -0.234501
32.480888 7.948022 0.233453
32.290039 7.901323 0.696335
32.703350 7.851380 -0.704503
32.583321 7.822564 -0.233942
32.441940 7.639063 0.232685
32.279907 7.600910 0.694660
32.819328 7.576939 -0.705550
32.650345 7.537926 -0.233942
32.458603 7.344632 0.232336
32.393764 7.329961 0.695707
32.806114 7.272940 -0.703875
32.714882 7.252715 -0.233942
32.570320 7.071710 0.232685
32.407646 7.036390 0.694660
32.868332 6.986379 -0.703875
32.776928 6.966951 -0.233942
32.581841 6.777032 0.232336
32.467815 6.753315 0.694660
32.977032 6.709253 -0.704922
32.797279 6.672682 -0.233663
32.639740 6.492448 0.232336
32.525513 6.469727 0.694660
32.945999 6.404053 -0.703037
32.814999 6.378589 -0.233384
32.695152 6.207369 0.232336
32.580734 6.185646 0.694660
33.039951 6.123593 -0.703875
32.948071 6.106564 -0.233942
32.748077 5.921817 0.232336
32.633472 5.901093 0.694660
33.092129 5.835035 -0.703875
32.970562 5.813599 -0.233733
32.798508 5.635814 0.232336
32.683723 5.616091 0.694660
33.102345 5.539433 -0.703037
32.960861 5.515757 -0.233314
32.806961 5.342953 0.232057
32.692017 5.324233 0.693822
33.159302 5.251917 -0.703246
32.987988 5.224784 -0.233174
32.862221 5.057979 0.232127
32.776760 5.044826 0.694660
33.193981 4.960874 -0.703037
33.032326 4.936714 -0.233174
32.984276 4.782493 0.232685
32.779961 4.752868 0.693822
33.245911 4.672408 -0.703246
33.113758 4.653835 -0.233453
32.935581 4.482336 0.232057
32.859814 4.472024 0.694660
33.285416 4.382108 -0.703246
33.143192 4.363384 -0.233384
30.602608 3.893143 0.215372
30.914013 3.932759 0.652775
30.782028 3.779558 -0.649634
30.728479 3.772983 -0.216140
36.305698 4.297062 0.255235
38.232204 4.525080 0.268779
37.827610 4.477193 0.797906
36.254555 4.130684 -0.254746
40.894421 4.659331 -0.287349
36.630085 4.011647 0.257259
38.580803 4.225285 0.812985
40.985893 4.488685 0.863665
41.263607 4.336980 -0.869110
37.572121 3.948989 -0.263752
36.902485 3.715885 0.258935
37.293190 3.755227 0.785131
38.735577 3.900467 0.815498
41.013554 4.129848 0.863456
41.260075 3.972893 -0.868273
37.853996 3.644925 -0.265497
41.268120 3.973668 -0.289443
37.530972 3.448612 0.263124
37.643127 3.458917 0.791833
36.781403 3.217956 -0.773404
37.047577 3.241243 -0.259633
37.519775 3.117653 0.262844
41.187050 3.422380 0.288535
37.492535 3.115389 0.788063
36.847950 2.899997 -0.774241
37.114326 2.920961 -0.259912
37.555527 2.790858 0.262914
38.236156 2.841437 0.803142
37.729572 2.638309 -0.792252
41.300068 2.887982 -0.867226
37.667099 2.633940 -0.263612
41.318096 2.889243 -0.289164
37.448734 2.454520 0.262007
37.890369 2.483466 0.795393
41.413509 2.532959 -0.869110
37.169636 2.273392 -0.259982
41.451527 2.535284 -0.289932
37.838123 2.148604 0.264590
37.950527 2.154987 0.796231
33.935974 1.778509 -0.711833
37.011078 1.939668 -0.776335
41.414070 2.170419 -0.868692
37.178070 1.948420 -0.259912
38.824291 1.864864 0.271362
38.007832 1.825647 0.797068
33.960190 1.482734 -0.712042
39.064205 1.705580 -0.819058
38.282597 1.671454 -0.267522
39.338688 1.545621 0.274852
41.437019 1.628065 0.289513
38.022316 1.493901 0.797068
33.821960 1.181089 -0.708901
40.316574 1.407886 -0.845027
38.525578 1.345343 -0.269128
39.150776 1.196164 0.273456
41.049843 1.254186 0.286720
38.193794 1.166926 0.800419
34.070843 0.892176 -0.713927
41.126877 1.076945 -0.861781
39.545479 1.035535 -0.276179
39.889534 0.870393 0.278552
38.722286 0.844923 0.811309
34.027351 0.593950 -0.712880
41.414604 0.722895 -0.867644
39.123085 0.682896 -0.273177
41.062744 0.716753 -0.286720
39.035706 0.511005 0.272548
41.005486 0.536791 0.286301
39.138062 0.512345 0.819896
34.031239 0.296986 -0.712880
41.409340 0.361374 -0.867435
41.507408 0.362230 -0.289792
41.368599 0.180506 0.288815
39.041065 0.170350 0.817801
41.010612 0.178944 0.859058
34.132511 0.000000 -0.714974
41.508987 0.000000 -0.289792
41.438595 -0.180811 0.289303
41.130585 -0.179467 0.861571
34.001247 -0.296724 -0.712252
41.557404 -0.362666 -0.290141
41.485435 -0.543074 0.289652
41.287403 -0.540482 0.864922
34.197289 -0.596916 -0.716440
41.582653 -0.725828 -0.290351
41.549099 -0.906605 0.290141
41.401062 -0.903374 0.867435
34.230755 -0.896364 -0.717278
34.277416 -0.897586 -0.239387
41.604725 -1.089458 -0.290560
41.619564 -1.271593 0.290700
41.541500 -1.269208 0.870576
34.181664 -1.193650 -0.716440
34.118370 -1.191440 -0.238340
41.673580 -1.455274 -0.291119
41.646851 -1.636309 0.290979
41.568802 -1.633243 0.871414
34.289803 -1.497125 -0.718953
34.276508 -1.496545 -0.239527
41.689266 -1.820193 -0.291328
41.710892 -2.003518 0.291537
41.632858 -1.999769 0.873089
34.195560 -1.792113 -0.717278
34.332047 -1.799266 -0.240016
41.711739 -2.186020 -0.291607
41.691818 -2.367433 0.291537
41.344315 -2.347700 0.867435
34.378204 -2.102661 -0.721466
34.195267 -2.091472 -0.239178
41.740978 -2.552988 -0.291956
41.749401 -2.736400 0.292096
41.601593 -2.726712 0.873299
34.398438 -2.405373 -0.722304
34.385197 -2.404447 -0.240644
41.803707 -3.106552 0.292654
41.725765 -3.100760 0.876440
34.286434 -2.698401 -0.720419
34.362904 -2.704419 -0.240644
41.854733 -3.477860 0.293213
41.816681 -3.474698 0.878953
34.430897 -3.012313 -0.723979
34.387802 -3.008543 -0.240993
34.404221 -3.161304 0.241203
41.902451 -3.850294 0.293771
41.864414 -3.846799 0.880629
34.433155 -3.315536 -0.724608
34.519501 -3.323850 -0.242110
34.415123 -3.465420 0.241482
41.907051 -4.219818 0.294051
41.908829 -4.219997 0.882304
34.532169 -3.629477 -0.727330
34.369839 -3.612416 -0.241272
34.473034 -3.775411 0.242110
41.928276 -4.591893 0.294470
41.989670 -4.598617 0.884817
34.578651 -3.939740 -0.729006
34.575459 -3.939376 -0.242948
34.359333 -4.066695 0.241552
41.956120 -4.965834 0.294958
41.987656 -4.969566 0.885655
34.463570 -4.231594 -0.727330
34.529839 -4.239731 -0.242878
34.491173 -4.387831 0.242738
41.982361 -5.340831 0.886493
34.673134 -4.564805 -0.732566
34.491528 -4.540895 -0.242878
34.610104 -4.710228 0.243855
42.092659 -5.728559 0.889843
34.671581 -4.872773 -0.733404
34.618927 -4.865373 -0.244065
34.409340 -4.989117 0.242738
42.080643 -6.101403 0.890681
34.617851 -5.173673 -0.733194
34.565262 -5.165813 -0.243995
34.670876 -5.336359 0.244903
42.144375 -6.486639 0.893194
34.818253 -5.514669 -0.738430
34.755905 -5.504795 -0.245671
34.662468 -5.645141 0.245182
34.695183 -5.650469 0.736335
42.194710 -6.871845 0.895498
34.758942 -5.816652 -0.738220
34.795307 -5.822738 -0.246299
34.611885 -5.947410 0.245182
34.565723 -5.939478 0.734660
42.172546 -7.246569 0.896336
34.746243 -6.126700 -0.739058
34.654541 -6.110530 -0.245671
34.804672 -6.293710 0.246927
34.719181 -6.278251 0.739058
42.215927 -7.633883 0.898639
34.927383 -6.473408 -0.744084
34.885033 -6.465559 -0.247695
34.777897 -6.602790 0.247137
34.780937 -6.603368 0.741571
34.830307 -6.770326 -0.743246
34.905811 -6.785003 -0.248254
34.758183 -6.913833 0.247416
34.682766 -6.898831 0.740733
34.965843 -7.113881 -0.747435
34.796280 -7.079383 -0.247905
34.853168 -7.249470 0.248533
34.817009 -7.241949 0.744922
34.941547 -7.427055 -0.748273
34.938580 -7.426425 -0.249371
34.866756 -7.570315 0.249091
34.879498 -7.573081 0.747644
34.875404 -7.731691 -0.748273
35.018883 -7.763500 -0.250418
34.877392 -7.891948 0.249650
34.724323 -7.857312 0.745760
35.079372 -8.098711 -0.754137
34.920570 -8.062049 -0.250208
34.962933 -8.232677 0.250767
34.926918 -8.224198 0.751623
35.124020 -8.432531 -0.756650
35.111423 -8.429506 -0.252093
34.967461 -8.556483 0.251325
35.009201 -8.566697 0.754974
35.049095 -8.738721 -0.756650
35.114147 -8.754940 -0.252652
34.968998 -8.880995 0.251884
34.855591 -8.852192 0.753299
35.116692 -9.081795 -0.759791
34.997684 -9.051017 -0.252373
35.122253 -9.246918 0.253559
35.086399 -9.237478 0.760000
35.161648 -9.421535 -0.762514
35.149185 -9.418196 -0.254048
35.117401 -9.574103 0.254118
35.129848 -9.577496 0.762723
35.078091 -9.728015 -0.762514
35.181290 -9.756636 -0.254886
35.071014 -9.891049 0.254397
34.996819 -9.870124 0.761676
35.212906 -10.097137 -0.767330
35.133259 -10.074300 -0.255165
35.223370 -10.266676 0.256142
35.101322 -10.231103 0.765864
35.372688 -10.477868 -0.772775
35.235767 -10.437309 -0.256561
35.314373 -10.628419 0.257469
35.240471 -10.606178 0.770890
35.423321 -10.829996 -0.775917
35.382412 -10.817490 -0.258307
35.182076 -10.924325 0.257190
35.261150 -10.948878 0.773404
35.327465 -11.138706 -0.775917
35.277130 -11.122836 -0.258237
35.313976 -11.304092 0.258865
35.202351 -11.268361 0.774241
35.447613 -11.517627 -0.780733
35.330887 -11.479702 -0.259354
35.403919 -11.674462 0.260261
35.368534 -11.662793 0.780105
35.554337 -11.896315 -0.785341
35.494888 -11.876424 -0.261309
35.376446 -12.008686 0.260820
35.416885 -12.022413 0.783456
35.449169 -12.206128 -0.785341
35.541176 -12.237808 -0.262426
35.383595 -12.356504 0.261658
35.272869 -12.317838 0.782618
35.520367 -12.578422 -0.789320
35.395325 -12.534142 -0.262146
35.537941 -12.759424 0.263612
35.427505 -12.719774 0.788482
35.634724 -12.969979 -0.794346
35.585293 -12.951987 -0.264380
35.575348 -13.124439 0.264729
35.540272 -13.111499 0.793508
35.670017 -13.336473 -0.797697
35.658241 -13.332070 -0.265777
35.459461 -13.434389 0.264729
35.536694 -13.463649 0.796021
35.542946 -13.643659 -0.797487
35.652569 -13.685739 -0.266614
35.555233 -13.826674 0.266335
35.417850 -13.773249 0.796021
35.682991 -14.055903 -0.803351
35.596909 -14.021996 -0.267103
35.739719 -14.258702 0.268639
35.630608 -14.215171 0.803561
35.827797 -14.475369 -0.809425
35.742065 -14.440732 -0.269128
35.724995 -14.615480 0.269477
35.653255 -14.586131 0.806911
35.921795 -14.879294 -0.814451
35.836414 -14.843928 -0.270803
35.669865 -14.957616 0.270035
35.745892 -14.989496 0.811938
35.790581 -15.192201 -0.814451
35.889610 -15.234236 -0.272199
35.721733 -15.347267 0.271431
35.613724 -15.300863 0.811938
35.830849 -15.579696 -0.818430
35.791981 -15.562797 -0.272479
35.842724 -15.771176 0.273386
35.698471 -15.707703 0.816964
35.985798 -16.021910 -0.825131
35.828381 -15.951822 -0.273805
35.959019 -16.198357 0.275341
35.888199 -16.166454 0.824503
36.035660 -16.422398 -0.829529
35.951694 -16.384130 -0.275830
35.961594 -16.578522 0.276458
35.854710 -16.529247 0.827016
36.135628 -16.850321 -0.835184
36.097359 -16.832476 -0.278064
35.924084 -16.942898 0.277296
35.962292 -16.960918 0.832880
36.104519 -17.220972 -0.837906
36.093506 -17.215719 -0.279181
35.918972 -17.325254 0.278413
35.920975 -17.326221 0.835393
36.024750 -17.570444 -0.839582
36.112663 -17.613323 -0.280507
36.053406 -17.779572 0.280647
35.902908 -17.705355 0.838534
36.147419 -18.022438 -0.846074
36.029179 -17.963486 -0.281066
42.445702 -21.162647 -0.331121
38.468594 -19.389769 0.300753
38.398602 -19.354488 0.900733
38.705742 -19.721561 -0.909948
38.624191 -19.680008 -0.302638
38.475723 -19.816299 0.302149
38.370453 -19.762081 0.904084
38.665192 -20.127825 -0.913090
38.521942 -20.053253 -0.303196
38.407528 -20.207178 0.302987
38.302711 -20.152033 0.906597
38.594002 -20.520796 -0.915603
38.477917 -20.459072 -0.304243
38.335430 -20.598370 0.303824
38.222275 -20.537569 0.908901
38.554039 -20.933134 -0.918953
38.473675 -20.889502 -0.305640
38.329559 -21.028316 0.305221
38.225670 -20.971319 0.913299
38.474827 -21.326944 -0.921466
38.359886 -21.263231 -0.306198
38.240566 -21.415747 0.305989
38.145882 -21.362720 0.915812
38.426479 -21.740656 -0.924817
38.312122 -21.675957 -0.307315
38.191135 -21.828032 0.307106
38.088207 -21.769205 0.918953
38.408463 -22.175135 -0.929006
38.294708 -22.109461 -0.308711
38.137409 -22.241079 0.308223
38.034973 -22.181339 0.922304
38.282402 -22.550058 -0.930681
38.169243 -22.483402 -0.309270
38.053589 -22.639505 0.309130
37.951656 -22.578863 0.925027
38.221275 -22.965660 -0.934032
38.108730 -22.898035 -0.310387
38.059750 -23.095222 0.310806
37.915573 -23.007734 0.929006
38.155804 -23.381907 -0.937383
38.077980 -23.334217 -0.311783
37.958797 -23.489616 0.311643
37.823872 -23.406122 0.931728
38.119881 -23.819944 -0.941571
38.008591 -23.750402 -0.312900
37.913055 -23.921356 0.312970
37.821110 -23.863342 0.936754
38.079205 -24.259129 -0.945760
37.968559 -24.188639 -0.314296
37.845833 -24.343258 0.314157
37.703918 -24.251976 0.939058
38.000214 -24.677628 -0.949110
37.965691 -24.655209 -0.316042
37.799213 -24.782249 0.315553
37.691513 -24.711637 0.944084
37.983505 -25.140734 -0.954137
37.874172 -25.068367 -0.317089
37.706226 -25.194496 0.316600
37.615749 -25.134039 0.947644
37.862129 -25.538330 -0.956650
37.786613 -25.487391 -0.318206
37.683308 -25.657652 0.318276
37.560265 -25.573874 0.951833
37.835575 -26.003670 -0.961676
37.727577 -25.929445 -0.319602
37.622295 -26.099516 0.319672
37.491741 -26.008947 0.955812
37.803764 -26.470482 -0.966702
37.696457 -26.395344 -0.321278
37.556431 -26.542261 0.321068
37.426640 -26.450533 0.960001
37.734119 -26.915485 -0.970891
37.627502 -26.839437 -0.322674
37.493805 -26.991676 0.322534
37.389126 -26.916321 0.965027
37.691925 -27.384785 -0.975917
37.586014 -27.307837 -0.324349
37.474567 -27.477489 0.324419
37.346321 -27.383455 0.970053
37.644398 -27.855389 -0.980943
37.539200 -27.777548 -0.326025
37.361553 -27.899197 0.325536
37.266151 -27.827955 0.974241
37.559574 -28.303169 -0.985131
37.455093 -28.224436 -0.327421
37.466900 -28.490494 0.328608
37.435722 -28.466785 0.985131
37.755337 -28.970690 -0.996859
37.683365 -28.915462 -0.331610
37.691254 -29.183687 0.332797
37.565327 -29.086185 0.995184
37.902882 -29.612978 -1.007540
37.870872 -29.587969 -0.335519
37.906326 -29.882936 0.336985
37.804718 -29.802835 1.008378
38.143780 -30.340933 -1.020943
38.041656 -30.259699 -0.339359
39.484589 -31.689734 0.353461
39.383327 -31.608461 1.057802
39.773376 -32.207844 -1.072042
39.672333 -32.126022 -0.356393
39.702145 -32.438011 0.357929
39.632465 -32.381081 1.072042
39.953674 -32.935265 -1.084608
39.853439 -32.852638 -0.360582
39.932671 -33.211651 0.362607
39.801899 -33.102890 1.084399
40.216171 -33.745377 -1.099687
40.116772 -33.661968 -0.365609
40.190842 -34.024059 0.367633
40.091438 -33.939907 1.100315
40.467533 -34.562538 -1.114765
40.368969 -34.478355 -0.370635
40.437832 -34.843468 0.372660
40.339062 -34.758358 1.115393
40.730289 -35.406300 -1.130472
40.640121 -35.327919 -0.375941
42.274921 -37.074112 0.392556
42.334332 -37.126213 1.179477
42.201885 -37.337074 -1.180315
42.255051 -37.384113 -0.393883
42.307884 -37.761230 0.395907
42.366764 -37.813782 1.189529
42.231087 -38.025043 -1.190367
42.313637 -38.099369 -0.397513
42.391258 -38.505508 0.399817
42.442200 -38.551781 1.201048
42.303066 -38.763618 -1.201885
42.333431 -38.791443 -0.400864
42.464836 -39.254089 0.403726
42.551998 -39.334663 1.213823
42.372650 -39.513138 -1.213613
42.432106 -39.568581 -0.405053
42.557678 -40.034267 0.407915
42.585793 -40.060715 1.224713
42.410591 -40.246147 -1.224713
42.491394 -40.322830 -0.408962
42.611210 -40.791363 0.411825
42.667904 -40.845631 1.237278
42.510849 -41.052250 -1.237906
42.569492 -41.108879 -0.413151
42.654739 -41.552410 0.415734
42.739525 -41.635002 1.249844
42.578842 -41.842113 -1.250472
42.629940 -41.892326 -0.417270
42.745014 -42.373615 0.420202
42.793484 -42.421661 1.262200
42.607979 -42.607979 -1.262200
42.694065 -42.694065 -0.421528
42.796013 -43.171116 0.424391
42.872131 -43.247906 1.275603
42.683022 -43.434555 -1.275603
42.789467 -43.542877 -0.426206
42.864223 -44.001354 0.428859
42.834938 -43.971294 1.285865
42.774628 -44.294422 -1.289844
42.803806 -44.324638 -0.430185
42.340313 -44.229267 0.427463
42.193787 -44.076202 1.278116
41.829014 -44.078587 -1.272880
41.692619 -43.934856 -0.422855
41.328022 -43.932983 1.263456
41.715508 -44.734406 -1.281257
41.539509 -44.545670 -0.425229
41.234886 -44.607651 1.272461
41.593719 -45.391582 -1.289634
41.446449 -45.230862 -0.428300
41.112934 -45.261810 1.280838
41.470310 -46.057446 -1.298221
41.317806 -45.888073 -0.431093
41.015972 -45.954514 1.290262
41.194084 -46.561443 -0.434025
41.081417 -47.258762 -0.437167
0.157744 -0.219120 0.001885
0.163554 -0.227191 0.005864
0.170995 -0.246488 0.002094
0.136769 -0.197152 0.005026
0.146326 -0.214908 0.001815
0.151924 -0.223130 0.005654
0.133334 -0.199548 0.001676
0.138862 -0.207822 0.005236
0.131587 -0.200704 0.001676
0.148007 -0.225748 0.005654
0.151469 -0.235485 0.001955
0.140623 -0.218622 0.005445
0.128064 -0.202970 0.001676
0.117369 -0.186019 0.004607
0.147336 -0.238093 0.001955
0.157830 -0.255050 0.006283
0.140038 -0.230776 0.005654
0.117595 -0.197659 0.001606
0.107348 -0.180436 0.004398
0.125916 -0.215912 0.005236