# This PCD file was generated using the MATLAB® pcwrite function
# from Computer Vision System Toolbox®.
# .PCD v.7 - Point Cloud Data file format
VERSION .7
FIELDS x y z
SIZE 4 4 4
TYPE F F F
COUNT 1 1 1
WIDTH 848
HEIGHT 1
VIEWPOINT 0 0 0 1 0 0 0
POINTS 848
DATA ascii
26.744499 29.702774 -0.279041
27.118998 29.595194 -0.840838
27.245890 29.733671 -0.281554
27.676243 29.679136 -0.850053
27.838495 29.853130 -0.284975
28.216349 29.733828 -0.858639
29.015173 30.046091 -0.291607
29.347643 29.864378 -0.877069
29.479525 29.998583 -0.293632
29.946474 29.946474 -0.887121
30.107874 30.107874 -0.297262
30.513292 29.985331 -0.896126
27.644915 27.166580 -0.270594
27.796385 26.842657 -0.809425
27.773033 26.820107 -0.269546
27.884527 26.461430 -0.805236
27.831936 26.411522 -0.267871
27.982767 26.094353 -0.801466
27.885838 26.003963 -0.266195
28.025137 25.680305 -0.796231
27.964249 25.624512 -0.264799
28.077284 25.280899 -0.791414
28.008446 25.218918 -0.263124
28.147072 24.902426 -0.787226
28.077665 24.841021 -0.261727
28.182220 24.498430 -0.782199
28.112247 24.437603 -0.260052
28.273296 24.147676 -0.778849
28.172354 24.061464 -0.258656
28.299135 23.745792 -0.773822
28.197409 23.660435 -0.256980
28.381842 23.396185 -0.770472
28.310217 23.337141 -0.256142
28.429535 23.021784 -0.766283
28.357365 22.963341 -0.254746
28.472864 22.648340 -0.762095
28.368855 22.565605 -0.253071
28.511854 22.275902 -0.757906
28.478014 22.249464 -0.252303
28.578251 21.928864 -0.754555
28.512424 21.878353 -0.250906
28.640774 21.582371 -0.751205
28.566496 21.526400 -0.249720
28.699432 21.236464 -0.747854
28.849720 21.347670 -0.250557
28.220413 20.503330 -0.730681
28.151428 20.080219 -0.241412
28.358353 19.856731 -0.241691
28.316286 19.461245 -0.239876
28.595524 19.287924 -0.722513
28.824934 19.442663 -0.242738
28.793091 19.238928 0.241761
28.979513 19.181122 -0.727959
28.901779 19.129669 -0.241970
28.745213 18.846188 0.720000
28.802015 18.704248 -0.719372
28.388308 18.435581 -0.236316
28.874945 18.572989 0.719163
28.652157 18.253437 -0.711623
28.548105 18.187149 -0.236316
28.807627 18.176260 0.713508
28.536123 17.831348 -0.234919
28.452091 17.606689 0.233593
28.599575 17.697954 0.704503
28.761770 17.625235 -0.706597
28.588327 17.518950 -0.234082
28.989355 17.591173 0.236735
28.923872 17.551437 0.708691
28.820213 17.316933 -0.704294
29.091549 17.479967 -0.236944
29.038635 17.276173 0.235897
28.947052 17.221685 0.705550
29.220051 17.211926 -0.710367
29.139587 17.164530 -0.236106
29.093271 16.966694 0.235129
29.027143 16.928129 0.703875
29.230606 16.876297 -0.707016
29.184345 16.849590 -0.235268
29.127361 16.647657 0.234221
29.060921 16.609686 0.701152
29.307152 16.581188 -0.705341
29.260645 16.554876 -0.234710
29.210455 16.358641 0.233733
29.065191 16.277288 0.697801
29.345800 16.266642 -0.702828
29.264063 16.221334 -0.233593
29.203056 16.021345 0.232546
29.109711 15.970134 0.695498
29.346054 15.933607 -0.699477
29.299049 15.908086 -0.232755
29.244860 15.713830 0.231778
29.177509 15.677642 0.693822
29.413361 15.639361 -0.697801
29.330805 15.595466 -0.231917
29.265827 15.397497 0.230870
29.242426 15.385185 0.692147
29.442301 15.326692 -0.695288
29.394823 15.301976 -0.231359
29.301291 15.091156 0.230102
29.233360 15.056170 0.688796
29.468031 15.014712 -0.692775
29.384680 14.972241 -0.230242
32.351837 16.306669 0.252931
29.649326 14.944491 0.695498
29.588989 14.752525 -0.692566
32.308990 16.108669 -0.756231
32.556919 16.232281 -0.253978
33.291103 16.417356 0.259144
33.544651 16.542391 0.783456
33.176197 16.181112 -0.773194
33.524200 16.350845 -0.260401
33.694302 16.252201 0.261169
33.615692 16.214285 0.781781
33.866596 16.153538 -0.785969
33.891251 16.165298 -0.262146
33.789619 15.936220 0.260820
33.683567 15.886201 0.780105
34.042515 15.874286 -0.786807
33.922276 15.818216 -0.261309
33.854752 15.607255 0.260261
33.711960 15.541427 0.777592
34.070576 15.526855 -0.784294
33.986225 15.488415 -0.260750
33.916721 15.278369 0.259703
33.809837 15.230221 0.776754
34.159107 15.208614 -0.783247
34.083549 15.174974 -0.260471
33.938923 14.933483 0.258865
33.868248 14.902386 0.775079
34.217175 14.878052 -0.781571
34.150486 14.849053 -0.259982
34.031197 14.620956 0.258586
33.960262 14.590480 0.774241
34.244473 14.535916 -0.779267
34.195923 14.515307 -0.259354
34.120605 14.307957 0.258307
34.021751 14.266505 0.772775
34.370018 14.236527 -0.779267
34.284332 14.201036 -0.259075
34.179379 13.983152 0.257818
34.107941 13.953927 0.771938
34.418785 13.906093 -0.777592
34.342052 13.875090 -0.258586
34.374405 13.713997 0.258376
34.265556 13.670570 0.772775
34.501617 13.590549 -0.776754
34.452522 13.571210 -0.258516
34.418213 13.384511 0.257818
34.383549 13.371031 0.772775
34.656239 13.303284 -0.777592
34.560307 13.266459 -0.258446
34.486946 13.065935 0.257469
34.424126 13.042135 0.771100
34.696095 12.972338 -0.775917
34.609196 12.939847 -0.257958
34.533981 12.740258 0.256980
34.424072 12.699710 0.768587
34.742210 12.645131 -0.774451
34.655018 12.613396 -0.257469
34.681492 12.451927 0.257259
34.608860 12.425851 0.770262
34.775841 12.314772 -0.772775
34.867458 12.347215 -0.258237
34.788834 12.148805 0.257259
34.668785 12.106881 0.769215
35.023781 12.059654 -0.775917
34.945515 12.032705 -0.258027
34.846180 11.828684 0.256910
34.706844 11.781386 0.767749
35.099243 11.744042 -0.775288
35.011257 11.714602 -0.257748
34.767639 11.464647 0.255584
34.760860 11.462413 0.766702
35.124321 11.412584 -0.773613
34.988518 11.368458 -0.256841
34.894932 11.169955 0.255793
34.821476 11.146442 0.765864
35.184437 11.093611 -0.772775
35.095928 11.065703 -0.256910
34.991077 10.865019 0.255793
34.879227 10.830288 0.765027
35.232101 10.771534 -0.771728
35.152905 10.747322 -0.256631
35.084560 10.559254 0.255793
34.934116 10.513975 0.764189
35.286415 10.452312 -0.770890
35.159061 10.414589 -0.256003
35.098568 10.230299 0.255235
34.986141 10.197531 0.763351
35.299400 10.121940 -0.769215
35.210159 10.096351 -0.255724
35.186504 9.923621 0.255235
35.073799 9.891834 0.763351
35.347847 9.802826 -0.768377
35.296925 9.788703 -0.255724
35.233173 9.605666 0.254956
35.120201 9.574866 0.762514
35.364445 9.475875 -0.766911
35.303730 9.459605 -0.255165
35.276978 9.287653 0.254676
35.163746 9.257842 0.761676
35.474831 9.174415 -0.767540
35.433342 9.163685 -0.255514
35.317913 8.969607 0.254397
35.204437 8.940788 0.760838
35.514736 8.854818 -0.766702
35.511959 8.854126 -0.255514
35.355991 8.651556 0.254118
35.281116 8.633235 0.760838
35.600376 8.546894 -0.766911
35.510082 8.525217 -0.254956
35.430141 8.342690 0.254118
35.316185 8.315858 0.760000
35.624897 8.224656 -0.765864
35.544155 8.206015 -0.254676
35.501595 8.033191 0.254118
35.387409 8.007354 0.760000
35.666031 7.906969 -0.765236
35.604649 7.893360 -0.254607
35.531258 7.714592 0.253839
35.455940 7.698239 0.760000
35.684776 7.585034 -0.764189
35.642830 7.576118 -0.254397
35.607018 7.406270 0.253908
35.521767 7.388538 0.760000
35.749611 7.273340 -0.764189
35.697788 7.262797 -0.254327
35.621254 7.085508 0.253559
35.584892 7.078275 0.760000
35.811722 6.961093 -0.764189
35.769623 6.952910 -0.254397
35.681728 6.774388 0.253559
35.566727 6.752554 0.758325
35.871101 6.648316 -0.764189
35.819103 6.638679 -0.254327
35.739487 6.462752 0.253559
35.624298 6.441923 0.758325
35.927753 6.335032 -0.764189
35.836281 6.318903 -0.254048
35.794525 6.150624 0.253559
35.679157 6.130801 0.758325
35.981670 6.021266 -0.764189
35.890057 6.005936 -0.254048
35.846836 5.838027 0.253559
35.770771 5.825640 0.759163
36.032845 5.707042 -0.764189
35.950981 5.694076 -0.254118
35.896416 5.524987 0.253559
35.820248 5.513263 0.759163
36.002171 5.380560 -0.762514
35.949852 5.372741 -0.253769
35.943264 5.211525 0.253559
35.827419 5.194728 0.758325
36.126957 5.077312 -0.764189
36.034977 5.064386 -0.254048
35.987373 4.897666 0.253559
35.911011 4.887274 0.759163
36.169888 4.761856 -0.764189
36.117455 4.754953 -0.254327
36.078342 4.589745 0.253908
35.991962 4.578756 0.760000
36.210068 4.446037 -0.764189
36.167500 4.440811 -0.254397
36.117020 4.274731 0.253908
35.990837 4.259796 0.759163
36.297153 4.135538 -0.765236
36.204876 4.125025 -0.254397
36.103245 3.953948 0.253559
36.026638 3.945559 0.759163
36.282146 3.813407 -0.764189
36.229549 3.807879 -0.254327
36.215973 3.646757 0.254118
36.109436 3.636029 0.760210
36.393654 3.504310 -0.765864
36.301216 3.495409 -0.254607
36.206585 3.326918 0.253839
36.139790 3.320780 0.760210
36.472649 3.190943 -0.766911
36.340298 3.179364 -0.254676
36.234238 3.010833 0.253839
36.207249 3.008590 0.761048
36.499107 2.872542 -0.766911
36.406532 2.865256 -0.254956
36.348885 2.701189 0.254467
36.232124 2.692512 0.761048
36.433022 2.547645 -0.765027
36.390251 2.544654 -0.254676
36.371071 2.383886 0.254467
36.254242 2.376229 0.761048
36.573616 2.236938 -0.767540
36.530842 2.234322 -0.255514
36.430424 2.068669 0.254746
36.353451 2.064298 0.762723
36.641666 1.920308 -0.768587
36.548950 1.915449 -0.255514
36.487041 1.752598 0.255025
36.410027 1.748899 0.763561
36.647041 1.600044 -0.768377
36.594246 1.597739 -0.255724
31.574867 1.240580 0.220608
33.783112 1.327342 0.236036
36.540916 1.435696 0.255305
31.488792 1.237198 0.660105
33.616684 1.320803 0.704712
36.749535 1.283322 -0.770262
33.848541 1.182017 -0.236455
31.504532 0.962550 0.220049
33.683460 1.029123 0.235268
31.398458 0.959310 0.658011
33.437057 1.021595 0.700733
32.221886 0.843760 -0.675184
33.850967 0.886419 -0.709320
33.737614 0.883450 -0.235618
31.481739 0.686934 0.219840
31.365652 0.684401 0.657173
32.228020 0.562542 -0.675184
33.667484 0.587668 -0.705341
32.834198 0.573123 -0.229265
31.496534 0.412312 0.219910
31.410418 0.411185 0.658011
33.219868 0.434872 0.695917
33.551361 0.292798 -0.702828
32.557968 0.284129 -0.227310
31.978916 0.139535 0.223261
31.392815 0.136978 0.657592
33.122417 0.144525 0.693822
32.832798 0.000000 -0.687749
32.639206 0.000000 -0.227868
32.548897 -0.142022 0.227240
31.362822 -0.136847 0.656964
33.232395 -0.145005 0.696126
33.441391 -0.291839 -0.700524
32.597965 -0.284478 -0.227589
32.626408 -0.427103 0.227799
31.820293 -0.416550 0.666597
32.637867 -0.569696 -0.683770
32.594242 -0.568935 -0.227589
32.671429 -0.712893 0.228148
31.125761 -0.679167 0.652147
33.294769 -0.726494 0.697592
31.882074 -0.834862 -0.668063
32.628021 -0.854395 -0.227868
32.873859 -1.004387 0.229614
31.158623 -0.951982 0.652985
31.873575 -1.113050 -0.668063
33.482243 -1.169226 -0.701780
32.499397 -1.134904 -0.227031
30.655600 -1.204462 0.214185
32.833866 -1.290046 0.229404
30.429842 -1.195592 0.637906
32.158127 -1.263496 0.674137
29.984850 -1.309167 -0.628691
30.739965 -1.342136 -0.214813
32.887867 -1.435915 -0.229823
30.603970 -1.470014 0.213906
33.510548 -1.609627 0.234221
30.208536 -1.451020 0.633508
33.434109 -1.605955 0.701152
29.992252 -1.571827 -0.629110
30.237766 -1.584694 -0.211393
33.643009 -1.763155 -0.235199
30.190628 -1.714348 0.211113
33.724850 -1.915036 0.235827
29.925219 -1.699277 0.627854
29.917519 -1.829834 -0.627854
31.683830 -1.937866 -0.664922
30.182861 -1.846063 -0.211113
29.905104 -1.960084 0.209228
34.026161 -2.230192 0.238061
29.260784 -1.917853 0.614241
34.029503 -2.230412 0.714346
29.930332 -2.092933 -0.628482
29.766586 -2.081482 -0.208321
29.886860 -2.220977 0.209228
32.359982 -2.404762 0.226542
29.262875 -2.174607 0.614660
29.940828 -2.356394 -0.629110
29.617693 -2.330963 -0.207413
28.590767 -2.375710 0.200292
37.210850 -3.091983 0.260680
28.674866 -2.382698 0.602723
30.158159 -2.638497 -0.634136
37.408867 -3.272852 -0.786597
29.606184 -2.590206 -0.207483
28.329960 -2.603158 0.198617
37.252155 -3.422992 0.261169
28.145231 -2.586184 0.592042
29.457266 -2.836412 -0.619896
31.248587 -3.008897 -0.657592
37.558014 -3.616425 -0.790367
27.671339 -2.664447 -0.194079
29.662085 -2.856134 -0.208042
31.433846 -3.026735 -0.220468
27.679350 -2.787164 0.194219
27.683901 -2.787622 0.582828
29.719740 -3.123671 -0.625969
37.485252 -3.939859 -0.789529
27.935440 -2.936133 -0.196104
37.432892 -3.934355 -0.262775
27.564510 -3.018805 0.193590
27.708212 -3.034543 0.583875
37.268936 -4.081613 0.785341
28.697996 -3.269724 -0.605026
31.658190 -3.606995 -0.667435
37.499111 -4.272484 -0.790576
28.604237 -3.259041 -0.200990
30.581396 -3.484310 -0.214883
37.476616 -4.269921 -0.263333
27.537117 -3.259233 0.193590
27.531750 -3.258597 0.580733
32.039291 -3.792100 0.675812
29.015684 -3.562678 -0.612356
37.658867 -4.623927 -0.794765
27.860092 -3.420789 -0.195964
30.400948 -3.732767 -0.213836
27.636585 -3.515818 0.194498
27.591526 -3.510085 0.582618
28.091385 -3.698301 -0.593508
29.607964 -3.897962 -0.625550
37.745941 -4.969347 -0.797487
27.858921 -3.667697 -0.196173
27.931829 -3.801355 0.196802
29.239740 -3.979354 0.206017
28.421707 -3.868025 0.600838
30.521883 -4.153846 0.645236
27.325405 -3.840335 -0.578011
27.380245 -3.848042 -0.193032
27.373091 -3.968909 0.193102
27.446909 -3.979612 0.580943
27.330402 -4.084556 -0.578848
27.296173 -4.079440 -0.192683
27.446131 -4.224363 0.193870
30.727411 -4.729401 0.217047
27.539595 -4.238749 0.583665
27.343092 -4.330720 -0.579896
37.909039 -6.004202 -0.803980
27.279287 -4.320615 -0.192822
37.768280 -5.981908 -0.266963
27.497049 -4.478179 0.194498
27.402878 -4.462842 0.581571
27.225372 -4.555965 -0.578220
28.773502 -4.815033 -0.611100
37.845341 -6.333138 -0.803770
27.309584 -4.570057 -0.193311
27.387936 -4.706108 0.194009
27.757025 -4.769529 0.589948
30.427296 -5.228366 0.646702
37.679398 -6.474505 0.800838
27.233809 -4.802055 -0.579267
29.124224 -5.135386 -0.619477
27.376987 -4.827302 -0.194079
27.473747 -4.968063 0.194917
31.035887 -5.612203 0.220189
27.576611 -4.986664 0.587016
30.921616 -5.591539 0.658220
27.367813 -5.072324 -0.583037
27.225664 -5.045979 -0.193311
27.321280 -5.187107 0.194149
27.482933 -5.217798 0.585969
37.806221 -7.177736 0.806074
27.950611 -5.433048 -0.596440
38.118038 -7.409396 -0.813404
27.710661 -5.386407 -0.197081
29.958532 -5.823349 -0.213068
27.392666 -5.448740 0.194987
27.514799 -5.473034 0.587644
37.800980 -7.519083 0.807330
27.157555 -5.525267 -0.580524
27.339233 -5.562230 -0.194777
27.471346 -5.714048 0.195894
37.966457 -7.897035 0.270733
27.465990 -5.712934 0.587644
27.440802 -5.832723 -0.587644
27.553747 -5.856730 -0.196662
27.449753 -5.959926 0.196104
27.493252 -5.969370 0.589320
31.557642 -6.851836 0.676440
37.849628 -8.217960 0.811309
27.252207 -6.041669 -0.584712
27.716368 -6.144571 -0.198198
38.172245 -8.462583 -0.272967
27.864851 -6.305172 0.199455
26.767275 -6.056816 0.574869
27.802423 -6.418695 -0.597697
38.255119 -8.831890 -0.822409
28.109892 -6.489680 -0.201409
38.155403 -8.808868 -0.273386
28.470650 -6.703948 0.204202
29.959883 -7.054616 0.214883
31.789791 -7.485502 0.228008
27.394617 -6.450576 0.589529
30.995331 -7.298431 0.667016
28.007833 -6.724086 -0.603351
28.363338 -6.809435 -0.203643
28.420776 -6.954520 0.204272
27.784002 -6.798702 0.599163
28.355524 -7.069826 -0.612147
28.603621 -7.131684 -0.205808
27.506104 -6.985660 0.198128
26.938709 -6.841561 0.582199
28.650885 -7.409623 -0.619896
28.675835 -7.416075 -0.206785
26.912233 -7.085400 0.194288
29.213745 -7.691338 0.210904
31.650642 -8.332919 0.228497
26.781298 -7.050927 0.580105
28.363020 -7.599848 -0.615079
28.503777 -7.637564 -0.206017
30.110279 -8.209004 0.217885
27.162453 -7.405334 0.589739
29.255583 -7.975987 0.635184
28.420864 -7.881803 -0.617801
32.361248 -8.974568 -0.703456
28.320410 -7.853944 -0.205179
29.498533 -8.319448 0.213976
29.665987 -8.366673 0.645655
38.364674 -10.819957 0.834974
28.456717 -8.159832 -0.620105
30.042450 -8.614534 -0.654660
28.212343 -8.089759 -0.204900
32.835899 -9.415543 -0.238480
29.501614 -8.598936 0.214534
29.783813 -8.681190 0.649843
38.355179 -11.179515 0.836859
28.461115 -8.430566 -0.621780
32.075073 -9.501069 -0.700733
30.700659 -9.093949 -0.223540
33.097652 -9.803970 -0.240993
38.668259 -11.454060 -0.281554
29.176489 -8.781126 0.212719
32.872623 -9.893537 0.239667
38.589184 -11.614027 0.281345
29.582466 -8.903312 0.647121
38.428486 -11.565661 0.840629
30.298651 -9.263227 -0.663665
38.779213 -11.855995 -0.849425
30.581881 -9.349819 -0.223261
32.532696 -9.946243 -0.237502
29.289747 -9.094708 0.214115
28.921209 -8.980274 0.634346
38.517056 -11.959864 0.844817
27.947313 -8.811754 -0.613822
32.095074 -10.119537 -0.704922
38.845905 -12.248068 -0.853194
29.507284 -9.303611 -0.216000
31.796148 -10.025287 -0.232755
38.767651 -12.223392 -0.283788
29.666407 -9.496291 0.217466
29.422575 -9.418241 0.647121
29.904167 -9.716453 -0.658639
29.405951 -9.554573 -0.215861
29.629890 -9.770473 0.217815
29.880476 -9.853104 0.659058
38.663265 -12.749233 0.852775
26.926485 -9.009476 -0.594765
30.178522 -10.097592 -0.666597
27.045532 -9.049308 -0.199106
29.757671 -9.956778 -0.219072
31.464613 -10.527912 -0.231638
30.859701 -10.475457 0.227519
29.130650 -9.888523 0.644398
31.904547 -10.830134 0.705760
38.730415 -13.147204 0.856754
27.007542 -9.299442 -0.598325
29.559881 -10.178284 -0.654869
26.918259 -9.268700 -0.198756
26.358324 -9.204739 0.194917
27.831066 -9.719044 0.205808
26.608032 -9.291941 0.590367
28.901667 -10.092914 0.641257
26.991331 -9.558132 -0.599791
26.874054 -9.516602 -0.199036
28.335114 -10.033990 -0.209857
26.625221 -9.559431 0.197500
26.563572 -9.537297 0.591205
27.029028 -9.837762 -0.602513
27.250422 -9.918343 -0.202457
26.465733 -9.763724 0.196941
26.404293 -9.741058 0.589529
29.143211 -10.751498 0.650681
27.129442 -10.143283 -0.606702
39.237957 -14.670471 -0.877487
27.041067 -10.110241 -0.201549
31.555717 -11.798199 -0.235199
26.603949 -10.079334 0.198617
26.449173 -10.020696 0.592461
27.049227 -10.383225 -0.606911
26.793106 -10.284909 -0.200362
26.887772 -10.456082 0.201409
26.612307 -10.348960 0.598116
26.808754 -10.560248 -0.603561
26.934933 -10.609952 -0.202107
27.204168 -10.853363 0.204481
29.553999 -11.790851 0.222144
26.121683 -10.421494 0.589110
27.913893 -11.136514 0.629529
27.225418 -10.999783 -0.615079
27.045294 -10.927008 -0.203643
26.858530 -10.988115 0.202596
29.842134 -12.208739 0.675393
39.039989 -15.971682 0.883561
27.026787 -11.194861 -0.612775
27.105965 -11.227658 -0.204830
26.973721 -11.311020 0.204202
29.301119 -12.286979 0.665550
39.194164 -16.435478 0.890262
27.360607 -11.613889 -0.622618
27.126617 -11.514565 -0.205738
27.287434 -11.723607 0.207343
27.199442 -11.685802 0.620105
29.505102 -12.676392 0.672671
27.634129 -12.015661 -0.631205
39.608307 -17.222181 -0.904713
27.364407 -11.898382 -0.208321
27.595968 -12.142517 0.210485
30.177084 -13.278234 0.230172
39.412354 -17.341850 0.300613
29.777704 -13.102503 0.681466
39.304005 -17.294176 0.899477
30.323057 -13.500695 -0.695288
39.602642 -17.632233 -0.908063
27.862457 -12.405166 -0.212928
27.434252 -12.358229 0.210066
29.740953 -13.397323 0.227729
29.798964 -13.423454 0.684608
39.306557 -17.706312 0.903037
28.903130 -13.171915 -0.665341
27.380068 -12.477816 -0.210066
30.628550 -13.958235 -0.234989
39.573250 -18.034569 -0.303615
27.270874 -12.572045 0.209647
30.176863 -13.911724 0.231987
39.494183 -18.207067 0.303615
27.102129 -12.494252 0.625131
39.304897 -18.119804 0.906597
28.116564 -13.110969 -0.649843
39.714760 -18.519297 -0.917906
27.523897 -12.834604 -0.212021
30.360571 -14.157367 -0.233872
39.631874 -18.480646 -0.305291
27.277702 -12.865000 0.210555
39.550861 -18.653397 0.305291
30.256432 -14.269859 0.700733
39.461765 -18.611378 0.913927
28.262772 -13.480650 -0.655917
29.986332 -14.302746 -0.695917
39.804306 -18.985680 -0.923770
30.524691 -14.559530 -0.236106
39.694733 -18.933416 -0.307036
30.001528 -14.471019 0.232546
39.584724 -19.093403 0.306826
30.400904 -14.663655 0.707016
39.477951 -19.041903 0.918116
30.004152 -14.634003 -0.699267
39.861759 -19.441879 -0.929006
30.018990 -14.641239 -0.233174
39.779655 -19.401834 -0.308991
39.676682 -19.566376 0.308851
39.534447 -19.496231 0.923351
39.878475 -19.882675 -0.933404
39.760963 -19.824085 -0.310177
39.754456 -20.037895 0.310806
39.577076 -19.948488 0.928377
39.988510 -20.375164 -0.940105
39.907211 -20.333738 -0.312691
39.826996 -20.512251 0.312760
39.721462 -20.457897 0.935917
40.092964 -20.871077 -0.946807
39.976604 -20.810503 -0.314645
39.858871 -20.970766 0.314436
39.753773 -20.915472 0.940943
40.147648 -21.346884 -0.952461
40.005379 -21.271238 -0.316321
39.885761 -21.431393 0.316111
39.781109 -21.375160 0.945969
40.205853 -21.829996 -0.958325
40.134598 -21.791309 -0.318834
40.012833 -21.951792 0.318625
39.873554 -21.875380 0.952671
40.258659 -22.315741 -0.964189
40.144066 -22.252220 -0.320440
40.055317 -22.432055 0.320510
39.916660 -22.354404 0.958325
40.314735 -22.808981 -0.970262
40.235565 -22.764187 -0.322744
40.144535 -22.944492 0.322813
40.041229 -22.885447 0.966074
40.391224 -23.319885 -0.976964
40.243221 -23.234434 -0.324419
40.219200 -23.455145 0.325047
40.047268 -23.354876 0.971100
40.530762 -23.874443 -0.985341
40.374958 -23.782667 -0.327142
40.279396 -23.963722 0.327212
40.151253 -23.887486 0.978639
40.526550 -24.350809 -0.990367
40.448738 -24.304054 -0.329446
40.316662 -24.464750 0.329236
40.214783 -24.402929 0.985341
40.644966 -24.907269 -0.998535
40.499420 -24.818077 -0.331610
40.441765 -25.026125 0.332029
40.306358 -24.942331 0.992880
40.705860 -25.435844 -1.005446
40.552673 -25.340122 -0.333844
40.551662 -25.586193 0.334751
40.391556 -25.485174 1.000419
40.819626 -26.004969 -1.013823
40.633610 -25.886465 -0.336357
40.562325 -26.090563 0.336706
40.436695 -26.009756 1.007121
40.859455 -26.534439 -1.020524
40.783554 -26.485151 -0.339499
40.675968 -26.668333 0.339568
40.542622 -26.580908 1.015498
40.918140 -27.083126 -1.027854
40.792702 -27.000099 -0.341523
40.732704 -27.216722 0.342012
40.600071 -27.128099 1.022828
41.011784 -27.662796 -1.036231
40.870556 -27.567539 -0.344176
40.824272 -27.796259 0.344804
40.667561 -27.689556 1.030576
41.164314 -28.291449 -1.046283
41.024002 -28.195015 -0.347527
40.908806 -28.379448 0.347597
40.777607 -28.288433 1.039582
41.243450 -28.878975 -1.054660
41.071281 -28.758421 -0.350040
40.986240 -28.966211 0.350389
40.855782 -28.874012 1.047959
41.315441 -29.470016 -1.063037
41.176960 -29.371241 -0.353112
41.056526 -29.556471 0.353182
40.902473 -29.445566 1.055707
41.315525 -30.017487 -1.069739
41.177963 -29.917540 -0.355346
41.151867 -30.173796 0.356254
40.990650 -30.055590 1.064713
41.405624 -30.638550 -1.078954
41.301159 -30.561251 -0.358697
41.271580 -30.818949 0.359605
41.143372 -30.723211 1.075603
41.480015 -31.257433 -1.087959
41.344353 -31.155205 -0.361420
41.255779 -31.371622 0.361839
41.192028 -31.323145 1.083980
41.562599 -31.892103 -1.097383
41.459637 -31.813097 -0.364841
41.391590 -32.048794 0.365469
41.328186 -31.999701 1.094870
41.629356 -32.524418 -1.106597
32.094894 -25.075281 -0.284347
41.424717 -32.364536 -0.367005
41.424458 -32.656410 0.368261
41.322166 -32.575768 1.102200
41.633446 -33.116737 -1.114346
41.062450 -32.662548 -0.366307
41.543434 -33.342133 0.371892
41.418377 -33.241764 1.112461
40.705914 -32.962997 -0.365678
41.591614 -33.981773 0.374963
41.490601 -33.899242 1.122304
31.845676 -26.251551 -0.864503
40.123394 -33.075172 -1.089215
40.108067 -33.062542 -0.362886
41.693275 -34.675934 0.378594
41.508354 -34.522133 1.130891
39.320095 -32.993477 -1.075184
39.389046 -33.051334 -0.358976
41.816486 -35.400269 0.382503
29.996088 -25.393562 0.823247
41.686245 -35.290012 1.144084
38.103188 -32.543198 -1.049634
38.871006 -33.198975 -0.356882
41.930199 -36.129372 0.386413
41.747826 -35.972225 1.154346
37.598930 -32.684250 -1.043561
38.738300 -33.674690 -0.358348
41.815674 -36.671364 1.165027
30.805281 -27.254210 -0.861571
42.336670 -37.456322 -1.184084
38.413002 -33.984955 -0.358069
42.299988 -37.423870 -0.394302
38.249428 -34.138920 0.357929
41.799885 -37.307823 1.173613
30.662861 -27.608963 -0.864294
35.001873 -31.515829 -0.986597
42.306206 -38.092678 -0.397443
37.861233 -34.390724 0.357091
41.857555 -38.020725 1.184503
34.548611 -31.657969 -0.981571
34.422642 -31.542538 -0.325955
42.303944 -38.764420 -0.400585
37.618427 -34.774117 0.357650
31.053780 -28.958118 -0.889425
42.511578 -39.642689 -1.217592
33.743839 -31.466637 -0.322115
37.459206 -35.238102 0.359046
42.751442 -40.569603 -1.234556
33.431690 -31.725489 -0.321766
36.536377 -34.975971 1.059477
42.827290 -41.357834 -1.247121
33.067245 -31.932667 -0.320929
42.799675 -41.331165 -0.415385
32.906109 -32.055714 0.320719
42.992439 -42.248550 -1.262619
32.780193 -32.213005 -0.320859
32.625122 -32.341648 0.320719
37.871716 -37.871716 -0.373916
32.264210 -32.547001 0.319951
32.194572 -32.476753 0.957906
29.108053 -29.620569 -0.289932
31.985935 -32.834480 0.320021
30.690222 -31.780655 -0.925446
31.654810 -32.779514 -0.318136
27.934185 -29.436489 -0.850053
31.105986 -32.778870 -0.315483
31.658495 -34.247967 0.325606
31.618391 -34.204582 0.975707
29.307430 -31.983448 -0.908692
43.344810 -47.302563 -0.447918
28.684931 -31.857841 -0.299287
31.093742 -34.533100 -0.324419
28.187170 -31.859800 -0.296983
27.500645 -31.358475 0.291188
27.066801 -30.863771 0.859896
0.157744 -0.219120 0.001885
0.134348 -0.186621 0.004817
0.193794 -0.279353 0.002374
0.159564 -0.230011 0.005864
0.123814 -0.181845 0.001536
0.129417 -0.190074 0.004817
0.155556 -0.232806 0.001955
0.166635 -0.249386 0.006283
0.159001 -0.242517 0.002025
0.148007 -0.225748 0.005654
0.151469 -0.235485 0.001955
0.162257 -0.252256 0.006283
0.128064 -0.202970 0.001676
0.117369 -0.186019 0.004607
0.147336 -0.238093 0.001955
0.157830 -0.255050 0.006283
0.160816 -0.265016 0.002164
0.140038 -0.230776 0.005654
0.117595 -0.197659 0.001606
0.107348 -0.180436 0.004398
0.115843 -0.198639 0.004817