# This PCD file was generated using the MATLAB® pcwrite function
# from Computer Vision System Toolbox®.
# .PCD v.7 - Point Cloud Data file format
VERSION .7
FIELDS x y z
SIZE 4 4 4
TYPE F F F
COUNT 1 1 1
WIDTH 780
HEIGHT 1
VIEWPOINT 0 0 0 1 0 0 0
POINTS 780
DATA ascii
38.197170 40.961449 -1.173194
38.250355 40.307465 -1.163980
38.188980 40.242790 -0.387320
38.350624 39.713234 -1.156440
38.260849 39.620270 -0.384528
38.471478 39.148861 -1.149739
38.359829 39.035244 -0.382084
38.535938 38.535938 -1.141571
38.663960 37.994965 -1.135498
38.550247 37.883221 -0.377337
38.771103 37.440819 -1.129006
38.649185 37.323086 -0.375103
38.806271 36.825775 -1.120629
38.741302 36.764122 -0.372869
38.921421 36.294811 -1.114765
38.855877 36.233688 -0.370914
39.030273 35.764656 -1.108901
38.934666 35.677048 -0.368680
39.103134 35.208622 -1.102200
39.066170 35.175339 -0.367005
39.019524 34.521557 -1.091310
39.072067 34.568047 -0.364212
39.070290 33.963287 -1.084399
39.009987 33.910866 -0.360861
35.594398 30.400488 -0.980524
39.121933 33.413288 -0.359186
35.682182 29.940907 -0.975707
39.166897 32.864929 -0.356952
35.787815 29.501198 -0.971519
34.513927 28.451086 -0.312272
39.236153 32.343788 -0.354997
35.857422 29.036766 -0.966493
34.589924 28.010368 -0.310736
35.952957 28.598274 -0.962304
35.639107 28.348625 -0.317927
36.004192 28.129559 -0.957069
35.979694 28.110418 -0.318764
36.089661 27.692570 -0.952880
36.080830 27.685795 -0.317508
39.587368 30.376455 -0.348365
36.170254 27.256241 -0.948692
36.137375 27.231466 -0.315902
36.181698 26.773048 -0.942828
36.148563 26.748529 -0.313947
36.324986 26.391645 -0.940524
36.283527 26.361526 -0.313110
36.358566 25.934313 -0.935498
36.316807 25.904528 -0.311434
36.419701 25.501350 -0.931309
36.377655 25.471909 -0.310038
36.541981 25.114607 -0.928796
36.466694 25.062864 -0.308921
36.842640 24.850674 -0.930891
36.584538 24.676582 -0.308083
36.674591 24.274384 -0.921257
36.598358 24.223925 -0.306408
36.561539 23.970797 0.305221
40.091125 26.284895 1.004189
36.750870 23.866293 -0.917906
36.640625 23.794699 -0.305011
28.653502 18.430552 0.237852
40.125580 25.809641 0.999372
36.789097 23.437241 -0.913718
28.885452 18.402063 -0.239108
36.770969 23.425692 -0.304383
28.779417 18.158459 0.237572
28.672340 18.090900 0.710157
36.856567 23.030539 -0.910367
28.917736 18.069807 -0.238061
36.821350 23.008533 -0.303126
28.877258 17.869789 0.237084
28.735601 17.782129 0.707854
36.919746 22.624451 -0.907016
28.750326 17.618223 -0.235408
36.875790 22.597511 -0.301940
28.869671 17.518545 0.235757
29.009346 17.603302 0.710786
36.978657 22.219019 -0.903665
28.714405 17.253355 -0.233872
29.133167 17.332413 0.236665
28.611958 17.022326 0.697383
29.556013 17.409822 -0.718534
36.988838 21.788092 -0.299706
29.343777 17.112785 0.237153
29.692152 17.315950 0.720000
29.516331 17.041262 -0.713927
30.041689 17.344578 -0.242180
29.483313 16.851101 0.237084
29.703247 16.976805 0.716650
29.446377 16.659958 -0.708691
29.948210 16.943882 -0.240225
37.111061 20.996429 -0.297681
30.004406 16.803274 0.240086
30.373648 17.010059 0.729215
29.940411 16.596241 -0.717068
30.890816 17.123058 -0.246578
33.332340 18.286747 0.265428
37.024815 20.312510 0.884608
28.195057 15.308666 -0.672042
32.445137 17.616272 -0.257748
29.491503 15.846356 0.233733
29.520981 15.862196 0.701990
28.230471 15.010407 -0.669739
28.306610 15.050892 -0.223819
29.549017 15.546490 0.233104
27.694038 14.570539 0.655498
29.852934 15.706388 0.706597
28.245098 14.703468 -0.667016
28.809410 14.997230 -0.226751
29.416861 15.150679 0.231010
27.686810 14.259645 0.652356
28.728659 14.637982 -0.675393
29.001556 14.777031 -0.227240
29.351503 14.794375 0.229474
27.899471 14.062491 0.654451
29.238646 14.737491 0.685864
28.971619 14.444716 -0.678116
29.102556 14.509999 -0.227031
31.116110 15.513920 -0.242738
27.838251 13.728307 0.216698
27.743156 13.681411 0.647958
28.476536 13.888935 -0.663665
28.473101 13.887259 -0.221166
28.560446 13.775924 0.221376
28.050596 13.530002 0.652356
28.641773 13.661426 -0.664712
28.773718 13.724360 -0.222563
28.299711 13.347011 0.218444
28.158556 13.280437 0.652147
28.904879 13.478566 -0.668063
29.137085 13.586846 -0.224448
28.487757 13.133036 0.219002
28.418648 13.101176 0.655498
29.021399 13.225813 -0.668063
28.672180 13.066666 -0.219980
41.575119 18.946873 -0.318974
28.601278 12.883937 0.219002
28.386044 12.786980 0.652147
28.852571 12.845993 -0.661571
41.675938 18.555323 -0.955603
28.648087 12.754951 -0.218932
28.785845 12.666075 0.219561
28.386736 12.490462 0.649634
29.000248 12.609667 -0.662409
41.762924 18.159037 -0.953927
28.804155 12.524403 -0.219281
28.748276 12.351234 0.218444
28.705929 12.333040 0.654451
28.971138 12.297519 -0.659267
41.800159 17.743116 -0.951205
28.746666 12.202236 -0.218025
28.449207 11.929743 0.215372
28.452881 11.931283 0.646283
29.123533 12.063362 -0.660315
28.593374 11.843763 -0.216070
28.450422 11.639375 0.214604
28.444876 11.637106 0.643770
29.311123 11.842463 -0.662199
28.510208 11.518872 -0.214674
28.588062 11.405480 0.214883
28.508200 11.373618 0.642932
29.087776 11.457980 -0.654869
28.823633 11.353931 -0.216279
28.910179 11.242554 0.216559
28.578413 11.113537 0.642304
28.785305 11.049644 -0.645864
28.706898 11.019546 -0.214674
28.773409 10.901270 0.214813
28.861292 10.934566 0.646492
28.880634 10.798027 -0.645864
28.951832 10.824646 -0.215791
28.820536 10.632457 0.214464
29.021275 10.706513 0.647958
29.255611 10.648171 -0.652147
29.308298 10.667348 -0.217746
29.062807 10.434614 0.215581
29.141829 10.462986 0.648587
29.290873 10.372442 -0.650890
29.503960 10.447900 -0.218513
29.426538 10.276207 0.217606
29.307535 10.234650 0.650262
29.597694 10.191303 -0.655707
29.641285 10.206313 -0.218863
29.524563 10.022239 0.217676
29.594543 10.045994 0.654660
29.922531 10.011939 -0.660943
29.482664 9.864761 -0.217047
29.534924 9.739157 0.217117
29.605124 9.762306 0.652985
30.294016 9.843122 -0.667225
29.482033 9.579293 -0.216419
29.799738 9.538972 0.218444
29.717754 9.512728 0.653613
30.321548 9.560348 -0.665969
30.117647 9.496058 -0.220468
30.378445 9.432757 0.222074
30.114723 9.350870 0.660524
30.375139 9.286612 -0.665341
30.323685 9.270881 -0.221376
31.082008 9.354623 0.226612
33.265217 10.011694 0.242529
30.176029 9.081954 0.660105
30.541298 9.046744 -0.667225
30.949947 9.167792 -0.225355
30.845650 8.990687 0.224308
30.666866 8.938576 0.669110
31.685848 9.085771 -0.690472
31.365204 8.993828 -0.227799
31.307905 8.829742 0.227100
33.348263 9.405183 0.241901
30.888037 8.711328 0.672252
33.103081 9.180297 -0.719582
31.461767 8.725121 -0.227938
33.446796 9.275618 -0.242320
42.870872 11.889146 -0.310596
31.432005 8.569348 0.227449
31.204025 8.507194 0.677487
33.317131 8.927299 -0.722513
33.304310 8.923863 -0.240714
42.953674 11.509402 -0.310457
32.308216 8.506043 0.233244
31.644472 8.331294 0.685445
33.422806 8.643725 -0.723142
33.632629 8.697989 -0.242529
33.301964 8.457621 0.239876
32.588085 8.276320 0.704294
42.898441 10.894816 0.927121
32.837307 8.187261 -0.708901
34.370037 8.569413 -0.741990
33.649036 8.389647 -0.242110
32.869415 8.043095 0.236246
32.416286 7.932215 0.699058
33.004719 7.923732 -0.710995
34.560169 8.297163 -0.744503
33.798756 8.114363 -0.242669
32.714481 7.703238 0.234640
32.240982 7.591743 0.693822
32.546566 7.513967 -0.699686
31.461643 7.263493 -0.225425
33.634434 7.765121 -0.240993
32.819469 7.426288 0.234919
32.510780 7.356439 0.698220
32.640179 7.236153 -0.700315
32.295086 7.159648 -0.230940
31.544250 6.848928 0.225355
33.752739 7.328438 0.241133
32.036381 6.955780 0.686702
33.220387 7.061211 -0.711414
32.258522 6.856761 -0.230242
32.787434 6.819796 0.233802
34.709339 7.219553 0.742618
32.036510 6.517901 -0.684817
33.888161 6.894624 -0.724398
33.297031 6.774357 -0.237223
32.973198 6.558777 0.234710
34.336456 6.829946 0.244414
34.368984 6.836416 0.734032
32.504360 6.318208 -0.693613
32.392906 6.296544 -0.230382
34.296509 6.511395 0.243716
34.319290 6.515720 0.731728
32.440296 6.012454 -0.691100
32.564610 6.035493 -0.231219
33.800976 6.112212 0.239806
35.336040 6.389797 0.250697
34.650311 6.265797 0.737592
32.540756 5.737813 -0.692147
32.419083 5.716359 -0.229823
33.241997 5.712019 0.235478
35.341179 6.072725 0.250348
35.501797 6.100325 0.754555
32.431820 5.427225 -0.688796
33.069351 5.533911 -0.234082
32.895786 5.357419 0.232685
35.708660 5.815524 0.252582
35.533943 5.787070 0.754137
32.339699 5.122105 -0.685864
34.245518 5.423957 -0.726283
32.978111 5.223219 -0.233104
34.854671 5.520438 -0.246369
32.723850 5.036683 0.231150
35.570263 5.474787 0.251256
35.622620 5.482845 0.754974
33.233532 4.966785 -0.703875
33.091663 4.945582 -0.233593
34.763062 5.195374 -0.245391
32.687389 4.739446 0.230591
35.428658 5.136911 0.249929
35.876888 5.201901 0.759372
34.156757 4.800419 -0.722513
33.044441 4.644093 -0.232965
34.896194 4.904341 -0.246020
32.925671 4.480987 0.231987
35.600945 4.845076 0.250837
36.079422 4.910194 0.762723
34.108135 4.490421 -0.720629
34.818695 4.583968 -0.245182
35.691467 4.540528 0.251186
36.041553 4.585065 0.761048
34.225410 4.202352 -0.722304
36.468071 4.477716 -0.769634
36.366005 4.465184 -0.255793
35.878689 4.246523 0.252233
36.239048 4.289174 0.764398
34.300510 3.908050 -0.723142
36.505756 4.159306 -0.769634
36.443329 4.152193 -0.256073
36.421337 3.988785 0.255793
36.344669 3.980388 0.765864
34.591827 3.635748 -0.728587
36.560551 3.842669 -0.770053
36.517956 3.838192 -0.256352
36.454758 3.670801 0.255793
36.378017 3.663074 0.765864
36.682259 3.532100 -0.771938
36.589874 3.523204 -0.256631
36.535191 3.357113 0.256142
36.448421 3.349140 0.766702
36.701725 3.210985 -0.771728
36.619225 3.203767 -0.256631
36.563099 3.038159 0.256142
36.526077 3.035083 0.767749
36.818050 2.897643 -0.773613
36.715572 2.889578 -0.257120
36.667995 2.724903 0.256701
36.551174 2.716221 0.767749
36.831963 2.575541 -0.773404
36.779289 2.571858 -0.257399
36.730293 2.407430 0.256980
36.643318 2.401730 0.769215
36.853035 2.254028 -0.773404
36.850239 2.253857 -0.257748
36.789837 2.089078 0.257259
36.702812 2.084137 0.770053
36.961159 1.937052 -0.775288
36.898460 1.933766 -0.257958
36.886574 1.771789 0.257818
36.759544 1.765688 0.770890
37.006618 1.615744 -0.775917
36.963882 1.613878 -0.258307
36.900631 1.449830 0.257818
36.813515 1.446407 0.771728
37.099243 1.295534 -0.777592
37.046516 1.293693 -0.258795
36.941860 1.128676 0.258027
36.874699 1.126624 0.772775
37.109135 0.971737 -0.777592
37.096378 0.971403 -0.259075
37.030285 0.808004 0.258586
36.993076 0.807192 0.775079
37.116203 0.647866 -0.777592
37.023457 0.646247 -0.258516
37.075920 0.485350 0.258865
36.998714 0.484340 0.775079
37.170429 0.324381 -0.778639
37.067684 0.323485 -0.258795
37.118744 0.161962 0.259144
37.001530 0.161451 0.775079
37.271824 0.000000 -0.780733
37.239094 0.000000 -0.259982
37.168739 -0.162180 0.259493
37.131500 -0.162018 0.777801
37.360382 -0.326039 -0.782618
37.227676 -0.324881 -0.259912
37.235901 -0.487445 0.259982
37.118675 -0.485910 0.777592
37.436085 -0.653449 -0.784294
37.343403 -0.651832 -0.260750
37.310211 -0.814112 0.260541
37.432877 -0.816788 0.784294
37.508911 -0.982205 -0.785969
37.536217 -0.982920 -0.262146
37.581547 -1.148220 0.262495
37.464294 -1.144638 0.785131
37.778679 -1.319261 -0.791833
37.646133 -1.314632 -0.262984
37.370255 -1.468281 0.261099
37.293037 -1.465248 0.781781
37.605915 -1.641910 -0.788482
37.553307 -1.639613 -0.262426
37.475880 -1.800096 0.261937
37.438614 -1.798306 0.785131
37.630093 -1.972110 -0.789320
37.537571 -1.967261 -0.262426
37.538612 -2.131597 0.262495
37.461422 -2.127214 0.785969
37.731201 -2.307739 -0.791833
37.598820 -2.299642 -0.262984
37.518581 -2.459098 0.262495
37.481339 -2.456657 0.786807
37.749519 -2.639704 -0.792671
37.667099 -2.633940 -0.263612
37.655251 -2.798268 0.263612
37.578117 -2.792536 0.789320
37.725044 -2.969025 -0.792671
37.672588 -2.964897 -0.263822
37.669258 -3.130074 0.263892
37.592171 -3.123668 0.790157
37.847095 -3.311192 -0.795812
37.764820 -3.303994 -0.264660
37.720173 -3.465997 0.264450
37.643127 -3.458917 0.791833
37.906326 -3.649964 -0.797697
37.804226 -3.640133 -0.265148
37.768085 -3.803046 0.265009
37.730881 -3.799300 0.794346
37.952576 -3.988976 -0.799372
37.850582 -3.978256 -0.265707
37.773220 -4.136840 0.265288
37.696289 -4.128415 0.794346
37.985855 -4.327941 -0.800838
37.903843 -4.318597 -0.266335
37.894569 -4.485118 0.266405
37.777969 -4.471317 0.796859
38.065720 -4.673883 -0.803351
37.934189 -4.657733 -0.266824
37.933346 -4.825731 0.266963
37.856525 -4.815958 0.799372
38.102783 -5.016326 -0.805027
38.020985 -5.005558 -0.267731
37.969055 -5.167362 0.267522
37.892307 -5.156917 0.801048
38.186264 -5.366729 -0.807749
38.124393 -5.358034 -0.268779
38.041271 -5.515722 0.268360
37.964596 -5.504604 0.803561
38.217079 -5.711581 -0.809425
38.125633 -5.697914 -0.269128
38.070759 -5.859650 0.268918
37.836063 -5.823527 0.801885
38.215157 -6.052686 -0.810472
38.123840 -6.038223 -0.269477
37.899738 -6.172364 0.268080
37.783802 -6.153483 0.801885
38.032692 -6.364490 -0.807749
37.980934 -6.355828 -0.268848
37.923271 -6.516410 0.268639
37.886318 -6.510060 0.805236
38.103703 -6.718710 -0.810472
38.052044 -6.709602 -0.269756
38.022408 -6.875571 0.269756
37.906773 -6.854661 0.806911
38.191074 -7.078298 -0.813613
38.139530 -7.068744 -0.270803
38.078850 -7.229496 0.270594
38.002670 -7.215032 0.810262
38.284878 -7.441826 -0.816964
38.203999 -7.426105 -0.271711
38.171234 -7.592731 0.271711
38.065735 -7.571745 0.812985
38.336044 -7.799556 -0.819477
38.245529 -7.781141 -0.272479
38.221004 -7.949980 0.272548
38.105881 -7.926034 0.815288
38.422989 -8.167059 -0.822828
38.293545 -8.139544 -0.273316
38.228348 -8.300188 0.273107
38.191586 -8.292206 0.818639
38.477150 -8.530178 -0.825550
38.426075 -8.518856 -0.274782
38.310513 -8.668784 0.274224
38.273788 -8.660475 0.821990
38.508400 -8.890365 -0.827854
38.457451 -8.878602 -0.275550
38.622749 -9.094450 0.277016
38.586021 -9.085802 0.830367
38.857101 -9.328765 -0.837068
38.757721 -9.304906 -0.278273
38.736179 -9.478683 0.278413
38.660648 -9.460200 0.833718
38.890625 -9.696522 -0.839582
38.830288 -9.681479 -0.279390
38.729523 -9.836046 0.278971
38.692902 -9.826745 0.836231
38.988434 -10.083095 -0.843561
38.947632 -10.072542 -0.280856
38.874298 -10.234749 0.280647
38.750702 -10.202209 0.839372
39.053474 -10.464347 -0.846911
38.964497 -10.440506 -0.281624
38.937866 -10.615681 0.281764
38.901340 -10.605722 0.844608
39.085915 -10.839483 -0.849634
39.035717 -10.825562 -0.282811
38.959240 -10.987641 0.282601
38.884285 -10.966503 0.846283
39.220486 -11.246293 -0.854660
39.122398 -11.218167 -0.284137
39.053875 -11.383167 0.283998
39.017467 -11.372555 0.851309
39.264645 -11.630717 -0.857801
39.224358 -11.618785 -0.285603
39.182865 -11.792704 0.285673
39.108212 -11.770236 0.855498
39.314629 -12.019688 -0.861152
39.236229 -11.995719 -0.286441
39.231262 -12.181631 0.286790
39.156776 -12.158503 0.858849
39.398941 -12.422439 -0.865341
39.311256 -12.394791 -0.287768
39.266323 -12.569249 0.287837
39.239624 -12.560702 0.863037
39.488716 -12.830661 -0.869739
39.401310 -12.802262 -0.289234
39.354572 -12.977192 0.289303
39.280437 -12.952745 0.866388
39.555386 -13.235047 -0.873718
39.515682 -13.221763 -0.290909
39.429211 -13.384413 0.290700
39.506729 -13.410728 0.873927
39.627445 -13.644824 -0.877906
39.748631 -13.686552 -0.293492
39.726299 -13.873044 0.293771
39.614727 -13.834082 0.878953
39.968658 -14.153645 -0.888168
39.721943 -14.066278 -0.294190
39.594311 -14.215810 0.293702
39.483086 -14.175876 0.878744
39.796650 -14.484796 -0.887121
39.635269 -14.426058 -0.294470
39.665764 -14.633472 0.295168
39.582993 -14.602937 0.883770
39.818565 -14.887552 -0.890472
39.732666 -14.855435 -0.296145
39.676819 -15.032203 0.296215
39.612988 -15.008019 0.887330
39.911144 -15.320453 -0.895498
39.872250 -15.305522 -0.298170
39.767807 -15.464854 0.297890
39.704147 -15.440098 0.892357
39.971275 -15.745104 -0.899896
39.876724 -15.707860 -0.299217
39.854248 -15.900232 0.299566
39.753616 -15.860085 0.896545
40.082638 -16.194437 -0.905550
45.338615 -18.317989 -1.024294
39.969921 -16.148897 -0.300962
39.936100 -16.338289 0.301241
39.835781 -16.297249 0.901571
40.152237 -16.631601 -0.910367
48.539223 -20.105604 -1.100524
40.049202 -16.588923 -0.302638
40.022549 -16.782846 0.302987
39.913326 -16.737045 0.906597
37.649593 -15.981305 -0.856754
48.619606 -20.637798 -1.106388
37.712166 -16.007864 -0.286022
40.151443 -17.043276 -0.304523
37.559269 -16.136736 0.285394
40.113445 -17.234097 0.304802
37.487644 -16.105963 0.854660
39.995396 -17.183378 0.911833
37.618721 -16.357086 -0.859267
48.703548 -21.176905 -1.112461
37.525185 -16.316414 -0.285673
40.221275 -17.488708 -0.306198
37.481091 -16.492075 0.285883
40.144585 -17.664040 0.306198
37.382275 -16.448593 0.855498
40.017792 -17.608250 0.915812
48.772629 -21.714973 -1.118325
37.335693 -16.622921 -0.285324
40.216843 -18.116367 0.307943
37.419624 -16.856312 0.859686
35.153191 -16.020233 -0.809215
48.854202 -22.264143 -1.124608
35.232841 -16.056532 -0.270314
37.025421 -16.873457 -0.284067
34.753792 -16.021717 0.267173
40.275169 -18.567106 0.309619
37.352818 -17.219885 0.861571
35.456047 -16.533426 -0.819477
35.037006 -16.338024 -0.269896
35.625622 -16.802134 0.274992
37.606327 -17.736296 0.290281
35.763355 -16.867094 0.828273
37.155910 -17.523865 0.860524
40.203255 -18.961086 0.931100
34.759960 -16.579651 -0.806702
34.559147 -16.483868 -0.267312
35.063328 -16.912542 0.271780
34.408131 -16.596512 0.800210
32.933578 -16.062778 -0.767540
34.811646 -16.978773 -0.811309
34.315121 -16.736603 -0.266545
35.273144 -17.394791 0.274573
34.306824 -16.918255 0.801257
32.863731 -16.385252 -0.769215
34.787418 -17.344366 -0.814241
33.970879 -16.937256 -0.265009
49.085953 -24.473354 -0.382922
35.477188 -17.881975 0.277365
34.095387 -17.185490 0.799791
32.933289 -16.780348 -0.774241
35.757156 -18.219183 -0.840629
37.859470 -19.290365 -0.890053
34.285095 -17.469130 -0.268639
34.786392 -17.916170 0.273177
33.064186 -17.029175 0.779058
35.543999 -18.306362 0.837487
32.510685 -16.923992 -0.767749
32.109009 -16.714893 -0.252722
32.000374 -16.836210 0.252442
32.206486 -16.944651 0.762304
34.648514 -18.229465 0.820105
32.635414 -17.352556 -0.774241
32.076706 -17.055487 -0.253629
31.508694 -16.930231 0.249720
32.911667 -17.684076 0.782618
32.930843 -17.879988 -0.784922
33.104233 -17.974133 -0.262984
32.569607 -17.868298 0.259354
31.791906 -17.441637 0.759582
33.237003 -18.423573 -0.796021
33.156025 -18.378685 -0.264660
32.115795 -17.985710 0.256980
32.022305 -17.933352 0.768796
32.352726 -18.304293 -0.778639
34.066952 -19.274155 -0.819896
32.237190 -18.238924 -0.258586
31.497486 -18.002296 0.253280
33.884975 -19.366858 0.272479
31.682306 -18.107929 0.764398
32.235054 -18.610918 -0.779686
31.782358 -18.349552 -0.256212
33.600967 -19.399527 -0.270873
31.209616 -18.200911 0.252233
32.447182 -18.922638 0.786807
31.511482 -18.561682 -0.766074
31.707180 -18.676956 -0.256910
31.221474 -18.574825 0.253629
31.438784 -18.704111 0.766283
32.804939 -19.516890 0.799582
31.871061 -19.150064 -0.778849
31.200129 -18.746929 -0.254118
31.023996 -18.825823 0.253350
33.084282 -20.076036 0.270175
31.735916 -19.257826 0.777592
31.506668 -19.307312 -0.774032
31.282606 -19.170006 -0.256142
31.402742 -19.432606 0.257818
31.371115 -19.413034 0.772775
31.057188 -19.406685 -0.767121
31.207409 -19.500553 -0.256910
31.189682 -19.679224 0.257469
32.508984 -20.511642 0.268360
31.487997 -19.867447 0.779896
31.207071 -19.881098 -0.775079
31.128820 -19.831245 -0.257678
32.798695 -20.895073 -0.271501
32.505367 -20.908154 0.269826
37.080505 -23.850983 0.307804
31.674992 -20.374039 0.788901
30.906618 -20.070992 -0.771938
32.581558 -21.158710 -0.271222
31.962078 -20.955257 0.266824
31.822071 -20.863464 0.797068
32.280979 -21.366314 -0.810890
31.987082 -21.171787 -0.267801
31.445414 -21.011154 0.264031
31.007015 -20.718225 0.781152
32.076717 -21.636019 -0.810472
31.336857 -21.136976 -0.263892
31.194736 -21.239740 0.263473
32.484184 -22.117695 0.274364
31.362202 -21.353764 0.794765
32.125633 -22.079336 -0.816545
31.513817 -21.658846 -0.266963
31.755880 -22.029839 0.269826
31.199306 -21.643728 0.795393
32.349411 -22.651300 -0.827226
34.314941 -24.027582 -0.877487
31.192549 -21.841259 -0.265846
31.390936 -22.184921 0.268360
30.845951 -21.799763 0.791205
32.313297 -23.048851 -0.831414
32.425430 -23.128836 -0.278064
32.145660 -23.141565 0.276528
31.733698 -22.844994 0.819058
31.900633 -23.177166 -0.825969
32.230453 -23.416794 -0.278133
31.748951 -23.279293 0.274852
31.299314 -22.949606 0.812985
31.793604 -23.526030 -0.828482
31.743534 -23.488979 -0.275690
31.736891 -23.699060 0.276528
30.224676 -22.569836 0.790157
32.675976 -24.400309 0.854241
31.499262 -23.736395 -0.826178
31.872766 -24.017853 -0.278622
30.311018 -23.049034 0.265846
31.433353 -23.902477 0.275690
30.512024 -23.201881 0.802932
30.632586 -23.505211 -0.808796
30.400558 -23.327169 -0.267522
30.021751 -23.245323 0.265078
30.237244 -23.412174 0.801048
31.565310 -24.440475 0.836231
30.323881 -23.691612 -0.806074
33.418720 -26.109568 -0.296075
34.868626 -27.242357 -0.308921
31.097792 -24.515522 0.276458
29.811945 -23.501842 0.795184
31.170244 -24.572639 0.831414
31.266163 -24.870230 -0.836859
35.295712 -28.075476 -0.944713
31.358345 -24.943554 -0.279739
29.377533 -23.577963 0.262984
30.625317 -24.579416 0.274154
29.519951 -23.692265 0.792880
30.962475 -25.072918 -0.834555
33.798435 -27.369432 -0.910995
30.393438 -24.612122 -0.273037
31.098850 -25.408827 0.280367
30.628254 -25.024334 0.828482
31.652813 -26.092566 -0.859267
33.851460 -27.904991 -0.918953
30.555590 -25.188084 -0.276458
30.606848 -25.455446 0.277924
30.385653 -25.271481 0.827854
31.400934 -26.348513 -0.858639
30.786575 -25.833004 -0.280577
30.009569 -25.404976 0.274503
30.537865 -25.852211 0.838116
31.086182 -26.550106 -0.856336
36.727154 -31.367954 -1.011728
30.788088 -26.295511 -0.282671
31.559387 -27.193308 0.290839
33.703243 -29.040573 0.310596
31.121519 -26.816015 0.860524
47.875820 -41.617817 -1.328797
30.836681 -26.805918 -0.285254
34.761078 -30.217342 -0.321557
33.824448 -29.663246 0.314087
32.314507 -28.339060 0.900315
46.597294 -41.225803 -1.303247
33.623985 -30.010555 0.314645
32.192776 -28.733150 0.903875
46.503235 -41.871700 -1.310786
31.911205 -28.986097 0.903037
46.371944 -42.492058 -1.317488
46.313786 -43.188301 -1.326493
53.173985 -50.021088 1.529215
46.246979 -43.886745 -1.335498
49.704655 -47.581852 0.480381
46.149910 -44.566452 -1.343875
46.073006 -45.275814 -1.353090
45.939342 -45.144466 -0.449663
45.987209 -45.987209 -1.362304
45.784050 -45.784050 -0.452037
45.871456 -46.679134 -1.370891
45.691162 -46.495663 -0.455108
45.802673 -47.430054 -1.381153
45.617104 -47.237892 -0.458459
45.738010 -48.197807 -1.391833
45.533546 -47.982346 -0.461810
49.393127 -57.323544 0.528272
49.070240 -56.948818 1.574661
48.177357 -56.909393 1.561886
46.350864 -56.730621 0.511447
45.463367 -56.646183 1.521467
0.157744 -0.219120 0.001885
0.134348 -0.186621 0.004817
0.148196 -0.213623 0.001815
0.136769 -0.197152 0.005026
0.140698 -0.206642 0.001745
0.151924 -0.223130 0.005654
0.155556 -0.232806 0.001955
0.161080 -0.241073 0.006073
0.126080 -0.192304 0.004817
0.151469 -0.235485 0.001955
0.146031 -0.227031 0.005654
0.128064 -0.202970 0.001676
0.117369 -0.186019 0.004607
0.126288 -0.204080 0.001676
0.136786 -0.221043 0.005445
0.140038 -0.230776 0.005654
0.138046 -0.232034 0.001885
0.127795 -0.214804 0.005236
0.115843 -0.198639 0.004817