# This PCD file was generated using the MATLAB® pcwrite function
# from Computer Vision System Toolbox®.
# .PCD v.7 - Point Cloud Data file format
VERSION .7
FIELDS x y z
SIZE 4 4 4
TYPE F F F
COUNT 1 1 1
WIDTH 1045
HEIGHT 1
VIEWPOINT 0 0 0 1 0 0 0
POINTS 1045
DATA ascii
26.997417 29.462513 -0.837068
26.646650 28.575035 -0.818430
26.774603 28.712246 -0.274084
27.142750 28.602491 -0.825969
27.271944 28.738632 -0.276598
27.641340 28.623446 -0.833508
27.771765 28.758505 -0.279111
28.170372 28.666380 -0.841885
28.358097 28.857410 -0.282462
28.794144 28.794144 -0.852985
28.955317 28.955317 -0.285883
29.322426 28.815067 -0.861152
29.485056 28.974882 -0.288605
29.889206 28.863670 -0.870367
26.765982 25.847609 -0.259773
26.854721 25.484180 -0.775498
26.787422 25.420315 -0.257818
26.871353 25.057943 -0.769634
26.803459 24.994631 -0.255863
26.971062 24.714424 -0.766283
26.873104 24.624662 -0.254467
26.977671 24.290804 -0.760419
26.938343 24.255394 -0.253071
26.978956 23.868965 -0.754555
26.939281 23.833862 -0.251116
27.125858 23.580149 -0.752880
27.055679 23.519142 -0.250278
27.178551 23.212675 -0.748691
27.054585 23.106798 -0.248393
27.165638 22.794676 -0.742828
27.094332 22.734844 -0.246927
27.240089 22.454996 -0.739477
27.145092 22.376686 -0.245601
27.287380 22.096886 -0.735498
27.207216 22.031969 -0.244414
27.291386 21.708548 -0.730472
27.218449 21.650532 -0.242808
27.345854 21.364923 -0.726911
27.311787 21.338306 -0.241970
27.404346 21.028095 -0.723561
27.370024 21.001757 -0.240853
27.427113 20.667812 -0.719372
27.360586 20.617680 -0.239178
27.485876 20.338478 -0.716231
27.443005 20.306755 -0.238340
27.557163 20.021452 -0.713508
27.522087 19.995968 -0.237502
27.722692 19.774405 -0.713299
27.615749 19.336756 -0.706178
27.580177 19.311848 -0.235059
27.651609 19.004425 -0.702828
27.599314 18.968483 -0.233802
27.683783 18.672947 -0.699477
27.606277 18.620670 -0.232476
27.490669 18.368679 0.692566
27.712286 18.342361 -0.696126
27.642641 18.296265 -0.231429
27.655310 18.131615 0.230870
27.282032 17.886885 0.683351
27.779062 18.039934 -0.693822
27.700613 17.988989 -0.230591
27.476074 17.673204 0.228078
27.445494 17.653534 0.683561
27.699333 17.646421 -0.687958
27.510759 17.526285 -0.227729
27.561598 17.390074 0.227519
27.598501 17.413359 0.683561
27.674219 17.292772 -0.683561
27.628735 17.264349 -0.227449
27.746317 17.169941 0.227799
27.647390 17.108725 0.681047
27.858170 17.071508 -0.684398
27.812445 17.043488 -0.227729
27.724117 16.823406 0.226402
27.624691 16.763075 0.676859
27.868967 16.745365 -0.681047
27.822973 16.717728 -0.226612
27.740963 16.504139 0.225355
27.641041 16.444691 0.673718
27.876205 16.420340 -0.677697
27.795479 16.372789 -0.225215
27.771635 16.195938 0.224448
27.714401 16.162561 0.672042
27.914536 16.116465 -0.675184
27.798738 16.049608 -0.224098
27.816412 15.898389 0.223680
27.715508 15.840718 0.668691
27.949694 15.813176 -0.672671
27.868111 15.767018 -0.223540
27.779596 15.557322 0.222283
27.748011 15.539633 0.666178
27.946714 15.491117 -0.669320
27.864704 15.445658 -0.222423
27.844164 15.275831 0.221725
27.777378 15.239191 0.663665
27.975401 15.189403 -0.666807
27.901764 15.149422 -0.221655
27.905939 14.994402 0.221166
27.838850 14.958353 0.661990
28.000956 14.888372 -0.664294
27.962269 14.867802 -0.221097
27.964928 14.713060 0.220608
27.862148 14.658985 0.659477
28.058868 14.606522 -0.662618
28.011120 14.581666 -0.220468
27.914457 14.376890 0.219212
27.811245 14.323732 0.655288
28.113998 14.324798 -0.660943
28.039291 14.286733 -0.219700
27.931700 14.078736 0.218374
27.863760 14.044492 0.653613
28.139513 14.029843 -0.658639
28.055508 13.987961 -0.218863
27.954842 13.785803 0.217606
27.940426 13.778693 0.652566
30.343517 14.963767 0.708691
28.144056 13.726773 -0.655917
28.068653 13.689998 -0.218025
30.262724 14.597005 0.234570
31.067274 14.985074 0.722513
30.717264 14.651383 -0.712880
28.421719 13.556464 -0.219840
30.921818 14.748951 -0.239178
28.607220 13.492041 0.220817
30.533661 14.400610 0.235687
31.703243 14.952220 0.734241
31.469166 14.674314 -0.727330
31.792501 14.825088 -0.244903
31.720669 14.623428 0.243855
32.558872 15.009846 0.750995
32.150978 14.652045 -0.740105
32.457527 14.791747 -0.249022
32.722343 14.740340 0.250557
32.688618 14.725148 0.750995
32.862156 14.631175 -0.753508
32.923374 14.658431 -0.251605
32.849728 14.454226 0.250557
32.742661 14.407116 0.749320
33.016090 14.355804 -0.754137
32.930824 14.318730 -0.250697
32.891922 14.131486 0.249929
32.756908 14.073479 0.746807
33.094093 14.047610 -0.753089
33.017704 14.015184 -0.250418
32.866440 13.782043 0.248812
32.795494 13.752292 0.744922
33.196949 13.750627 -0.752671
33.074081 13.699733 -0.249929
32.948441 13.479562 0.248533
32.886494 13.454221 0.744294
33.204441 13.415465 -0.750157
33.118198 13.380621 -0.249371
33.036949 13.180407 0.248323
32.928364 13.137085 0.742618
28.799410 11.344389 -0.648377
33.227226 13.088552 -0.748063
33.149971 13.058121 -0.248742
33.076153 12.862613 0.247765
32.967205 12.820246 0.740943
28.561296 10.963655 -0.640838
33.197311 12.743254 -0.248254
33.112331 12.545140 0.247206
33.040432 12.517900 0.740105
28.843176 10.784021 -0.645027
33.222954 12.421553 -0.247625
33.145493 12.228018 0.246648
33.073372 12.201411 0.738430
29.490482 10.733658 -0.657383
29.900291 10.882815 -0.222144
33.292500 12.117478 -0.247346
32.874477 11.803144 0.243855
32.952755 11.831248 0.733404
29.894030 10.586031 -0.664294
33.164280 11.744087 -0.736964
32.878532 11.642900 -0.243506
32.910141 11.492736 0.243367
32.960358 11.510272 0.731309
32.877922 11.320777 -0.728377
33.139618 11.410886 -0.244693
33.198563 11.269393 0.244763
33.087948 11.231846 0.731938
33.070274 11.065159 -0.730472
32.887062 11.003858 -0.242110
33.362118 11.001177 0.245252
33.251171 10.964591 0.733404
33.156067 10.773059 -0.730262
33.162533 10.775160 -0.243437
33.523514 10.730962 0.245740
33.450325 10.707534 0.735707
33.506264 10.564485 -0.735917
33.713074 10.629691 -0.246788
33.587234 10.429113 0.245531
33.494751 10.400397 0.734660
33.817081 10.338920 -0.740733
33.775860 10.326317 -0.246578
33.676964 10.135615 0.245531
33.800568 10.012185 -0.738430
33.701691 9.982896 -0.245391
33.716129 9.827355 0.245182
30.724457 8.955362 0.670367
33.877045 9.714086 -0.738220
30.980709 8.883575 -0.225006
33.825974 9.699442 -0.245671
30.711199 8.661453 0.222772
30.532007 8.610916 0.664503
31.060633 8.613875 -0.675184
30.854694 8.556765 -0.223540
30.525127 8.322104 0.220887
30.297323 8.259998 0.657801
30.757990 8.241579 -0.667016
30.590126 8.196599 -0.221097
30.325821 7.984123 0.218932
30.174885 7.944384 0.653613
30.548038 7.900260 -0.660943
30.389414 7.859237 -0.219142
30.161732 7.660104 0.217257
30.010498 7.621696 0.648587
30.353895 7.568076 -0.655288
30.185163 7.526007 -0.217187
29.994312 7.339561 0.215581
29.881641 7.311991 0.644398
30.263237 7.265560 -0.651938
30.181627 7.245967 -0.216698
30.028019 7.070660 0.215372
29.944311 7.050949 0.644398
30.374195 7.012435 -0.652985
30.156019 6.962066 -0.216070
30.049564 6.799522 0.215093
30.004702 6.789371 0.644398
30.434233 6.747107 -0.652985
30.215626 6.698643 -0.216070
30.097984 6.534913 0.215023
30.062807 6.527275 0.644398
30.491953 6.481265 -0.652985
30.194681 6.418077 -0.215512
30.232187 6.288304 0.215581
30.196928 6.280970 0.646074
30.468975 6.198983 -0.651309
30.327930 6.170287 -0.216070
30.442833 6.055456 0.216698
30.446705 6.056226 0.650262
30.521910 5.932858 -0.651309
30.537678 5.935923 -0.217187
30.651705 5.819408 0.217815
30.694841 5.827598 0.654451
30.680655 5.686323 -0.653613
30.735800 5.696544 -0.218234
30.858765 5.580173 0.218932
30.941292 5.595097 0.658639
30.916182 5.451357 -0.657592
30.991144 5.464575 -0.219700
31.182234 5.358088 0.220887
31.225422 5.365509 0.663665
31.248535 5.229211 -0.663665
31.303942 5.238483 -0.221585
31.425198 5.117918 0.222283
34.277550 5.582453 0.242459
34.152451 5.562080 0.724817
31.529972 4.993857 -0.668691
31.506491 4.990138 -0.222702
34.380592 5.445351 -0.243018
34.285427 5.277032 0.242180
34.199688 5.263836 0.724817
34.469532 5.151506 -0.730053
34.377354 5.137730 -0.242669
34.330170 4.977638 0.242180
34.244324 4.965190 0.724817
34.513172 4.850510 -0.730053
34.460487 4.843106 -0.242948
34.372299 4.677865 0.242180
34.296253 4.667515 0.725027
34.583923 4.553060 -0.730681
34.501442 4.542201 -0.242948
34.411812 4.377736 0.242180
34.335678 4.368050 0.725027
34.542953 4.241342 -0.729006
34.500065 4.236075 -0.242669
34.448704 4.077273 0.242180
34.362560 4.067077 0.724817
34.628319 3.945399 -0.730053
34.575459 3.939376 -0.242948
34.482975 3.776500 0.242180
34.396744 3.767056 0.724817
34.691257 3.646198 -0.730681
34.608517 3.637502 -0.242948
34.514618 3.475439 0.242180
34.428307 3.466748 0.724817
34.691902 3.340450 -0.730053
34.599129 3.331517 -0.242669
34.543633 3.174114 0.242180
34.457249 3.166177 0.724817
34.749611 3.040197 -0.730681
34.666729 3.032946 -0.242948
34.560051 2.871719 0.242110
34.483566 2.865364 0.724817
34.744915 2.734484 -0.730053
34.652000 2.727172 -0.242669
34.633656 2.573725 0.242459
34.557110 2.568037 0.725864
34.847244 2.436757 -0.731728
34.754284 2.430256 -0.243227
34.604904 2.268125 0.242110
34.528324 2.263106 0.724817
34.827263 2.130127 -0.730890
34.724262 2.123827 -0.242878
34.663315 1.968326 0.242389
34.596664 1.964541 0.725864
34.924400 1.830310 -0.732566
34.821362 1.824910 -0.243437
34.679173 1.665760 0.242389
34.612492 1.662557 0.725864
34.939041 1.525472 -0.732566
34.845951 1.521407 -0.243506
34.742348 1.365031 0.242738
34.665642 1.362017 0.726702
34.990990 1.221912 -0.733404
34.897877 1.218661 -0.243786
34.752937 1.061798 0.242738
34.676208 1.059454 0.726702
34.990326 0.916254 -0.733194
34.947170 0.915124 -0.244065
34.800869 0.759358 0.243018
34.724117 0.757683 0.727540
35.046970 0.611747 -0.734241
34.953823 0.610121 -0.244065
34.886162 0.456685 0.243576
34.769394 0.455156 0.728377
35.090965 0.306234 -0.735079
34.997814 0.305421 -0.244344
34.888817 0.152232 0.243576
34.772041 0.151723 0.728377
35.092300 0.000000 -0.735079
35.039146 0.000000 -0.244623
34.928818 -0.152407 0.243855
34.852024 -0.152072 0.730053
35.160946 -0.306845 -0.736545
35.077808 -0.306119 -0.244903
31.756506 -0.415715 0.221725
31.560371 -0.413148 0.661152
31.868155 -0.556261 -0.667644
35.216908 -0.614713 -0.737801
31.774385 -0.554624 -0.221864
31.551722 -0.688461 0.220329
31.395638 -0.685055 0.657801
31.742153 -0.831198 -0.665131
31.658377 -0.829004 -0.221097
31.344610 -0.957664 0.218932
31.228575 -0.954119 0.654451
31.573824 -1.102582 -0.661780
31.410088 -1.096864 -0.219421
31.215155 -1.226447 0.218095
31.059217 -1.220320 0.651100
31.363234 -1.369348 -0.657592
31.279438 -1.365690 -0.218583
31.043451 -1.491124 0.216978
30.927549 -1.485557 0.648587
31.230282 -1.636710 -0.655079
31.146496 -1.632319 -0.217746
30.949389 -1.757434 0.216419
30.843536 -1.751423 0.647121
31.144955 -1.904907 -0.653613
31.051216 -1.899174 -0.217187
30.902937 -2.025486 0.216210
30.866983 -2.023129 0.647958
31.246828 -2.184991 -0.656126
31.033461 -2.170071 -0.217187
30.933947 -2.298789 0.216559
30.888035 -2.295377 0.648796
31.256472 -2.459938 -0.656754
31.142939 -2.451002 -0.218095
31.012363 -2.576929 0.217257
30.976427 -2.573942 0.651100
31.323452 -2.740447 -0.658639
31.190096 -2.728780 -0.218583
31.187851 -2.865761 0.218653
28.842142 -2.650221 0.606702
31.141947 -2.861543 0.655079
31.298346 -3.013688 -0.658639
31.274586 -3.011400 -0.219351
31.480038 -3.169873 0.220887
31.523638 -3.174263 0.663665
31.459772 -3.306555 -0.662618
31.565355 -3.317652 -0.221585
31.799088 -3.482566 0.223331
31.663689 -3.467738 0.667225
31.558855 -3.595677 -0.665341
31.435848 -3.581662 -0.220887
32.363312 -3.830451 0.227519
32.029362 -3.790925 0.675602
31.754511 -3.898964 -0.670157
30.827732 -3.785170 -0.216838
32.515018 -3.992342 -0.228706
35.443474 -4.508979 0.249440
29.426332 -3.743502 0.621362
31.707443 -4.033696 0.669529
35.317551 -4.492959 0.745760
31.084892 -4.092404 -0.656754
35.684189 -4.697912 -0.753927
30.971983 -4.077539 -0.218095
35.512688 -4.675334 -0.250069
35.491951 -4.830243 0.250069
35.405781 -4.818515 0.748482
30.721279 -4.317594 -0.649843
35.721035 -5.020264 -0.755603
31.479855 -4.424205 -0.221934
35.589367 -5.001760 -0.250906
35.517723 -5.149825 0.250557
31.820208 -4.613710 0.673508
35.441540 -5.138779 0.750157
32.116192 -4.799797 -0.680210
35.764858 -5.345094 -0.757487
31.855425 -4.760825 -0.224866
35.672932 -5.331356 -0.251814
30.154175 -4.641171 0.212998
35.550499 -5.471745 0.251116
29.693750 -4.570305 0.629320
31.867668 -4.904903 0.675393
35.494160 -5.463074 0.752252
31.500347 -4.989165 -0.668063
35.677353 -5.650738 -0.756650
31.654640 -5.013602 -0.223749
35.625050 -5.642454 -0.251814
30.763927 -5.010224 0.217606
35.511265 -5.783377 0.251186
31.655899 -5.155490 0.671833
35.533943 -5.787070 0.754137
30.370934 -5.082351 -0.645027
31.613382 -5.290266 -0.671414
35.794315 -5.989914 -0.760210
31.658997 -5.297899 -0.224098
35.653355 -5.966326 -0.252373
31.862251 -5.474936 0.225704
35.597416 -6.116755 0.252163
30.072575 -5.167413 0.639163
35.521503 -6.103711 0.754974
30.187584 -5.322886 -0.642095
31.536474 -5.560731 -0.670786
35.878525 -6.326352 -0.763142
31.769123 -5.601754 -0.225215
35.767345 -6.306748 -0.253559
32.147827 -5.813274 0.228078
35.690285 -6.453855 0.253210
35.594784 -6.436585 0.757697
30.189137 -5.595226 -0.643142
31.486748 -5.835724 -0.670786
35.939915 -6.661069 -0.765655
29.546089 -5.476044 -0.209787
35.809273 -6.636856 -0.254258
29.276308 -5.558281 0.208042
31.909212 -6.058153 0.226751
35.701378 -6.778118 0.253699
35.615837 -6.761878 0.759372
29.952690 -5.822213 -0.639163
32.739902 -6.363992 -0.698639
35.958931 -6.989708 -0.767330
29.330305 -5.701234 -0.208600
35.897232 -6.977715 -0.255305
29.295341 -5.827206 0.208530
31.560902 -6.277853 0.224657
35.778175 -7.116722 0.254676
30.044670 -5.976256 0.641676
35.702560 -7.101681 0.762514
30.135874 -6.131213 -0.644189
36.014133 -7.327158 -0.769843
29.779186 -6.058644 -0.212160
35.883968 -7.300676 -0.255654
35.802822 -7.446997 0.255305
31.567291 -6.566006 0.675393
35.707745 -7.427222 0.763979
29.856297 -6.346152 -0.639372
31.665474 -6.730704 -0.678116
36.036835 -7.659865 -0.771728
29.402401 -6.249673 -0.209857
35.975391 -7.646806 -0.256771
35.853737 -7.784609 0.256142
30.013956 -6.516669 0.643351
35.768585 -7.766121 0.766702
29.741215 -6.593469 -0.638116
31.341990 -6.948352 -0.672461
36.105270 -8.004346 -0.774660
27.774944 -6.157557 -0.198617
30.108234 -6.674835 -0.215302
35.946342 -7.969112 -0.257050
35.901474 -8.123674 0.256980
35.835968 -8.108852 0.769634
36.170425 -8.350601 -0.777592
27.768869 -6.410949 -0.198966
30.623705 -7.070039 -0.219421
36.060558 -8.325235 -0.258376
30.543898 -7.192133 0.219072
35.946018 -8.464164 0.257818
30.411430 -7.160941 0.654451
35.861160 -8.444182 0.771728
27.900896 -6.698412 -0.601047
30.088249 -7.223549 -0.648168
36.193394 -8.689265 -0.779686
30.298307 -7.273980 -0.217536
36.103214 -8.667615 -0.259214
35.987347 -8.806047 0.258656
30.493452 -7.461700 0.657592
35.902641 -8.785320 0.774241
30.101673 -7.505190 -0.649843
32.061241 -7.993765 -0.692147
36.203495 -9.026545 -0.781571
28.186403 -7.027660 -0.202806
30.214273 -7.533264 -0.217396
36.142635 -9.011371 -0.260052
30.326496 -7.701949 0.218444
35.996357 -9.141911 0.259284
30.533768 -7.754589 0.659896
35.902130 -9.117979 0.775917
30.112467 -7.787613 -0.651519
31.874109 -8.243205 -0.689634
36.268536 -9.379682 -0.784712
28.801691 -7.448624 -0.207692
30.137701 -7.794139 -0.217327
36.178795 -9.356473 -0.260890
28.024309 -7.378185 0.202317
30.954386 -8.149610 0.223470
36.040924 -9.488784 0.260192
30.522945 -8.036020 0.661152
35.975887 -9.471661 0.779267
26.479877 -7.095262 -0.574241
28.807247 -7.718879 -0.624712
30.043362 -8.050095 -0.651519
30.107174 -8.067193 -0.217606
36.182701 -9.695126 -0.261518
28.450886 -7.756601 0.205877
36.111111 -9.845018 0.261309
30.605988 -8.344150 0.664503
36.036549 -9.824691 0.782409
28.892939 -8.012721 -0.628063
36.311268 -10.070005 -0.789320
28.108416 -7.795154 -0.203643
29.997086 -8.318928 -0.217327
36.250893 -10.053263 -0.262635
28.333992 -7.991012 0.205528
30.768944 -8.677740 0.223191
36.148937 -10.195055 0.262216
28.694120 -8.092579 0.624503
30.252956 -8.532216 0.658430
36.074532 -10.174070 0.785131
26.688383 -7.652771 -0.581571
36.327724 -10.416807 -0.791623
27.702887 -7.943675 -0.201200
36.190620 -10.377494 -0.262844
27.936769 -8.142826 0.203155
36.202599 -10.552095 0.263263
27.508995 -8.018141 0.600210
28.670401 -8.356660 0.625550
30.743652 -8.960958 0.670786
36.407986 -10.784537 -0.795393
36.309620 -10.755399 -0.264380
28.525356 -8.585157 0.207972
36.233616 -10.905081 0.264171
28.242159 -8.499926 0.617801
30.779167 -9.263478 0.673299
36.188259 -10.891430 0.791623
36.465466 -11.148611 -0.798744
36.367382 -11.118625 -0.265497
28.449350 -8.833758 0.207972
36.289875 -11.268305 0.265288
27.603571 -8.571136 0.605445
30.792639 -9.561368 0.675393
36.254154 -11.257215 0.795184
36.481209 -11.502481 -0.801257
36.354805 -11.462626 -0.266126
28.066420 -8.984132 0.205738
36.342537 -11.633338 0.266405
28.451345 -9.107347 0.625759
36.221191 -11.594495 0.796650
26.985064 -8.767979 -0.594346
36.493546 -11.857471 -0.803770
27.161512 -8.825311 -0.199385
36.405556 -11.828882 -0.267243
27.835003 -9.178608 0.204621
36.391582 -12.000145 0.267522
28.560684 -9.417901 0.629948
36.441460 -12.016591 0.803770
27.011816 -9.038027 -0.596650
36.597263 -12.245274 -0.808377
27.092947 -9.065173 -0.199455
36.519054 -12.219105 -0.268848
27.697031 -9.401875 0.204202
36.503265 -12.391190 0.269128
28.183928 -9.567154 0.623456
36.354141 -12.340569 0.804189
27.064260 -9.318972 -0.599581
30.429567 -10.477740 -0.674137
36.640263 -12.616254 -0.811728
27.400461 -9.434735 -0.202317
36.524494 -12.576391 -0.269686
27.274067 -9.524530 0.201689
36.507034 -12.748827 0.269965
27.249872 -9.516082 0.604608
30.808308 -10.758742 0.683561
36.396088 -12.710083 0.807540
27.066727 -9.584830 -0.601466
30.336975 -10.742887 -0.674137
36.717258 -13.002263 -0.815917
27.515034 -9.743585 -0.203783
36.592449 -12.958067 -0.271013
27.114620 -9.735144 0.201130
36.544975 -13.120986 0.271082
30.797935 -11.057589 0.685445
36.406113 -13.071131 0.810262
27.367243 -9.960862 -0.610053
36.743317 -13.373474 -0.819058
27.100075 -9.863621 -0.201340
36.590740 -13.317940 -0.271850
27.056778 -9.981772 0.201340
36.513515 -13.470548 0.271711
30.803446 -11.363992 0.687749
36.440739 -13.443699 0.813613
27.382288 -10.237818 -0.612356
36.746956 -13.739123 -0.821781
27.340796 -10.222304 -0.203783
30.319340 -11.335937 -0.225983
36.688557 -13.717289 -0.273456
26.959291 -10.213962 0.201270
30.447260 -11.535435 0.227310
30.749851 -11.650077 0.688796
36.396828 -13.789525 0.815288
29.130655 -11.182211 -0.653613
36.747002 -14.105852 -0.824503
27.278555 -10.471256 -0.203992
36.688816 -14.083517 -0.274364
27.148727 -10.557563 0.203364
36.627018 -14.243467 0.274364
26.985029 -10.493903 0.606492
30.684288 -11.932467 0.689634
27.385487 -10.787430 -0.616545
29.171495 -11.490958 -0.656754
36.845757 -14.513929 -0.829529
36.731991 -14.469116 -0.275620
27.389927 -10.927472 0.205877
36.649933 -14.621840 0.275481
26.827423 -10.703056 0.605026
36.512783 -14.567122 0.823456
27.169798 -10.977311 -0.613822
28.847633 -11.655200 -0.651728
36.884556 -14.902328 -0.833299
27.777752 -11.222940 -0.209159
29.344654 -11.856009 -0.220957
36.789761 -14.864027 -0.277016
27.543415 -11.268309 0.207762
36.576469 -14.963829 0.275899
27.556551 -11.273683 0.623665
36.541580 -14.949554 0.827016
23.793917 -9.855763 -0.539477
28.476959 -11.795543 -0.645655
36.947075 -15.303980 -0.837697
29.240074 -12.111635 -0.220957
29.592709 -12.409252 0.224029
27.300383 -11.448000 0.620105
36.658669 -15.372255 0.832671
23.808237 -10.105997 -0.541780
27.047705 -11.481070 -0.615498
36.810093 -15.624957 -0.279181
23.336727 -10.026250 0.177324
36.778316 -15.801211 0.279460
23.763916 -10.209784 0.541780
27.226999 -11.697642 0.620733
29.936838 -12.861881 0.682513
23.526600 -10.229657 -0.537382
26.680595 -11.601053 -0.609424
37.086945 -16.125862 -0.847121
24.659145 -10.722101 -0.187726
36.919937 -16.053246 -0.281066
23.596155 -10.382557 0.179977
36.822083 -16.202105 0.280856
23.545799 -10.360399 0.538848
30.674511 -13.497108 0.701990
36.695942 -16.146601 0.839791
23.655638 -10.532168 -0.542409
37.109211 -16.522085 -0.850891
23.477547 -10.452877 -0.179418
37.025097 -16.484634 -0.282950
23.422596 -10.551110 0.179349
30.306232 -13.651962 0.232057
23.645920 -10.651711 0.543246
36.781528 -16.568871 0.845027
23.699293 -10.800389 -0.545550
26.719702 -12.176869 -0.615079
29.940258 -13.644562 -0.689215
23.421833 -10.673944 -0.179698
29.700413 -13.535257 -0.227868
37.016323 -16.869310 -0.283998
23.120762 -10.658817 0.177743
36.924202 -17.022289 0.283858
23.352320 -10.765567 0.538639
36.780811 -16.956186 0.848377
23.151085 -10.795528 -0.535079
26.965805 -12.574361 -0.623246
29.348871 -13.685603 -0.678325
23.599680 -11.004711 -0.181792
37.085213 -17.293118 -0.285673
23.397684 -11.035065 0.180605
23.022377 -10.858058 0.533194
28.900047 -13.630147 0.669320
23.317688 -11.121967 -0.541152
24.116491 -11.502976 -0.186539
37.158531 -17.723709 -0.287418
23.291489 -11.234481 0.180535
23.088839 -11.136733 0.536964
23.282646 -11.355705 -0.542618
28.467550 -13.884552 -0.663456
37.336700 -18.210327 -0.870158
23.439978 -11.432441 -0.182071
29.830248 -14.549184 -0.231708
37.254105 -18.170042 -0.289373
23.353996 -11.516917 0.181792
37.111691 -18.301460 0.288885
23.035608 -11.359904 0.538011
24.345823 -12.138380 -0.569843
28.291618 -14.105680 -0.662199
37.346367 -18.620213 -0.874137
23.070847 -11.502699 -0.179977
37.246262 -18.570301 -0.290560
22.948999 -11.567248 0.179418
24.842070 -12.521434 0.194219
26.851223 -13.534130 0.209927
22.667763 -11.425493 0.531728
24.944359 -12.572992 0.585131
24.880354 -12.677174 -0.584922
28.292160 -14.415576 -0.665131
37.431885 -19.072496 -0.880000
22.889400 -11.662732 -0.179349
25.045584 -12.761362 -0.196243
23.576160 -12.142520 0.185143
25.167461 -12.962094 0.197639
22.540529 -11.609136 0.531100
25.251438 -13.005345 0.594974
29.633331 -15.262168 0.698220
22.782310 -11.859720 -0.538011
28.032263 -14.592672 -0.661990
37.414780 -19.476902 -0.883561
23.070589 -12.009789 -0.181583
37.342247 -19.439142 -0.293911
22.628582 -11.905473 0.178511
24.770201 -13.032233 0.195405
22.385277 -11.777464 0.529843
24.933481 -13.118139 0.590157
22.386641 -11.903188 -0.531100
23.949114 -12.733970 -0.568168
37.455250 -19.915310 -0.888587
22.867785 -12.159018 -0.180815
24.359930 -12.952405 -0.192613
22.902601 -12.306011 0.181513
29.200817 -15.690165 0.231429
22.827681 -12.265755 0.542828
22.580647 -12.260291 -0.538220
22.998083 -12.486940 -0.182700
27.084484 -14.705674 -0.215162
28.965107 -15.726769 -0.230102
22.776806 -12.495784 0.181373
25.240349 -13.847329 0.200990
37.286282 -20.455954 0.296913
22.491875 -12.339465 0.537382
27.540712 -15.109353 0.658011
22.953732 -12.723461 -0.549739
22.678337 -12.570807 -0.181024
26.920139 -14.922076 -0.214883
28.940460 -16.041960 -0.231010
22.579647 -12.645209 0.180675
25.519886 -14.291823 0.204202
27.582273 -15.446815 0.662199
37.229961 -20.849781 0.893822
23.363926 -13.218673 -0.562304
25.487127 -14.419923 -0.613403
22.550367 -12.758384 -0.180884
25.518208 -14.437507 -0.204691
22.572618 -12.901315 0.181513
22.872021 -13.072437 0.551833
27.967230 -15.984590 0.674765
23.143782 -13.362069 -0.559791
25.472879 -14.706774 -0.616126
22.706633 -13.109680 -0.183049
22.554195 -13.153218 0.182281
27.357004 -15.954133 0.221097
37.506824 -21.873333 0.303126
25.399830 -14.812743 0.615917
37.326782 -21.768335 0.905131
23.319185 -13.736051 -0.566911
25.378029 -14.948801 -0.616964
37.653549 -22.179636 -0.915393
22.987705 -13.540793 -0.186260
28.105658 -16.555498 -0.227729
23.194815 -13.799464 0.188424
28.136280 -16.739328 0.228566
25.484404 -15.161627 0.621152
23.249849 -13.969918 -0.568168
28.271748 -16.987379 -0.690890
37.732800 -22.672153 -0.922095
37.594440 -22.589020 -0.306198
28.177208 -17.098351 0.230102
37.563911 -22.794342 0.306757
25.573353 -15.518291 0.626597
37.471115 -22.738031 0.918116
22.948040 -14.062576 -0.563770
24.439833 -14.976748 -0.600419
23.344719 -14.305662 -0.191147
25.715000 -15.758173 -0.210555
37.660198 -23.078199 -0.308362
25.424911 -15.733413 0.208740
37.576149 -23.252827 0.308502
25.521975 -15.793477 0.628691
37.509312 -23.211466 0.923980
23.112720 -14.442431 -0.570890
24.477779 -15.295414 -0.604608
27.954014 -17.467606 -0.690472
23.354675 -14.593621 -0.192264
25.551067 -15.966079 -0.210345
37.720261 -23.570234 -0.310526
25.498072 -16.088085 0.210485
27.443199 -17.315369 0.226542
25.171795 -15.882220 0.623456
37.558990 -23.697958 0.930262
23.019537 -14.665062 -0.571728
23.091496 -14.710905 -0.191147
24.120407 -15.366394 -0.199664
27.536060 -17.542404 -0.227938
25.255787 -16.245068 0.209647
27.375153 -17.608290 0.227240
37.652397 -24.218838 0.312551
26.781218 -17.226257 0.667016
37.661877 -24.224932 0.938011
24.567657 -15.954424 -0.613613
27.720367 -18.001818 -0.692356
25.268528 -16.409575 -0.210345
37.756027 -24.519053 -0.314296
26.727055 -17.523026 0.223121
37.707222 -24.721939 0.314785
26.654955 -17.475754 0.667644
37.683151 -24.706156 0.943875
24.677607 -16.333752 -0.619896
26.736853 -17.696737 -0.671623
25.182737 -16.668091 -0.210834
27.667658 -18.312822 -0.231638
27.038733 -18.066704 0.227031
37.764431 -25.233385 0.317089
26.285303 -17.563278 0.662199
27.623676 -18.457550 0.695917
27.004120 -18.214510 -0.682304
37.911861 -25.571875 -0.957906
24.878811 -16.780970 -0.209508
27.664310 -18.659813 -0.232965
37.844643 -25.526533 -0.318695
24.788822 -16.878109 0.209368
37.815559 -25.747698 0.319393
26.155828 -17.808868 0.662828
24.874912 -17.096054 -0.632252
37.959167 -26.088612 -0.964817
27.376804 -18.815557 -0.231917
37.917122 -26.059715 -0.321208
27.064390 -18.775236 0.229963
37.746395 -26.185608 0.962304
37.992130 -26.602375 -0.971519
26.924871 -18.852999 -0.229474
37.983154 -26.596090 -0.323721
26.572868 -18.779846 0.227170
27.740637 -19.605145 0.237153
37.899410 -26.784655 0.324000
26.649334 -18.833887 0.683561
37.802212 -26.715961 0.969634
26.461090 -18.874514 -0.680838
38.059692 -27.147715 -0.979268
37.985703 -27.094940 -0.325746
26.675787 -19.203819 0.229474
37.940159 -27.313005 0.326374
26.492079 -19.071568 0.683770
37.875965 -27.266792 0.977592
26.230667 -19.057695 -0.679163
38.112522 -27.690367 -0.986807
26.923429 -19.561016 -0.232336
38.006691 -27.613478 -0.327980
37.958424 -27.832268 0.328608
26.606834 -19.508940 0.691100
37.878460 -27.773634 0.983875
38.126606 -28.212204 -0.993508
38.053658 -28.158224 -0.330493
26.176325 -19.546789 0.228078
38.002541 -28.377844 0.331121
27.517033 -20.547943 0.719372
37.947067 -28.336420 0.992042
25.790270 -19.434362 -0.676440
38.198345 -28.784517 -1.001885
38.093987 -28.705877 -0.333006
25.996792 -19.768419 0.228008
38.040009 -28.926294 0.333634
27.495838 -20.908321 0.723561
37.976883 -28.878294 0.999372
25.437262 -19.518698 -0.671623
38.255039 -29.354124 -1.010053
25.109022 -19.266830 -0.220957
38.159367 -29.280710 -0.335799
25.823292 -19.994530 0.228008
38.102402 -29.502031 0.336427
27.502058 -21.294369 0.728587
38.039639 -29.453434 1.007749
25.297476 -19.764555 -0.672461
38.281044 -29.908430 -1.017592
38.154552 -29.809603 -0.338033
25.475060 -20.082918 0.226472
38.149765 -30.074852 0.339150
27.511471 -21.688293 0.733822
38.063816 -30.007092 1.015288
25.303997 -20.127708 -0.677278
38.362862 -30.515198 -1.026807
38.174694 -30.365524 -0.340546
25.571789 -20.523531 0.228916
38.166618 -30.631948 0.341663
27.500494 -22.071480 0.738639
38.112392 -30.588428 1.023665
38.468060 -31.150820 -1.036859
25.963814 -21.025082 -0.233244
37.527466 -30.389141 -0.337125
25.763416 -21.049593 0.232267
38.114677 -31.140997 0.343618
27.368776 -22.361229 0.740315
38.207897 -31.217159 1.033508
26.160051 -21.564682 -0.710157
28.474417 -23.472498 -0.772985
25.408978 -20.945545 -0.229893
28.217623 -23.260813 -0.255305
27.085638 -22.526888 0.245950
38.325832 -31.875257 0.348016
25.489204 -21.199146 0.694451
27.272860 -22.884647 -0.745760
27.002409 -22.657711 -0.246089
24.903669 -21.082512 0.227799
38.397289 -32.505707 0.351227
25.204041 -21.336794 0.691728
38.298237 -32.421852 1.051100
26.965685 -23.030870 -0.742828
29.094355 -24.848927 -0.801466
38.696175 -33.049656 -1.065969
25.670679 -21.924831 -0.235687
26.856884 -22.937946 -0.246578
28.240789 -24.119913 -0.259284
25.445988 -21.925665 0.234501
38.430336 -33.113697 0.354159
38.422844 -33.107239 1.062409
29.110310 -25.305206 -0.807959
28.293373 -24.595053 -0.261727
28.291042 -24.810579 0.262705
38.425594 -33.698345 0.356812
26.887411 -23.579628 0.749110
38.440655 -33.711552 1.070995
38.824837 -34.349316 -1.085864
28.332304 -25.066305 -0.264101
35.462189 -31.374294 -0.330563
38.652664 -34.196987 -0.360303
38.540386 -34.398609 0.360652
38.458282 -34.325329 1.079791
39.013977 -35.128342 -1.099687
34.934387 -31.455063 -0.328189
38.709469 -34.854164 -0.363654
38.601433 -35.063076 0.364073
38.475502 -34.948685 1.088796
39.089241 -35.818691 -1.110577
34.422642 -31.542538 -0.325955
38.787216 -35.541935 -0.367284
38.646450 -35.724411 0.367424
38.528793 -35.615650 1.099058
39.184650 -36.540276 -1.122304
33.882790 -31.596214 -0.323442
38.855877 -36.233688 -0.370914
38.799377 -36.498810 0.371892
38.609760 -36.320435 1.110367
39.212391 -37.211170 -1.132357
33.337395 -31.636005 -0.320859
39.031445 -37.039455 -0.375662
38.855011 -37.195580 0.375522
29.545429 -28.283594 0.856754
38.674107 -37.022404 1.121467
39.317680 -37.968643 -1.144922
39.195869 -37.851013 -0.380409
38.937225 -37.930965 0.379501
38.743435 -37.742184 1.132985
39.369923 -38.688713 -1.156231
39.234951 -38.556080 -0.384039
35.614929 -35.305477 0.350110
35.565384 -35.256363 1.049006
31.826965 -31.826965 -0.942828
39.349533 -39.349533 -0.388507
34.573322 -34.876354 0.342850
35.502716 -35.813892 1.056336
31.295742 -31.846779 -0.935288
35.268894 -35.889889 -0.351297
34.295567 -35.205383 0.343129
35.230583 -36.165203 0.352484
33.723793 -34.618443 1.012357
39.600735 -41.007759 -1.194137
34.968250 -36.210682 -0.351437
35.307796 -36.883003 0.356463
33.835228 -35.344738 1.024922
35.146526 -37.036713 -0.356463
33.347042 -35.448952 0.339778
33.278889 -35.376503 1.017383
39.806332 -42.687065 -1.222618
34.924286 -37.451710 -0.357510
33.735786 -36.495167 1.041048
39.959152 -43.607761 -1.238954
34.325901 -37.460148 -0.354718
34.652943 -38.149914 0.359814
35.717049 -39.667801 -1.118116
33.415569 -37.111748 -0.348644
34.238800 -38.361336 0.358976
34.005775 -38.100254 1.069739
33.753086 -38.150925 -1.067016
33.461498 -37.821342 -0.352554
32.926941 -37.878113 -1.051309
33.071129 -38.043983 -0.351925
32.787323 -38.051563 0.350669
33.224712 -38.559174 1.066179
32.536705 -38.095585 -1.049425
31.783213 -37.213360 -0.341663
32.363560 -38.229382 0.349691
25.135170 -29.690863 0.814870
31.412266 -37.435680 -0.341174
24.504322 -29.463243 0.802723
24.592657 -30.099909 0.271362
24.170368 -29.583054 0.800210
23.754845 -29.597921 0.794974
23.941301 -30.369396 0.810053
23.014282 -30.265318 0.796440
0.128507 -0.178507 0.004607
0.159595 -0.230056 0.001955
0.136769 -0.197152 0.005026
0.140670 -0.206602 0.005236
0.155556 -0.232806 0.001955
0.166635 -0.249386 0.006283
0.148007 -0.225748 0.005654
0.129831 -0.201844 0.001676
0.140623 -0.218622 0.005445
0.149408 -0.236798 0.001955
0.138709 -0.219841 0.005445
0.147336 -0.238093 0.001955
0.115742 -0.187036 0.004607
0.129690 -0.213723 0.001745
0.119292 -0.196587 0.004817
0.138046 -0.232034 0.001885
0.127795 -0.214804 0.005236
0.130953 -0.224548 0.005445