# This PCD file was generated using the MATLAB® pcwrite function
# from Computer Vision System Toolbox®.
# .PCD v.7 - Point Cloud Data file format
VERSION .7
FIELDS x y z
SIZE 4 4 4
TYPE F F F
COUNT 1 1 1
WIDTH 929
HEIGHT 1
VIEWPOINT 0 0 0 1 0 0 0
POINTS 929
DATA ascii
30.301359 32.494232 -0.930681
30.170872 32.354298 -0.308851
30.115789 31.735420 -0.916440
30.224913 31.850412 -0.306547
30.301298 31.377913 -0.913718
30.265528 31.340872 -0.304173
30.265633 30.798531 -0.904503
30.348631 30.882992 -0.302289
29.734388 29.734388 -0.880838
30.213936 30.213936 -0.298309
29.686104 29.172453 -0.871833
29.677628 29.164124 -0.290490
29.917973 28.891451 -0.871205
29.621691 28.605335 -0.287488
30.168957 28.629271 -0.871205
29.841175 28.318216 -0.287209
30.329899 28.283087 -0.868692
30.233425 28.193125 -0.288605
30.251226 27.720140 -0.859477
30.153908 27.630966 -0.285534
30.343378 27.321301 -0.855288
30.245256 27.232952 -0.284137
30.311079 26.816977 -0.847749
30.152222 26.676434 -0.281066
30.272308 26.315315 -0.840210
30.293304 26.333569 -0.280228
30.379158 25.946253 -0.836859
30.369875 25.938322 -0.278832
30.481882 25.577335 -0.833508
30.411222 25.518045 -0.277156
30.557346 25.189533 -0.829529
30.547873 25.181723 -0.276388
30.589527 24.770910 -0.824503
30.579948 24.763153 -0.274713
30.616741 24.353655 -0.819477
30.544453 24.296154 -0.272479
30.544477 23.863960 -0.811938
30.377075 23.733171 -0.269128
30.489815 23.395657 -0.805027
30.265692 23.223682 -0.266335
30.317539 22.845905 -0.795184
30.115810 22.693892 -0.263263
30.419310 22.509106 -0.792671
30.184090 22.335051 -0.262146
30.080744 21.854939 -0.778849
30.410208 22.094309 -0.262426
29.757536 21.225843 -0.765655
30.406473 21.688726 -0.260750
29.769646 20.844931 -0.761257
29.570667 20.705605 -0.252023
29.760910 20.454107 -0.756440
29.882088 20.537390 -0.253141
30.443872 20.534651 -0.769215
30.433228 20.527472 -0.256282
30.647223 20.477819 0.257329
30.516556 20.390511 0.768796
30.763638 20.362007 -0.772775
30.577848 20.239037 -0.256003
30.565514 20.039629 0.255165
30.567917 20.041204 0.765655
30.596376 19.869520 -0.764189
30.694595 19.933304 -0.255514
30.579433 19.669352 0.253839
30.539837 19.643883 0.760629
30.633692 19.515814 -0.760838
30.597496 19.492754 -0.253280
30.580772 19.295031 0.252442
30.549444 19.275265 0.756650
30.667171 19.162975 -0.757487
30.698593 19.182610 -0.252722
30.679960 18.985336 0.251884
30.648474 18.965851 0.754974
30.696838 18.811047 -0.754137
30.719877 18.825165 -0.251535
30.707685 18.633881 0.250767
30.778625 18.676928 0.754137
30.585592 18.377678 -0.747435
30.711555 18.453365 -0.250139
30.808969 18.329411 0.250278
30.768595 18.305389 0.749948
30.675884 18.069477 -0.745760
30.776644 18.128828 -0.249371
30.794985 17.959105 0.248882
30.754436 17.935457 0.745760
30.806425 17.786098 -0.745131
30.864393 17.819565 -0.248812
30.768217 17.585484 0.247416
30.814299 17.611822 0.743456
30.847343 17.452587 -0.742409
30.844654 17.451065 -0.247416
30.754734 17.223478 0.246089
30.757462 17.225006 0.738430
30.788607 17.066402 -0.737383
30.785864 17.064882 -0.245740
30.789894 16.891914 0.245182
30.801422 16.898239 0.735917
30.910006 16.782764 -0.736754
30.828154 16.738321 -0.244903
30.803999 16.551586 0.244135
30.806801 16.553091 0.732566
30.772802 16.362190 -0.730053
30.787632 16.370075 -0.243437
30.734871 16.170399 0.242459
30.843903 16.227762 0.730053
30.772526 16.019163 -0.726702
30.796267 16.031521 -0.242389
30.768133 15.846630 0.241621
30.699917 15.811497 0.723351
30.768616 15.677393 -0.723351
30.685516 15.635052 -0.240435
30.655220 15.451503 0.239667
30.622459 15.434991 0.718325
30.904253 15.408293 -0.723351
30.713398 15.313136 -0.239597
30.717142 15.148019 0.239108
30.648388 15.114112 0.715812
30.741001 14.993388 -0.716440
30.845860 15.044531 -0.239597
30.812136 14.862010 0.238829
30.743093 14.828709 0.714974
30.834576 14.707338 -0.715603
30.822536 14.701595 -0.238410
30.795948 14.524312 0.237712
28.990473 13.672794 0.671414
30.808029 14.530009 0.713508
30.825829 14.374320 -0.712461
30.768400 14.347540 -0.237014
29.232416 13.476329 0.224727
30.776222 14.188033 0.236595
28.972492 13.356503 0.668273
30.795433 14.034287 -0.708901
30.783239 14.028730 -0.236176
28.965975 13.048220 0.221795
29.087946 13.103165 0.668273
30.816263 13.720284 -0.706597
29.113985 12.962381 -0.222493
30.749191 13.690422 -0.234989
29.151960 12.827169 0.222353
29.677042 13.058210 0.679163
29.293644 12.737239 -0.669110
30.852304 13.414964 -0.704712
29.079266 12.644025 -0.221376
29.648670 12.738073 0.225285
29.642889 12.735591 0.675812
29.090776 12.348302 -0.661990
29.455437 12.503092 -0.223400
30.155237 12.645141 0.228287
29.900419 12.538286 0.679163
29.271320 12.124578 -0.663665
30.062307 12.452215 -0.227170
30.107100 12.317140 0.227100
29.962429 12.257954 0.678116
29.811693 12.044705 -0.673508
30.179098 12.193148 -0.227240
30.176287 12.039118 0.226821
29.993969 11.966380 0.676440
30.222637 11.905013 -0.680419
30.293657 11.932989 -0.227310
29.981962 11.659348 0.224587
30.097252 11.704181 0.676440
30.222704 11.601409 -0.678116
30.200590 11.592920 -0.225844
30.194780 11.439779 0.225425
30.048655 11.384417 0.673089
30.201054 11.291711 -0.675393
30.272507 11.318427 -0.225634
30.180880 11.134315 0.224587
30.071817 11.094079 0.671414
30.025990 10.928566 -0.669320
30.210382 10.995680 -0.224448
30.098076 10.806314 0.223261
30.016930 10.777179 0.668063
30.120214 10.666127 -0.669320
30.154366 10.678221 -0.223331
29.992977 10.474016 0.221795
30.109835 10.514825 0.668063
30.183786 10.393111 -0.668691
30.019484 10.336537 -0.221655
30.121113 10.224740 0.222074
30.077372 10.209892 0.665341
30.083710 10.065868 -0.664503
30.108541 10.074178 -0.221655
30.123722 9.933314 0.221446
30.089365 9.921985 0.663665
30.094337 9.778243 -0.662828
30.166777 9.801780 -0.221446
30.094975 9.633477 0.220608
30.060541 9.622455 0.661152
30.188057 9.518258 -0.663037
30.127184 9.499064 -0.220538
30.149244 9.361589 0.220398
30.105175 9.347905 0.660315
30.145676 9.216458 -0.660315
30.103741 9.203637 -0.219770
30.105310 9.060670 0.219491
30.070721 9.050260 0.657801
30.148268 8.930324 -0.658639
30.134970 8.926385 -0.219421
30.106430 8.775224 0.218932
30.071766 8.765121 0.656126
30.148167 8.644848 -0.656964
30.134819 8.641021 -0.218863
30.104866 8.490450 0.218374
30.070129 8.480654 0.654451
30.193556 8.373414 -0.656335
30.180170 8.369702 -0.218653
30.071688 8.198483 0.217606
30.075472 8.199514 0.652985
30.110962 8.068208 -0.652985
30.058880 8.054253 -0.217257
30.055056 7.912836 0.216978
30.058865 7.913838 0.651100
30.141506 7.795124 -0.652147
30.128021 7.791636 -0.217257
30.055119 7.633028 0.216489
30.049259 7.631539 0.649424
30.121075 7.510027 -0.650262
30.107542 7.506653 -0.216629
30.042877 7.351446 0.215930
30.046732 7.352389 0.647958
30.029919 7.209546 -0.646911
30.064945 7.217955 -0.215861
30.057219 7.077536 0.215581
30.022163 7.069281 0.646074
30.091690 6.947214 -0.646911
30.078072 6.944070 -0.215512
30.088577 6.808350 0.215372
30.043707 6.798197 0.645236
30.112125 6.675698 -0.646074
30.137524 6.681328 -0.215512
30.058897 6.526426 0.214744
30.062807 6.527275 0.644398
30.091002 6.396039 -0.644398
30.116430 6.401445 -0.214953
30.075544 6.255722 0.214464
30.079470 6.256538 0.643561
30.028105 6.109287 -0.641885
30.063356 6.116459 -0.214185
30.050529 5.977422 0.213906
30.103504 5.987959 0.642932
30.158787 5.862275 -0.643561
30.145037 5.859601 -0.214395
30.101547 5.714957 0.213906
30.066212 5.708249 0.641047
30.130154 5.584294 -0.641885
30.116364 5.581738 -0.213836
30.110912 5.444940 0.213627
30.114880 5.445657 0.641047
30.128508 5.312469 -0.640838
30.124535 5.311769 -0.213557
30.117859 5.175195 0.213347
30.131695 5.177572 0.640419
30.134277 5.042748 -0.640000
30.140154 5.043732 -0.213347
30.082916 4.899314 0.212789
30.136259 4.908001 0.639582
30.078388 4.763949 -0.637906
30.133636 4.772699 -0.212998
30.094875 4.632044 0.212579
30.128532 4.637225 0.638534
30.148479 4.505721 -0.638534
30.144468 4.505121 -0.212789
30.134150 4.369244 0.212579
30.098593 4.364088 0.637068
30.147049 4.236891 -0.637697
30.182634 4.241893 -0.212789
30.081955 4.093975 0.211951
30.085997 4.094524 0.636021
30.113489 3.964516 -0.636231
30.139189 3.967900 -0.212230
30.116537 3.831307 0.211951
30.130501 3.833084 0.636231
30.176708 3.705234 -0.636859
30.212368 3.709612 -0.212510
30.148823 3.568348 0.211951
30.162804 3.570003 0.636231
30.207893 3.441755 -0.636859
30.193913 3.440162 -0.212160
30.139053 3.300763 0.211672
30.153055 3.302297 0.635393
30.206949 3.174878 -0.636231
30.183004 3.172362 -0.211881
30.166710 3.037628 0.211672
30.180725 3.039039 0.635393
30.233505 2.911155 -0.636231
30.209538 2.908848 -0.211881
30.202028 2.775177 0.211742
30.206095 2.775550 0.635393
30.178080 2.640240 -0.634555
30.203888 2.642498 -0.211672
30.215130 2.510684 0.211672
30.229166 2.511850 0.635393
30.229872 2.379143 -0.635184
30.225798 2.378822 -0.211672
30.205973 2.244691 0.211462
30.210054 2.244995 0.634555
30.219563 2.113158 -0.634555
30.245405 2.114965 -0.211672
30.184496 1.978396 0.211183
30.228495 1.981280 0.634555
30.236851 1.849365 -0.634555
30.252729 1.850336 -0.211602
30.200611 1.714915 0.211183
30.204706 1.715147 0.633718
30.251839 1.585432 -0.634555
30.267723 1.586264 -0.211602
30.254381 1.453222 0.211462
30.258469 1.453418 0.634555
30.264523 1.321378 -0.634555
30.280415 1.322071 -0.211602
30.265909 1.189151 0.211462
30.270000 1.189312 0.634555
30.304876 1.058270 -0.635184
30.290798 1.057778 -0.211602
30.235155 0.923768 0.211183
30.169300 0.921755 0.632252
30.282974 0.792988 -0.634555
30.298876 0.793404 -0.211602
30.172083 0.658357 0.210694
30.126219 0.657356 0.631205
30.318729 0.529215 -0.635184
30.264652 0.528271 -0.211323
30.166679 0.394903 0.210625
30.130808 0.394434 0.631205
30.242214 0.263920 -0.633508
30.128119 0.262924 -0.210345
30.128979 0.131463 0.210345
30.133102 0.131481 0.631205
30.193377 0.000000 -0.632461
30.199265 0.000000 -0.210834
30.088980 -0.131289 0.210066
30.133102 -0.131481 0.631205
30.212221 -0.263658 -0.632880
30.198114 -0.263535 -0.210834
30.126684 -0.394380 0.210345
30.130808 -0.394434 0.631205
30.168785 -0.526598 -0.632042
30.154671 -0.526352 -0.210555
30.122095 -0.657266 0.210345
30.126219 -0.657356 0.631205
30.163042 -0.789847 -0.632042
30.148930 -0.789478 -0.210555
30.075233 -0.918881 0.210066
30.119335 -0.920229 0.631205
30.155001 -1.053036 -0.632042
30.180868 -1.053939 -0.210834
30.096045 -1.182477 0.210276
29.980288 -1.177929 0.628482
30.144663 -1.316144 -0.632042
30.160530 -1.316837 -0.210764
30.134521 -1.447465 0.210625
30.228510 -1.451979 0.633927
30.132029 -1.579153 -0.632042
30.137905 -1.579461 -0.210694
30.200611 -1.714915 0.211183
30.074944 -1.707779 0.630995
30.147039 -1.843872 -0.632671
30.103012 -1.841179 -0.210555
29.675602 -1.945042 0.207623
29.719698 -1.947932 0.623875
30.089907 -2.104091 -0.631833
30.375086 -2.124033 -0.212579
30.604862 -2.274334 0.214255
30.529104 -2.268704 0.641257
30.379375 -2.390909 -0.638325
30.654461 -2.412558 -0.214674
30.543989 -2.538010 0.213976
30.547997 -2.538343 0.642095
30.646189 -2.681194 -0.644398
30.562508 -2.673873 -0.214185
30.560509 -2.808116 0.214255
30.564507 -2.808484 0.642932
30.591768 -2.945652 -0.643770
30.567873 -2.943351 -0.214395
30.534840 -3.074697 0.214255
30.538834 -3.075099 0.642932
30.564898 -3.212500 -0.643770
30.550968 -3.211036 -0.214464
30.546606 -3.345397 0.214534
30.510836 -3.341480 0.642932
30.605236 -3.487026 -0.645236
30.591331 -3.485442 -0.214953
30.555971 -3.616538 0.214813
30.559944 -3.617008 0.644608
30.623257 -3.760063 -0.646283
30.609377 -3.758359 -0.215302
30.562927 -3.888095 0.215093
30.527216 -3.883552 0.644608
30.589277 -4.027155 -0.646283
30.615070 -4.030550 -0.215581
30.567469 -4.160050 0.215372
30.571415 -4.160587 0.646283
30.632174 -4.305071 -0.647958
30.618343 -4.303127 -0.215861
30.569586 -4.432379 0.215651
30.573521 -4.432950 0.647121
30.593439 -4.572220 -0.647958
30.609295 -4.574590 -0.216070
30.608810 -4.711146 0.216210
30.573198 -4.705665 0.647958
30.631372 -4.851533 -0.649634
30.607716 -4.847786 -0.216349
30.566532 -4.978076 0.216210
30.570442 -4.978713 0.648796
30.617451 -5.123604 -0.650262
30.603697 -5.121303 -0.216629
30.571203 -5.253094 0.216559
30.565245 -5.252069 0.649634
30.601112 -5.395802 -0.650890
30.597231 -5.395117 -0.216908
30.632441 -5.539248 0.217327
30.596954 -5.532831 0.651309
30.611843 -5.673570 -0.652147
30.627644 -5.676498 -0.217466
30.582935 -5.806352 0.217327
30.586796 -5.807085 0.652147
30.639679 -5.955750 -0.653822
30.655470 -5.958820 -0.218025
30.609562 -6.088621 0.217885
30.574179 -6.081582 0.652985
30.625729 -6.230875 -0.654660
30.641499 -6.234083 -0.218304
30.584635 -6.361613 0.218095
30.598249 -6.364445 0.654660
30.687540 -6.522838 -0.657173
30.673962 -6.519952 -0.218932
30.615904 -6.647365 0.218723
30.580626 -6.639705 0.655498
30.668493 -6.799041 -0.658011
30.654947 -6.796038 -0.219212
30.546978 -6.912075 0.218653
30.560524 -6.915141 0.656335
30.646959 -7.075408 -0.658849
30.633448 -7.072289 -0.219491
30.612032 -7.208177 0.219561
30.576868 -7.199897 0.658011
30.622934 -7.351916 -0.659686
30.638630 -7.355684 -0.219980
30.625669 -7.494053 0.220119
30.629410 -7.494969 0.660524
30.674023 -7.647892 -0.662199
30.660597 -7.644546 -0.220608
30.636642 -7.780716 0.220678
30.640360 -7.781660 0.662199
30.683550 -7.935306 -0.663875
30.670170 -7.931845 -0.221166
30.644939 -8.068139 0.221236
30.609961 -8.058929 0.663037
30.680733 -8.220878 -0.665341
30.677057 -8.219893 -0.221725
30.611956 -8.345778 0.221515
30.605988 -8.344150 0.664503
30.694532 -8.512347 -0.667225
30.681246 -8.508662 -0.222283
30.614956 -8.634311 0.222074
30.580120 -8.624486 0.665550
30.657522 -8.790903 -0.668063
30.644276 -8.787105 -0.222563
30.615244 -8.923530 0.222632
30.618874 -8.924588 0.668063
30.608400 -9.066621 -0.668691
30.595192 -9.062709 -0.222772
30.689415 -9.236465 0.223749
30.654711 -9.226021 0.670576
30.652407 -9.371381 -0.671414
30.639257 -9.367361 -0.223680
30.645844 -9.515787 0.224029
30.649416 -9.516897 0.672252
30.722021 -9.686616 -0.674765
30.670790 -9.670463 -0.224517
30.675920 -9.819440 0.224866
30.641375 -9.808381 0.673927
30.712389 -9.979060 -0.676440
30.661314 -9.962465 -0.225076
30.665037 -10.111813 0.225425
30.668554 -10.112972 0.676440
30.699986 -10.272072 -0.678116
30.649075 -10.255036 -0.225634
30.651381 -10.404742 0.225983
30.654873 -10.405928 0.678116
30.646990 -10.552605 -0.678953
30.671875 -10.561173 -0.226472
30.672705 -10.711388 0.226821
28.080488 -9.806146 0.623037
30.647848 -10.702707 0.680000
30.742222 -10.886392 -0.683142
30.729364 -10.881839 -0.227589
27.942835 -10.032503 0.207274
30.672178 -11.012438 0.227519
30.656790 -11.006912 0.682304
30.646051 -11.154250 -0.683142
28.227678 -10.274035 -0.209717
30.652027 -11.156425 -0.227729
30.668728 -11.314291 0.228217
30.662748 -11.312085 0.684608
28.403036 -10.619460 -0.635184
30.725475 -11.487784 -0.687121
27.743555 -10.372890 -0.206785
30.712732 -11.483020 -0.228916
28.006617 -10.610758 0.209089
30.699741 -11.631091 0.229195
27.870266 -10.559099 0.624294
27.665255 -10.619697 -0.620733
30.661390 -11.769805 -0.687958
28.053408 -10.768695 -0.209787
30.648699 -11.764933 -0.229195
27.931595 -10.862003 0.209228
27.777061 -10.801908 0.624294
28.138958 -11.084230 -0.633508
28.051407 -11.049743 -0.210485
27.835745 -11.105336 0.209228
27.728170 -11.062418 0.625341
28.115318 -11.359326 -0.635184
27.953913 -11.294113 -0.210485
27.691498 -11.328891 0.208879
27.584311 -11.285040 0.624294
27.719543 -11.481812 -0.628482
27.780380 -11.507010 -0.209927
27.563915 -11.558509 0.208670
27.530882 -11.544657 0.625341
27.240969 -11.563105 -0.619896
27.678905 -11.748999 -0.209927
27.489563 -11.810449 0.208879
27.419903 -11.780519 0.625131
27.304060 -11.872143 -0.623665
27.529472 -11.970156 -0.209577
27.431217 -12.070024 0.209228
27.316055 -12.019352 0.625131
27.400352 -12.199423 -0.628273
27.396561 -12.197735 -0.209368
27.324842 -12.308944 0.209228
27.246590 -12.273694 0.625969
27.274656 -12.429777 -0.627854
30.759043 -14.017704 -0.708063
25.787674 -11.752120 -0.197849
27.316372 -12.448788 -0.209577
25.890532 -11.935699 0.199036
27.170982 -12.525994 0.208879
26.357615 -12.151027 0.607958
25.189831 -11.746211 -0.582199
30.798645 -14.361645 -0.711833
26.318537 -12.272535 -0.202736
27.060638 -12.762626 0.208879
27.028234 -12.747343 0.625969
25.510490 -12.167879 -0.592042
28.181557 -13.441913 -0.654032
30.762384 -14.672905 -0.713927
25.659874 -12.239132 -0.198477
27.780897 -13.250809 -0.214883
25.633247 -12.364011 0.198687
27.272478 -13.154682 0.211393
26.960991 -13.004438 0.627016
25.556097 -12.464541 -0.595602
30.732016 -14.989005 -0.716231
25.543104 -12.458204 -0.198407
28.329298 -13.817122 -0.220049
30.755983 -15.000695 -0.238899
27.551260 -13.586778 0.214464
26.523678 -13.080030 0.619477
25.070560 -12.499721 -0.586807
30.778990 -15.345839 -0.720419
25.907719 -12.917112 -0.202107
30.767094 -15.339907 -0.240016
26.270800 -13.241573 0.205389
27.797756 -14.011223 0.217327
30.735586 -15.492011 0.240295
27.140606 -13.679992 0.636650
25.076332 -12.777030 -0.589529
27.143015 -13.830057 -0.638116
30.750799 -15.668315 -0.722932
25.945478 -13.219881 -0.203294
30.774616 -15.680449 -0.241133
25.638630 -13.204762 0.201340
30.714794 -15.819159 0.241203
26.709106 -13.756094 0.629320
24.937275 -12.981524 -0.588901
26.631094 -13.863270 -0.628901
30.745920 -16.005314 -0.726074
25.900085 -13.482731 -0.203853
30.707567 -15.985348 -0.241691
25.841009 -13.595613 0.203853
30.752571 -16.179710 0.242599
26.375696 -13.876925 0.624294
26.888685 -14.296968 -0.637906
30.781630 -16.366882 -0.730262
25.419441 -13.515757 -0.200990
27.282415 -14.506318 -0.215721
30.814119 -16.384159 -0.243646
25.809469 -13.867929 0.204551
30.768764 -16.532654 0.243855
27.786007 -14.929960 0.660733
30.789186 -16.543627 0.732147
25.163801 -13.662829 -0.599791
26.912264 -14.612167 -0.641466
30.813356 -16.730288 -0.734451
25.871746 -14.047212 -0.205528
30.828154 -16.738321 -0.244903
26.152122 -14.347546 0.208251
30.789894 -16.891914 0.245182
26.138258 -14.339939 0.624503
24.964916 -13.838279 -0.597906
26.783726 -14.846462 -0.641466
30.779861 -17.061556 -0.737173
25.345861 -14.049440 -0.202317
30.777117 -17.060036 -0.245671
28.154760 -15.767424 0.225285
30.754734 -17.223478 0.246089
27.198460 -15.231869 0.652985
24.999836 -14.144226 -0.601676
27.314474 -15.453786 -0.657383
28.619720 -16.192259 -0.688796
25.561724 -14.462128 -0.205040
27.389427 -15.496192 -0.219700
30.783731 -17.416597 -0.246927
26.956917 -15.407147 0.216768
30.785580 -17.595407 0.247555
27.064503 -15.468637 0.652985
24.589727 -14.196886 -0.594765
30.789110 -17.776100 -0.744712
25.555786 -14.754641 -0.206017
27.435017 -15.839614 -0.221166
27.089222 -15.797967 0.218932
30.769072 -17.943993 0.248672
26.893938 -15.684081 0.652147
27.023378 -15.917987 -0.656964
30.839560 -18.165888 -0.749739
25.615610 -15.088748 -0.207553
27.097576 -15.961693 -0.219561
30.759411 -18.118677 -0.249231
25.489372 -15.164583 0.207064
27.044861 -16.090002 0.219700
30.783188 -18.314072 0.250069
26.790415 -15.938622 0.652985
30.820147 -18.336061 0.751205
24.955238 -14.994619 -0.609843
26.832022 -16.122305 -0.655707
30.816977 -18.516706 -0.753089
25.517248 -15.332310 -0.207832
26.871540 -16.146049 -0.218863
27.951544 -16.794983 -0.227659
26.911970 -16.330584 0.219770
30.793175 -18.685757 0.251465
26.829798 -16.280722 0.657383
24.661470 -15.112568 -0.605864
30.850281 -18.905075 -0.757906
27.582237 -16.902416 -0.225844
30.813665 -18.882637 -0.252303
25.441919 -15.743937 0.208879
30.764994 -19.037956 0.252582
25.351942 -15.688258 0.624503
27.018267 -16.719410 0.665550
30.767498 -19.039505 0.757906
24.901711 -15.560315 -0.615079
25.601948 -15.997872 -0.210764
30.825796 -19.262096 -0.253769
25.328932 -15.981365 0.209089
30.809114 -19.439102 0.254327
26.617672 -16.794500 0.659267
30.811563 -19.440649 0.763142
25.422676 -16.196030 -0.631414
30.869789 -19.666225 -0.766702
25.444500 -16.209934 -0.210625
27.080639 -17.252270 -0.224168
30.850508 -19.653940 -0.255374
27.038746 -17.391905 0.224448
30.747637 -19.777544 0.255235
26.528961 -17.064001 0.660733
28.143402 -18.102444 0.700943
30.750051 -19.779099 0.765864
25.389376 -16.488052 -0.634136
26.890266 -17.462744 -0.671623
30.856308 -20.038321 -0.770681
25.369167 -16.474930 -0.211183
26.820030 -17.417131 -0.223261
30.845552 -20.031336 -0.256771
30.816393 -20.204113 0.257259
25.292109 -16.582233 0.633508
26.571344 -17.420937 0.665550
30.751860 -20.161802 0.770262
24.977739 -16.532406 -0.627435
26.853571 -17.773991 -0.674555
30.813660 -20.395117 -0.774032
27.008904 -17.876802 -0.226123
30.869701 -20.432209 -0.258446
25.001682 -16.705589 0.209927
30.830141 -20.600042 0.258865
24.955244 -16.674561 0.628691
30.815819 -20.590471 0.776335
24.873960 -16.777699 -0.628482
26.680866 -17.996471 -0.674137
24.911972 -16.803337 -0.209787
30.831156 -20.795877 -0.259633
24.863214 -16.928761 0.209996
30.822781 -20.986485 0.260331
23.494793 -15.997035 0.595393
24.907951 -16.959221 0.631205
24.858435 -17.084728 -0.631833
30.881475 -21.224251 -0.784922
25.250610 -17.354263 -0.213906
30.862774 -21.211397 -0.261448
23.523178 -16.318609 0.199873
24.722754 -17.150785 0.210066
30.843874 -21.397158 0.262076
23.502163 -16.304031 0.599163
24.831244 -17.387024 -0.634974
30.916208 -21.647762 -0.790576
23.607388 -16.530069 -0.201200
24.967146 -17.482183 -0.212789
25.810852 -18.072952 -0.219980
23.551369 -16.644463 0.201340
26.572868 -18.779846 0.227170
23.497789 -16.606596 0.602723
26.216610 -18.528069 0.672461
24.369272 -17.382433 -0.627016
30.888908 -22.032845 -0.794765
23.608774 -16.839975 -0.202457
23.470148 -16.896088 0.201898
23.449345 -16.881113 0.605236
23.812237 -17.300602 -0.616545
24.108118 -17.515574 -0.208042
30.903696 -22.452850 -0.266684
23.466967 -17.206692 0.203155
23.397890 -17.156042 0.607749
26.082762 -19.124672 0.677487
23.411215 -17.323387 -0.610053
30.893480 -22.859974 -0.805027
23.673008 -17.517105 -0.205598
23.436104 -17.500568 0.204202
25.639498 -19.145920 0.223400
23.631804 -17.646704 0.617801
30.849518 -23.036427 0.806493
23.227211 -17.502960 -0.609215
23.223755 -17.500355 -0.203015
22.995937 -17.486517 0.201689
23.644033 -17.979340 0.622199
26.023558 -19.788773 0.684817
30.894020 -23.492359 0.812985
23.612949 -18.118853 -0.623456
30.926064 -23.730402 -0.816545
23.220886 -17.818012 -0.204341
26.180021 -20.088638 -0.230382
30.892426 -23.704592 -0.271850
22.874092 -17.711014 0.201968
30.844049 -23.882013 0.272339
22.687815 -17.566782 0.601047
22.949718 -17.930286 -0.610053
23.056633 -18.013815 -0.204272
30.905029 -24.145655 -0.273805
22.750076 -17.934715 0.202247
22.462990 -17.708393 0.599163
23.813438 -18.773001 0.635184
21.743912 -17.295887 -0.581990
23.105350 -18.378826 -0.618430
24.083397 -19.156797 -0.644608
21.716846 -17.274361 -0.193730
24.502865 -19.490458 -0.218583
30.912270 -24.588730 -0.275760
22.483522 -18.044933 0.201270
24.386393 -19.572149 0.218304
30.867075 -24.773447 0.276318
22.440153 -18.010126 0.602723
21.871861 -17.711483 -0.589529
24.653433 -19.963957 -0.664503
30.946936 -25.060333 -0.834137
22.023779 -17.834505 -0.197849
25.039032 -20.276209 -0.224936
24.849655 -20.303019 0.224029
22.313101 -18.230568 0.603561
21.585321 -17.793566 -0.585969
30.973932 -25.532940 -0.840838
21.875025 -18.032377 -0.197919
24.483051 -20.182270 -0.221515
21.680811 -18.031740 0.196872
25.317345 -21.056213 0.229893
30.914377 -25.711216 0.280716
22.276150 -18.526878 0.606911
30.931410 -25.725382 0.842723
21.521128 -18.058371 -0.588482
24.615269 -20.654663 -0.673089
30.964384 -25.982203 -0.846702
21.548306 -18.081175 -0.196383
21.705803 -18.375319 0.198547
24.468637 -20.714230 0.223819
25.659250 -21.722158 0.234710
21.816031 -18.468634 0.598744
21.301903 -18.193542 -0.586807
22.442261 -19.167501 -0.618220
24.510111 -20.933613 -0.675184
21.480946 -18.346460 -0.197221
24.362696 -20.992243 0.224517
30.930624 -26.651531 0.285045
21.903975 -18.873672 0.605655
30.901873 -26.626757 0.854451
21.595051 -18.772291 -0.599372
21.735106 -18.894039 -0.201060
21.419394 -18.784304 0.198896
22.159376 -19.433252 0.617383
30.976522 -27.165682 0.863037
20.749012 -18.357174 -0.580314
22.366402 -19.788120 -0.625550
24.403114 -21.590052 -0.682513
21.846506 -19.328156 -0.203643
22.887529 -20.249176 -0.213347
31.006012 -27.431801 -0.289024
21.187513 -18.910578 0.198268
24.365641 -21.747166 0.228008
21.161005 -18.886919 0.594136
20.692045 -18.631201 -0.583246
22.051701 -19.855440 -0.621571
21.431774 -19.297256 -0.201340
30.943796 -27.861919 -0.290700
20.962467 -19.040964 0.197709
21.776686 -19.780550 0.205389
21.024984 -19.097752 0.594974
20.676094 -18.946150 -0.587435
21.936562 -20.101154 -0.623246
20.879185 -19.132248 -0.197709
23.035135 -21.293461 0.219002
21.540297 -19.911646 0.614451
20.480724 -19.098585 -0.586597
23.478617 -21.894165 -0.672461
21.062473 -19.641073 -0.201060
20.743500 -19.513536 0.198826
21.161818 -19.907051 0.608587
21.437365 -20.343298 -0.619058
23.402697 -22.208330 -0.675812
20.484074 -19.438660 -0.197151
21.265877 -20.357649 0.205528
23.237883 -22.245434 0.224587
20.893406 -20.001085 0.605864
23.413904 -22.413937 0.678953
21.072033 -20.349026 -0.613613
21.032984 -20.311316 -0.204132
20.936996 -20.395918 0.204062
23.279245 -22.677637 0.226891
20.388643 -19.861738 0.596231
20.972095 -20.609221 -0.615917
20.747950 -20.388954 -0.203085
20.886044 -20.704569 0.205319
20.690264 -20.510490 0.610262
20.840937 -20.840937 -0.617383
23.626326 -23.626326 -0.699896
20.604589 -20.604589 -0.203434
20.704569 -20.886044 0.205319
25.463593 -25.686779 0.252512
20.763880 -20.945873 0.617801
20.265850 -20.622679 -0.605655
20.711365 -21.076036 -0.206296
23.164486 -23.572353 -0.230731
20.549429 -21.094578 0.205598
20.489611 -21.033175 0.615079
20.994917 -21.740873 -0.633089
22.008896 -22.790878 -0.663665
20.582226 -21.313519 -0.206855
20.523607 -21.439240 0.207204
20.491951 -21.406172 0.620733
21.072794 -22.206093 -0.641257
22.366617 -23.569496 -0.680629
20.498699 -21.601122 -0.207902
20.390549 -21.675793 0.207762
22.165129 -23.562227 0.225844
21.194912 -22.530855 0.647958
20.462282 -21.943111 -0.628482
21.750977 -23.325066 -0.668063
20.636768 -22.130224 -0.211253
22.178045 -23.783043 -0.227031
20.682554 -22.374262 0.212719
21.558186 -23.321514 0.221725
21.051781 -22.773689 0.649634
20.161945 -22.002901 -0.625131
20.375303 -22.235743 -0.210555
20.412560 -22.472475 0.211951
21.656406 -23.841845 0.224866
20.811911 -22.912127 0.648377
22.075684 -24.303432 0.687749
20.002617 -22.215157 -0.626178
20.053356 -22.271507 -0.209228
20.035891 -22.448318 0.210066
21.050560 -23.585161 0.662199
19.986862 -22.591038 -0.631833
19.765474 -22.340805 -0.208251
20.406256 -23.268875 0.216070
20.309990 -23.159103 0.645236
21.463591 -24.474535 0.681885
20.720360 -23.836046 -0.661571
22.714342 -26.129860 -0.725236
19.884665 -22.874689 -0.211602
20.163258 -23.400612 0.215651
20.107117 -23.335459 0.645236
22.959446 -26.882057 -0.740524
20.099928 -23.533991 -0.216070
21.937820 -25.685888 -0.235827
22.937946 -26.856884 -0.246578
21.883686 -25.850054 0.236455
19.876875 -23.479513 0.644398
21.783541 -25.960613 -0.236595
22.079290 -26.547461 0.241063
20.726067 -24.920385 0.678953
21.258381 -26.018959 0.234570
20.925303 -25.611290 0.692775
22.319887 -27.810003 0.248952
20.882484 -26.019037 0.698849
21.389175 -27.132038 0.241203
21.069336 -26.726326 0.712880
21.053638 -27.191153 0.240086
20.688406 -26.719446 0.707854
21.275566 -27.978788 0.245391
20.956734 -27.559504 0.725236
31.040323 -41.568035 0.362188
31.048912 -42.345375 0.366586
20.638092 -28.146807 0.731100
0.181078 -0.251533 0.006492
0.153895 -0.221839 0.001885
0.153865 -0.221796 0.005654
0.129417 -0.190074 0.004817
0.133334 -0.199548 0.001676
0.144417 -0.216135 0.005445
0.148007 -0.225748 0.005654
0.151469 -0.235485 0.001955
0.162257 -0.252256 0.006283
0.128064 -0.202970 0.001676
0.117369 -0.186019 0.004607
0.147336 -0.238093 0.001955
0.136786 -0.221043 0.005445
0.150441 -0.247918 0.002025
0.140038 -0.230776 0.005654
0.117595 -0.197659 0.001606
0.102236 -0.171844 0.004188
0.130953 -0.224548 0.005445