# This PCD file was generated using the MATLAB® pcwrite function
# from Computer Vision System Toolbox®.
# .PCD v.7 - Point Cloud Data file format
VERSION .7
FIELDS x y z
SIZE 4 4 4
TYPE F F F
COUNT 1 1 1
WIDTH 1048
HEIGHT 1
VIEWPOINT 0 0 0 1 0 0 0
POINTS 1048
DATA ascii
25.955759 29.337650 -0.820524
26.020454 29.410774 -0.274154
26.431553 29.355213 -0.827435
26.630749 29.576443 -0.277854
27.091980 29.565708 -0.840000
27.191843 29.674690 -0.280996
27.567146 29.562145 -0.846702
27.722557 29.728804 -0.283788
28.071825 29.581532 -0.854241
25.151863 26.504534 -0.255095
25.286964 26.185417 -0.762514
25.257162 26.154558 -0.253839
25.325306 25.771217 -0.756859
25.316225 25.761978 -0.252163
25.379566 25.379566 -0.751833
25.377443 25.377443 -0.250557
25.485981 25.045004 -0.748482
25.369699 24.930735 -0.248323
25.451853 24.578568 -0.741152
25.442429 24.569468 -0.246927
25.578342 24.272942 -0.738639
25.568823 24.263908 -0.246089
25.625444 23.073254 -0.722304
25.117683 22.616064 -0.235967
25.578716 22.630136 -0.715393
25.589651 21.855627 -0.704922
25.305695 21.613104 -0.232336
25.756424 21.612206 -0.704294
25.862787 20.943272 -0.232336
26.070786 20.737638 -0.697801
26.028913 20.704332 -0.232197
26.329544 20.570894 -0.699896
26.216478 20.482557 -0.232267
26.206646 20.109066 -0.691938
26.124489 20.046026 -0.229893
26.221437 19.759272 -0.687749
26.178635 19.727016 -0.228846
26.296429 19.458334 -0.685236
26.213133 19.396698 -0.227659
26.271109 19.087078 -0.680210
26.227692 19.055534 -0.226332
26.306442 18.764204 -0.676859
26.262726 18.733021 -0.225215
26.338152 18.442173 -0.673508
26.294140 18.411354 -0.224098
26.366255 18.121025 -0.670157
26.321949 18.090574 -0.222981
26.351040 17.941784 0.222563
26.423922 17.823160 -0.667644
26.387623 17.798676 -0.222214
26.390202 17.633369 0.221585
26.351807 17.607714 0.663875
26.478405 17.525675 -0.665131
26.466890 17.518053 -0.221585
26.451086 17.342093 0.220817
26.420847 17.322266 0.661780
26.529716 17.228600 -0.662618
26.518118 17.221067 -0.220747
26.433212 17.002413 0.219421
26.369200 16.961239 0.656754
26.577868 16.931969 -0.660105
26.507147 16.886915 -0.219421
26.487551 16.712399 0.218653
26.423199 16.671797 0.654451
26.597435 16.619921 -0.656964
26.585659 16.612564 -0.218863
26.487825 16.391165 0.217466
26.465658 16.377447 0.651938
26.605062 16.303604 -0.653613
26.559093 16.275434 -0.217466
26.501621 16.081579 0.216419
26.470814 16.062883 0.648587
26.634916 16.003872 -0.650890
26.588682 15.976091 -0.216559
26.537823 15.788345 0.215581
26.472504 15.749485 0.645236
26.678802 15.715015 -0.648587
26.632309 15.687629 -0.215791
26.570932 15.495710 0.214744
26.539843 15.477579 0.643561
26.702366 15.416618 -0.645864
26.620972 15.369625 -0.214604
26.600964 15.203703 0.213906
26.569736 15.185856 0.641047
26.740164 15.128858 -0.643561
26.658346 15.082566 -0.213836
26.662828 14.931901 0.213347
26.666353 14.933875 0.640210
26.801214 14.856156 -0.641885
26.710236 14.805725 -0.213208
26.757048 14.679420 0.213068
26.655413 14.623660 0.636859
26.789257 14.545380 -0.638534
26.776905 14.538673 -0.212719
26.778425 14.388567 0.212230
29.212738 15.696570 0.694660
26.871031 14.287580 -0.637487
26.876270 14.290366 -0.212510
31.343876 16.665834 -0.247835
27.150759 14.284705 0.214185
30.029892 15.799491 0.710786
26.994688 14.052546 -0.637487
31.417158 16.354738 -0.247276
27.629980 14.230374 0.216978
31.417101 16.180870 0.246718
30.362165 15.637543 0.715393
27.089565 13.802823 -0.636859
31.523043 16.061792 -0.246997
31.083839 15.667545 0.243018
30.890295 15.569990 0.724608
27.137405 13.530211 -0.635184
31.527769 15.719166 -0.245950
31.569151 15.568183 0.245740
31.428495 15.498818 0.734032
27.218500 13.275350 -0.634346
31.663742 15.443439 -0.245950
31.631752 15.257345 0.245182
31.562550 15.223967 0.734032
27.324289 13.033017 -0.634136
31.761202 15.149316 -0.245671
31.691336 14.946605 0.244623
31.630901 14.918102 0.732566
27.446043 12.798300 -0.634346
27.152319 12.661335 -0.209159
31.765314 14.812409 -0.244693
31.711586 14.619242 0.243786
31.678165 14.603835 0.730681
27.665854 12.608056 -0.636859
27.207178 12.399026 -0.208740
31.820570 14.501470 -0.244135
31.765015 14.309096 0.243227
31.695013 14.277562 0.728168
27.774824 12.366149 -0.636859
27.296074 12.152995 -0.208600
31.854553 14.182561 -0.243437
31.778841 13.983025 0.242389
31.708588 13.952112 0.725655
27.808332 12.091407 -0.635184
27.327724 11.882433 -0.208042
31.826153 13.673594 0.241831
31.792389 13.659088 0.724817
27.839165 11.817024 -0.633508
27.504015 11.674762 -0.208600
31.870489 13.364405 0.241272
31.836617 13.350201 0.723142
27.913517 11.562157 -0.632880
27.493984 11.388381 -0.207762
31.911860 13.055486 0.240714
31.914890 13.056726 0.722304
27.345924 11.048470 -0.617801
27.406887 11.073101 -0.206366
28.485895 11.364719 0.214115
32.024574 12.776509 0.240714
30.708996 12.251647 0.692566
28.018030 11.036596 -0.630786
28.377045 11.178015 -0.212928
32.097569 12.482061 0.240435
32.035404 12.457887 0.720000
32.145458 12.339485 -0.721257
31.768969 12.194964 -0.237572
32.205273 12.201486 0.240435
32.170944 12.188481 0.720629
32.073986 11.991972 -0.717278
31.771147 11.878745 -0.236804
32.319904 11.923442 0.240504
32.276085 11.907276 0.720629
32.214993 11.725299 -0.718116
32.211880 11.724165 -0.239318
32.347431 11.613914 0.239946
32.011787 11.493405 0.712461
32.579971 11.537172 -0.723979
32.539192 11.522732 -0.240993
32.438107 11.327894 0.239876
32.375153 11.305909 0.718325
32.641598 11.239403 -0.723142
32.506138 11.192760 -0.240016
32.469444 11.021891 0.239387
32.349506 10.981177 0.715603
32.586735 10.903369 -0.719791
32.498260 10.873766 -0.239248
29.772343 9.817446 0.218863
32.478920 10.709941 0.238759
29.633610 9.771699 0.653613
32.642609 10.606227 -0.718953
29.843426 9.696717 -0.219072
29.475931 9.435320 0.216070
29.336880 9.390809 0.645236
29.682697 9.358918 -0.651938
29.507284 9.303611 -0.216000
29.261099 9.085813 0.213906
29.102623 9.036605 0.638325
29.801481 9.111227 -0.652775
29.520409 9.025294 -0.215512
29.339272 8.830118 0.213906
29.075064 8.750601 0.636021
29.918201 8.862175 -0.653613
29.645985 8.781541 -0.215861
29.453611 8.584945 0.214185
29.227106 8.518925 0.637697
30.042450 8.614534 -0.654660
29.759937 8.533525 -0.216140
29.565905 8.338448 0.214464
29.300335 8.263549 0.637697
30.145384 8.360055 -0.655288
29.871817 8.284187 -0.216419
29.676134 8.090643 0.214744
29.448498 8.028582 0.639372
30.255819 8.107022 -0.656126
29.971949 8.030959 -0.216629
29.745607 7.831365 0.214744
29.517437 7.771293 0.639372
30.335093 7.845188 -0.656335
30.011845 7.761591 -0.216419
29.774048 7.561645 0.214464
29.467848 7.483880 0.636859
30.402399 7.580169 -0.656335
30.107542 7.506653 -0.216629
29.838902 7.301533 0.214464
29.532034 7.226443 0.636859
30.467390 7.314573 -0.656335
30.171904 7.243633 -0.216629
29.901482 7.040864 0.214464
29.555044 6.959289 0.636021
30.520319 7.046171 -0.656126
30.204737 6.973313 -0.216419
29.932526 6.773039 0.214255
29.614651 6.701111 0.636021
30.580647 6.779566 -0.656126
30.264439 6.709465 -0.216419
29.941631 6.500966 0.213906
29.593838 6.425452 0.634346
30.648422 6.514524 -0.656335
30.282711 6.436789 -0.216140
29.997223 6.239431 0.213906
29.795609 6.197495 0.637487
30.694307 6.244827 -0.656126
30.367126 6.178262 -0.216349
30.050529 5.977422 0.213906
30.132921 5.993811 0.643561
30.796705 5.986273 -0.657173
30.390436 5.907302 -0.216140
30.366802 5.765317 0.215791
33.101318 6.284482 0.705760
30.847773 5.717297 -0.657173
30.430998 5.640052 -0.216070
33.190884 6.001890 0.235478
33.105709 5.986487 0.704712
30.886644 5.446149 -0.656964
30.823732 5.435056 -0.218513
33.275845 5.867429 -0.235897
33.241997 5.712019 0.235478
33.156689 5.697361 0.704712
31.110487 5.206110 -0.660733
33.378445 5.585636 -0.708901
33.335640 5.578473 -0.235967
33.290577 5.421715 0.235478
33.254482 5.415836 0.705760
33.425919 5.294145 -0.708901
33.383053 5.287356 -0.235967
33.326736 5.129476 0.235408
33.300476 5.125434 0.705760
33.480732 5.003729 -0.709110
33.427921 4.995836 -0.235967
33.380127 4.839888 0.235478
33.304359 4.828902 0.704922
33.443920 4.700236 -0.707435
33.391026 4.692802 -0.235408
33.421093 4.548411 0.235478
33.335323 4.536738 0.704712
33.562962 4.418648 -0.709110
33.510021 4.411678 -0.235967
33.459511 4.256588 0.235478
33.373646 4.245664 0.704712
33.550625 4.119499 -0.708063
33.467842 4.109334 -0.235408
33.495384 3.964440 0.235478
33.459068 3.960142 0.705760
33.674698 3.836747 -0.709948
33.581909 3.826175 -0.235967
33.528702 3.671990 0.235478
33.442661 3.662567 0.704712
33.706898 3.542738 -0.709948
33.653801 3.537157 -0.236246
33.559471 3.379261 0.235478
33.473347 3.370589 0.704712
33.696724 3.244625 -0.709110
33.643570 3.239507 -0.235967
33.577724 3.085359 0.235408
33.551266 3.082928 0.705760
33.683914 2.946961 -0.708273
33.670559 2.945792 -0.235967
33.693058 2.799677 0.236036
33.616745 2.793336 0.706597
33.738251 2.655258 -0.708901
33.694984 2.651853 -0.235967
33.666348 2.501842 0.235687
33.599960 2.496908 0.705760
33.839924 2.366318 -0.710576
33.796646 2.363292 -0.236525
33.686897 2.207956 0.235687
33.660378 2.206218 0.706597
33.949100 2.076416 -0.712461
33.855907 2.070716 -0.236804
33.754799 1.916736 0.236036
33.718273 1.914662 0.707435
33.916004 1.777462 -0.711414
33.862701 1.774669 -0.236735
33.810192 1.624020 0.236316
33.733700 1.620346 0.707435
34.020119 1.485350 -0.713299
33.966812 1.483023 -0.237363
33.903015 1.332053 0.236874
33.786514 1.327476 0.708273
34.021793 1.188067 -0.713089
33.978458 1.186554 -0.237363
33.913349 1.036147 0.236874
33.876759 1.035029 0.709948
34.070843 0.892176 -0.713927
34.027508 0.891042 -0.237642
33.961090 0.741034 0.237153
33.884499 0.739362 0.709948
34.127316 0.595694 -0.714974
34.073978 0.594764 -0.237921
30.716619 0.402103 0.214464
30.600664 0.400585 0.641047
30.882050 0.269504 -0.646911
30.778078 0.268596 -0.214883
30.428968 0.132772 0.212440
30.363050 0.132485 0.636021
30.603287 0.000000 -0.641047
30.469257 0.000000 -0.212719
30.278975 -0.132118 0.211393
30.243078 -0.131961 0.633508
30.802071 -0.268806 -0.645236
30.468098 -0.265891 -0.212719
30.316664 -0.396867 0.211672
30.040836 -0.393256 0.629320
30.958492 -0.540383 -0.648587
30.704575 -0.535950 -0.214395
30.472004 -0.664901 0.212789
30.276150 -0.660628 0.634346
31.112507 -0.814710 -0.651938
30.858669 -0.808063 -0.215512
30.624964 -0.935677 0.213906
30.349178 -0.927251 0.636021
31.184147 -1.088974 -0.653613
30.890417 -1.078717 -0.215791
30.775505 -1.209173 0.215023
30.499771 -1.198339 0.639372
31.333269 -1.368040 -0.656964
31.079634 -1.356966 -0.217187
30.843687 -1.481529 0.215581
30.607988 -1.470207 0.641885
31.400011 -1.645605 -0.658639
31.146496 -1.632319 -0.217746
30.949389 -1.757434 0.216419
30.713774 -1.744054 0.644398
31.623955 -1.934204 -0.663665
31.290764 -1.913825 -0.218863
31.092525 -2.037912 0.217536
30.737291 -2.014628 0.645236
31.765448 -2.221256 -0.667016
31.232969 -2.184022 -0.218583
29.587692 -2.198745 0.207134
31.103476 -2.311388 0.217746
30.798302 -2.288709 0.646911
31.824589 -2.504649 -0.668691
29.478127 -2.319979 -0.206436
31.372225 -2.469048 -0.219700
29.378035 -2.441127 0.205808
31.281429 -2.599286 0.219142
30.896719 -2.567319 0.649424
31.950916 -2.795343 -0.671833
34.600212 -3.027127 -0.727540
29.536453 -2.584105 -0.206994
31.299675 -2.738367 -0.219351
29.664307 -2.725767 0.207972
31.148020 -2.862101 0.218374
30.912962 -2.840502 0.650262
29.546831 -2.845036 -0.621780
31.348104 -3.018479 -0.659686
34.741661 -3.345241 -0.731100
29.562546 -2.846550 -0.207343
31.622967 -3.044945 -0.221795
29.410553 -2.961487 0.206366
31.251200 -3.146830 0.219281
31.513689 -3.173262 0.663456
30.694159 -3.226086 -0.646492
32.056355 -3.369259 -0.675184
34.711143 -3.648288 -0.731100
31.306786 -3.290476 -0.219770
29.612217 -3.243065 0.207972
31.749386 -3.477123 0.222981
29.427553 -3.222841 0.620105
34.516006 -3.780117 0.727330
29.125137 -3.318390 -0.614032
32.532341 -3.706592 -0.685864
34.787254 -3.963507 -0.733404
29.150688 -3.321301 -0.204830
30.799976 -3.509214 -0.216419
31.912750 -3.635999 -0.224238
29.026684 -3.435534 0.204062
30.248129 -3.580102 0.212649
34.677105 -4.104306 0.243786
29.537308 -3.495971 0.623037
30.976940 -3.666363 0.653404
34.561131 -4.090580 0.729006
29.501925 -3.622381 -0.622618
32.459064 -3.985472 -0.685027
29.001492 -3.560935 -0.203992
30.549826 -3.751047 -0.214883
34.787895 -4.271416 -0.244693
28.876560 -3.673563 0.203224
34.719326 -4.416856 0.244344
28.662655 -3.646350 0.605236
34.643135 -4.407163 0.731519
29.954893 -3.943636 -0.632880
34.891205 -4.593514 -0.737173
28.979227 -3.815188 -0.204062
34.828609 -4.585273 -0.245252
29.536993 -4.019808 0.208111
34.748821 -4.729107 0.244833
28.728809 -3.909819 0.607330
34.682606 -4.720096 0.733194
29.850035 -4.195149 -0.631414
34.899292 -4.904776 -0.738220
28.835903 -4.052622 -0.203294
30.657951 -4.308694 -0.216140
34.916000 -4.907124 -0.246159
28.966391 -4.199927 0.204341
34.795296 -5.045078 0.245461
28.782644 -4.173285 0.609215
30.662571 -4.445861 0.649006
34.709358 -5.032617 0.734660
29.832064 -4.458432 -0.631833
34.914490 -5.218006 -0.739477
30.371937 -4.539116 -0.214395
34.832291 -5.205720 -0.245880
28.088549 -4.323241 0.198407
34.838894 -5.362219 0.246089
28.251059 -4.348254 0.598744
29.397034 -4.656033 -0.623456
34.995998 -5.542821 -0.742199
29.047207 -4.600626 -0.205319
34.943562 -5.534516 -0.246997
28.395193 -4.624451 0.200851
34.849991 -5.675682 0.246508
27.886400 -4.541589 0.591833
34.774124 -5.663326 0.738011
26.909830 -4.503161 -0.571519
35.064625 -5.867805 -0.744712
27.279995 -4.565105 -0.193102
28.907326 -4.837428 -0.204621
35.012287 -5.859047 -0.247835
28.196072 -4.844971 0.199734
34.917400 -5.999907 0.247346
28.131454 -4.833868 0.597906
34.851471 -5.988578 0.740733
26.908894 -4.744764 -0.572356
35.081005 -6.185728 -0.746178
27.357292 -4.823829 -0.193939
35.048454 -6.179988 -0.248463
30.258514 -5.471631 0.214674
34.991634 -6.327518 0.248254
26.858419 -4.856793 0.571728
28.107878 -5.082732 0.598325
34.906105 -6.312052 0.743037
26.935276 -4.992158 -0.573822
35.163315 -6.517135 -0.749110
27.677952 -5.129805 -0.196522
35.130840 -6.511117 -0.249440
27.134619 -5.151669 0.192822
29.954184 -5.686979 0.212859
35.082447 -6.660611 0.249301
26.903416 -5.107773 0.573613
28.278543 -5.368849 0.602932
34.987209 -6.642529 0.745969
26.468679 -5.144990 -0.564817
35.124733 -6.827556 -0.749529
26.738873 -5.197510 -0.190170
35.082500 -6.819347 -0.249510
27.127859 -5.396067 0.193102
26.798983 -5.330649 0.572356
35.025967 -6.967098 0.748063
26.706888 -5.433578 -0.570890
35.249958 -7.171685 -0.753508
26.849283 -5.462548 -0.191287
35.178440 -7.157135 -0.250627
26.942675 -5.604084 0.192124
35.137085 -7.308524 0.250557
27.035305 -5.623352 0.578430
29.188732 -6.071265 0.624503
35.081295 -7.296920 0.750576
26.590000 -5.651879 -0.569424
35.322945 -7.508123 -0.756440
26.556061 -5.644665 -0.189541
35.271141 -7.497113 -0.251744
27.635422 -6.000238 0.197430
27.161066 -5.897245 0.582199
29.369125 -6.376662 0.629529
35.133522 -7.628236 0.753089
27.545031 -6.106586 -0.590995
35.343925 -7.835559 -0.758325
26.867012 -5.956273 -0.192124
35.272717 -7.819773 -0.252233
26.635950 -6.027100 0.190658
26.513742 -5.999447 0.569424
28.229967 -6.387790 0.606283
35.192383 -7.963223 0.755812
28.464849 -6.571628 -0.611938
30.306005 -6.996693 -0.651519
35.371616 -8.166182 -0.760419
27.008881 -6.235491 -0.193521
35.320053 -8.154277 -0.253071
27.361025 -6.442666 0.196243
29.843081 -7.027113 0.214045
35.225739 -8.294560 0.252652
26.051647 -6.134349 0.560629
28.046638 -6.604106 0.603561
35.141018 -8.274611 0.756231
29.981312 -7.197876 -0.645864
35.464275 -8.514219 -0.763979
27.215971 -6.533977 -0.195405
29.841305 -7.164264 -0.214255
35.442020 -8.508876 -0.254467
27.284334 -6.676434 0.196104
35.375416 -8.656309 0.254258
26.152506 -6.399477 0.563979
29.833084 -7.300109 0.643351
35.261696 -8.628482 0.760419
27.482449 -6.852144 -0.593299
29.781546 -7.425374 -0.642932
35.524437 -8.857237 -0.766911
27.119104 -6.761552 -0.195126
35.444038 -8.837192 -0.255025
27.302568 -6.933969 0.196662
35.414833 -8.994222 0.255095
27.161585 -6.898164 0.587016
29.777933 -7.562632 0.643561
35.349789 -8.977703 0.763979
26.627901 -6.886443 -0.576126
28.989662 -7.497237 -0.627225
35.542583 -9.191937 -0.769006
26.952574 -6.970409 -0.194358
29.905352 -7.734050 -0.215651
35.491428 -9.178707 -0.255933
26.322350 -6.930096 0.190030
27.637499 -7.276346 0.199524
35.393021 -9.318204 0.255514
27.371067 -7.206201 0.592880
35.318439 -9.298570 0.765027
26.537821 -7.110787 -0.575498
28.266449 -7.573972 -0.612985
30.062675 -8.055270 -0.651938
26.533337 -7.109586 -0.191775
35.593498 -9.537250 -0.257259
27.437883 -7.480425 0.198547
29.618250 -8.074862 0.214325
35.484013 -9.674052 0.256771
27.326431 -7.450040 0.593299
35.390282 -9.648499 0.768377
26.821589 -7.438285 -0.583037
28.363058 -7.865772 -0.616545
36.031876 -9.992523 -0.783247
26.826818 -7.439735 -0.194358
35.961811 -9.973093 -0.260541
27.400433 -7.727721 0.198756
29.392666 -8.289589 0.213208
35.802464 -10.097339 0.259703
27.385469 -7.723501 0.596021
35.458698 -10.000387 0.771728
27.418781 -7.862209 -0.597487
35.712650 -10.240438 -0.778220
26.722424 -7.662532 -0.194079
35.690777 -10.234165 -0.259214
26.151121 -7.622356 0.190170
27.869568 -8.123239 0.202666
35.597782 -10.375807 0.258865
27.278633 -7.950996 0.595184
29.198311 -8.510531 0.637068
35.542850 -10.359796 0.775498
26.994442 -7.996118 -0.589739
35.794476 -10.602807 -0.781990
26.692890 -7.906795 -0.194358
35.715164 -10.579314 -0.260052
26.715590 -8.040480 0.194777
27.342239 -8.229080 0.598116
35.508533 -10.686855 0.776754
26.961880 -8.243073 -0.590576
26.775881 -8.186208 -0.195475
35.764927 -10.934435 -0.261099
26.873606 -8.344477 0.196453
35.669125 -11.075558 0.260750
27.708601 -8.603749 0.607749
35.604885 -11.055610 0.780943
27.766148 -8.754632 -0.609843
35.861427 -11.307065 -0.787644
27.123049 -8.551865 -0.198547
26.390244 -8.447584 0.193451
27.894993 -8.929257 0.204481
26.623146 -8.522137 0.585550
35.611790 -11.399425 0.783247
27.450979 -8.919364 -0.604608
35.885002 -11.659743 -0.790367
35.796894 -11.631116 -0.262775
35.707817 -11.774673 0.262495
25.702717 -8.475485 0.566911
27.212408 -8.973307 0.600210
35.634392 -11.750460 0.785969
35.990471 -12.042243 -0.794974
27.149845 -9.084211 -0.199873
35.893177 -12.009688 -0.264241
26.181980 -8.887585 0.193032
35.812023 -12.156545 0.264031
25.854990 -8.776587 0.571938
35.719837 -12.125251 0.790157
25.901527 -8.918611 -0.573822
29.068319 -10.009026 -0.643979
36.016357 -12.401426 -0.797906
25.887669 -8.913838 -0.191147
29.102352 -10.020743 -0.214883
35.909920 -12.364778 -0.265148
25.801325 -9.010225 0.190798
35.855629 -12.521345 0.265148
25.786856 -9.005173 0.572147
35.801441 -12.502423 0.794346
25.869835 -9.160989 -0.574869
36.048130 -12.765312 -0.801048
25.686356 -9.096015 -0.190239
36.036304 -12.761126 -0.266894
25.891121 -9.295862 0.192054
35.867344 -12.877692 0.266056
26.008400 -9.337970 0.578848
35.832123 -12.865047 0.797487
25.929829 -9.437686 -0.578011
28.391283 -10.333582 -0.632880
29.791119 -10.843081 -0.664084
25.925488 -9.436106 -0.192613
36.017540 -13.109313 -0.267592
26.034176 -9.604514 0.193730
35.988144 -13.276727 0.267801
26.029100 -9.602642 0.581152
35.859188 -13.229153 0.800629
26.230434 -9.807158 -0.586597
28.300026 -10.580946 -0.632880
36.138252 -13.511539 -0.808168
26.301115 -9.833584 -0.196034
36.089100 -13.493161 -0.268988
26.183147 -9.919908 0.195475
36.020531 -13.646958 0.268918
23.476095 -8.894297 0.525864
26.009756 -9.854215 0.582618
35.863918 -13.587624 0.803351
26.470533 -10.161086 -0.593927
36.214977 -13.901627 -0.812566
26.569052 -10.198903 -0.198687
28.314804 -10.869035 -0.211742
36.128681 -13.868502 -0.270175
26.682735 -10.376348 0.199873
36.002586 -14.000640 0.269686
23.257814 -9.044470 0.522723
26.174358 -10.178652 0.588273
23.320454 -9.186171 -0.525026
26.297136 -10.358717 -0.592042
36.278328 -14.290413 -0.816754
26.758158 -10.540318 -0.200781
36.229576 -14.271210 -0.271850
23.312551 -9.300765 0.175230
26.897669 -10.731082 0.202177
36.120522 -14.410627 0.271501
22.992281 -9.172990 0.518534
23.257940 -9.396818 -0.525445
28.106049 -11.355581 -0.634974
36.309826 -14.670122 -0.820315
23.262476 -9.398650 -0.175160
36.242733 -14.643015 -0.272897
23.202736 -9.492490 0.175020
26.775234 -10.954038 0.201968
36.197006 -14.808586 0.273037
23.114931 -9.456568 0.523142
28.102501 -11.497037 0.636021
23.230474 -9.622377 -0.526702
30.084156 -12.461266 -0.682095
36.318977 -15.043813 -0.823456
23.004040 -9.528585 -0.173833
36.224434 -15.004652 -0.273735
22.657927 -9.501257 0.171530
23.243587 -9.746845 0.527958
36.170010 -15.167344 0.821571
30.103109 -12.778012 -0.685027
36.379578 -15.442214 -0.827854
23.684013 -10.053267 -0.179628
28.332449 -12.026411 -0.214883
36.331440 -15.421782 -0.275550
22.638464 -9.726252 0.172018
36.254616 -15.576213 0.275481
23.589384 -10.134799 0.537801
36.164875 -15.537657 0.824503
36.454311 -15.850786 -0.832671
23.714596 -10.311399 -0.180535
28.308954 -12.309084 -0.215512
36.369717 -15.814003 -0.276877
22.516113 -9.907327 0.171739
36.327827 -15.984627 0.277086
22.420214 -9.865129 0.513089
36.238384 -15.945271 0.829320
22.961496 -10.223117 -0.526492
22.500076 -10.017679 -0.171948
25.258917 -11.245995 -0.193032
36.367359 -16.191792 -0.277924
22.246452 -10.021296 0.170343
25.519598 -11.495741 0.195405
27.343077 -12.317158 0.209368
22.287693 -10.039873 0.512042
36.280170 -16.343025 0.833508
23.671999 -10.787951 -0.544922
22.457296 -10.234380 -0.172298
26.051556 -11.872378 -0.199873
22.512321 -10.378322 0.173065
23.938070 -11.035602 0.184026
27.452499 -12.655775 0.211043
22.807554 -10.514426 0.526074
25.540464 -11.774316 0.589110
36.408554 -16.784573 0.839791
23.712873 -11.057494 -0.548063
26.240917 -12.236341 -0.606492
22.349005 -10.421513 -0.172158
36.550503 -17.043779 -0.281554
22.583694 -10.651162 0.174322
22.515993 -10.619232 0.521466
22.649921 -10.803458 -0.525655
28.136436 -13.420392 -0.652985
22.329416 -10.650585 -0.172716
28.006538 -13.358434 -0.216629
22.796118 -10.995542 0.176696
23.187893 -11.184512 0.539267
27.465271 -13.247674 0.638744
36.506298 -17.608547 0.849006
25.798717 -12.582875 -0.601257
28.144056 -13.726773 -0.655917
22.783875 -11.112438 -0.176975
22.636517 -11.163095 0.176207
22.605204 -11.147653 0.527958
25.053129 -12.354836 0.585131
25.983194 -12.954742 -0.608168
28.336355 -14.127986 -0.663246
36.845314 -18.370396 -0.862409
23.160337 -11.547318 -0.180675
25.415516 -12.671709 -0.198268
28.288185 -14.103970 -0.220678
23.082943 -11.634761 0.180466
36.655891 -18.476091 0.286581
22.587412 -11.384994 0.529843
36.550541 -18.422989 0.857383
22.929478 -11.683152 -0.539058
24.978344 -12.727101 -0.587225
28.675209 -14.610749 -0.674137
25.491076 -12.988352 -0.199734
27.638350 -14.082442 -0.216559
36.797672 -18.749352 -0.288326
23.042763 -11.867803 0.180954
25.336370 -13.049088 0.198966
36.688843 -18.895996 0.288117
23.260475 -11.979933 0.548063
36.610584 -18.855690 0.862618
22.826651 -11.882803 -0.539058
24.999352 -13.013839 -0.590367
36.856087 -19.186064 -0.870367
24.702650 -12.859385 -0.194428
27.762762 -14.452379 -0.218513
36.836662 -19.175953 -0.289932
23.000269 -12.101027 0.181443
36.761490 -19.341156 0.290002
23.128504 -12.168494 0.547435
25.862514 -13.606928 0.612147
36.665844 -19.290834 0.867854
24.655317 -13.109465 -0.584922
36.987389 -19.666544 -0.877487
22.664713 -12.051042 -0.179209
36.844505 -19.590570 -0.291328
22.691193 -12.192417 0.179837
25.369036 -13.631274 0.201060
23.162346 -12.445577 0.550786
26.482574 -14.229601 0.629739
24.838711 -13.486320 -0.592042
36.946156 -20.060125 -0.880629
22.681717 -12.315167 -0.180186
25.599319 -13.899296 -0.203364
36.918209 -20.044950 -0.293283
22.943380 -12.587170 0.182700
36.856693 -20.220276 0.293492
23.105450 -12.676084 0.552042
25.796410 -14.152395 0.616335
36.761856 -20.168245 0.878325
25.218500 -13.978843 -0.603979
36.935833 -20.473867 -0.884608
22.582130 -12.517479 -0.180256
25.730684 -14.262752 -0.205389
36.881813 -20.443924 -0.294400
22.858839 -12.801564 0.182909
23.124796 -12.950508 0.555184
36.811256 -20.615294 0.883770
36.947197 -20.903719 -0.889215
26.005594 -14.713258 -0.208600
36.893478 -20.873325 -0.295936
36.871506 -21.073801 0.296494
22.819941 -13.042671 0.550576
26.543697 -15.170973 0.640419
24.546436 -14.171891 -0.593718
36.997150 -21.360313 -0.894870
25.954149 -14.984634 -0.209228
36.943745 -21.329481 -0.297821
22.865170 -13.334572 0.184794
24.445950 -14.256456 0.197570
26.406807 -15.399995 0.213417
22.843437 -13.321899 0.553927
36.851776 -21.491322 0.893613
24.507973 -14.436299 -0.595812
36.938557 -21.758472 -0.898011
23.504671 -13.845309 -0.190449
23.469816 -13.963074 0.190658
22.915342 -13.633196 0.558534
24.758133 -14.876186 -0.605026
36.961517 -22.208721 -0.903247
23.554384 -14.152902 -0.191845
37.037296 -22.254253 -0.301660
23.911303 -14.509734 0.195266
22.880972 -13.884515 0.560629
26.920471 -16.496885 -0.661362
37.056141 -22.708031 -0.910367
23.123037 -14.169816 -0.189332
24.401966 -14.953545 -0.199804
37.020733 -22.686335 -0.303126
23.979349 -14.838871 0.196872
26.521839 -16.412212 0.217746
23.541088 -14.567668 0.579896
26.457157 -16.372187 0.651728
24.672787 -15.417269 -0.609424
26.521126 -16.572239 -0.655079
37.060051 -23.157692 -0.915393
24.067019 -15.038742 -0.198128
25.856356 -16.156845 -0.212859
37.024879 -23.135712 -0.304802
24.128027 -15.223651 0.199175
26.775091 -16.893824 0.221027
23.472256 -14.809890 0.581362
24.967344 -15.905952 -0.620105
37.176975 -23.684343 -0.923351
23.209566 -14.786125 -0.192124
24.592695 -15.667274 -0.203574
37.032417 -23.592251 -0.306547
23.001856 -14.795291 0.190937
26.971464 -17.348629 0.223889
23.829819 -15.327854 0.593508
24.416731 -15.856410 -0.609843
26.722569 -17.353840 -0.667435
37.279118 -24.209341 -0.931100
23.121584 -15.015332 -0.192473
24.396332 -15.843163 -0.203085
26.627142 -17.291868 -0.221655
22.980583 -15.066730 0.191845
27.069923 -17.747820 0.225983
24.046314 -15.765455 0.602304
37.106239 -24.327917 0.929425
37.383240 -24.743427 -0.939058
24.415583 -16.160320 -0.204411
26.717051 -17.683630 -0.223680
37.298805 -24.687540 -0.312272
27.313110 -18.250038 0.229334
37.223988 -24.872272 0.312551
37.141914 -24.817434 0.935707
37.364819 -25.202887 -0.944084
37.289200 -25.151884 -0.314017
37.261757 -25.370628 0.314715
37.221436 -25.343174 0.943247
37.473038 -25.754505 -0.952461
37.373211 -25.685898 -0.316600
37.293644 -25.871523 0.316879
26.525162 -18.401159 0.676231
37.245300 -25.837986 0.949529
24.421757 -17.100298 -0.624503
37.615402 -26.338589 -0.961885
24.279076 -17.000391 -0.206925
37.491676 -26.251953 -0.319532
23.829020 -16.840687 0.203713
26.826021 -18.958757 0.229334
37.384941 -26.421062 0.319602
24.575520 -17.368259 0.630367
26.118633 -18.458826 0.669948
24.401831 -17.405657 -0.627854
37.774815 -26.944513 -0.971938
24.219347 -17.275492 -0.207692
37.546093 -26.781368 -0.321976
24.095045 -17.345949 0.207274
23.911840 -17.214062 0.617173
37.364784 -26.898796 0.964398
24.572546 -17.852999 -0.636231
24.375088 -17.709538 -0.210345
37.577923 -27.301960 -0.324280
24.216942 -17.756596 0.209647
37.571339 -27.548445 0.325257
23.696209 -17.374779 0.615498
37.475323 -27.478045 0.973404
24.504221 -18.132170 -0.638534
37.989979 -28.111107 -0.989948
24.492922 -18.123808 -0.212719
37.716045 -27.908405 -0.327561
24.413609 -18.230507 0.212719
37.609936 -28.084673 0.327700
23.671858 -17.676615 0.618849
37.490456 -27.995451 0.980105
24.241257 -18.267097 -0.635812
38.006714 -28.640112 -0.996859
24.325846 -18.330839 -0.212649
37.854401 -28.525337 -0.330912
24.707300 -18.787867 0.216698
37.673855 -28.647867 0.330423
23.596283 -17.943031 0.620943
24.493378 -18.794430 -0.646702
38.096405 -29.232399 -1.005864
24.704420 -18.956369 -0.217396
38.024498 -29.177225 -0.334612
23.554068 -18.237509 0.207972
37.786133 -29.257151 0.333634
24.332087 -18.839914 0.644608
24.312679 -18.995146 -0.646283
24.388338 -19.054258 -0.216070
38.044231 -29.723412 -0.337055
37.874912 -29.858173 0.336706
24.755611 -19.515751 0.660315
37.773312 -29.778078 1.007540
24.286829 -19.318617 -0.650053
38.237671 -30.415619 -1.023456
38.174694 -30.365524 -0.340546
24.698339 -19.822514 0.221097
38.018440 -30.513025 0.340336
24.935236 -20.012642 0.669739
37.878479 -30.400694 1.017383
38.312664 -31.024982 -1.032671
38.250191 -30.974396 -0.343618
25.267817 -20.644672 0.227799
38.145653 -31.166306 0.343897
24.852552 -20.305387 0.672252
37.952400 -31.008413 1.026597
38.379906 -31.637951 -1.041885
38.310226 -31.580515 -0.346620
25.386539 -21.113762 0.230521
38.241261 -31.804920 0.347248
25.212481 -20.969000 0.686911
37.972458 -31.581358 1.034556
38.469975 -32.280140 -1.051938
38.339588 -32.170734 -0.349412
25.323437 -21.437872 0.231638
38.359131 -32.473400 0.350878
24.975121 -21.143000 0.685445
38.145622 -32.292652 1.046912
38.490910 -32.874344 -1.060315
38.391960 -32.789833 -0.352484
38.415184 -33.100639 0.354020
38.241066 -32.950611 1.057383
38.625111 -33.576298 -1.072042
38.526985 -33.490997 -0.356393
38.478222 -33.744495 0.357301
38.388039 -33.665405 1.069529
38.720005 -34.256569 -1.082933
38.622704 -34.170483 -0.360024
38.540386 -34.398609 0.360652
38.458282 -34.325329 1.079791
38.805943 -34.941029 -1.093823
38.709469 -34.854164 -0.363654
38.682858 -35.137032 0.364841
38.556908 -35.022629 1.091100
38.875481 -35.622814 -1.104503
38.787216 -35.541935 -0.367284
38.734570 -35.805866 0.368261
38.638916 -35.717449 1.102200
39.038410 -36.403908 -1.118116
38.885128 -36.260967 -0.371194
38.850361 -36.546768 0.372380
38.704426 -36.409489 1.113090
39.125366 -37.128586 -1.129844
38.973415 -36.984390 -0.375103
38.934467 -37.271645 0.376290
38.840214 -37.181416 1.126283
39.231380 -37.885303 -1.142409
39.080780 -37.739868 -0.379292
39.016018 -38.007721 0.380269
38.886665 -37.881714 1.137173
39.262959 -38.583599 -1.153090
39.149364 -38.471973 -0.383201
39.130260 -38.790264 0.384667
39.462044 -39.462044 -1.169006
39.292965 -39.292965 -0.387949
30.771734 -31.041447 0.305151
39.064247 -39.406643 1.162304
39.564659 -40.261288 -1.182409
39.397148 -40.090832 -0.392417
39.354424 -40.398445 0.393743
39.256058 -40.297470 1.178430
39.677128 -41.086868 -1.196440
39.476475 -40.879086 -0.396745
39.422199 -41.180965 0.398002
39.324635 -41.079052 1.191205
39.840107 -41.982712 -1.212357
39.620724 -41.751530 -0.401841
39.595760 -42.091534 0.403447
39.409931 -41.893993 1.204817
39.942703 -42.833305 -1.226807
39.834553 -42.717327 -0.407775
39.688511 -42.934792 0.408194
35.255966 -38.139687 1.087959
40.100994 -43.762554 -1.243351
39.892628 -43.535168 -0.412243
40.225998 -44.675499 -1.259268
40.033108 -44.461273 -0.417689
32.581100 -36.504040 1.024922
40.371208 -45.631351 -1.276231
40.233311 -45.475483 -0.423902
31.991035 -36.478783 1.016336
40.509319 -46.600639 -1.293404
31.880009 -36.998573 0.340965
31.612747 -36.688400 1.014451
40.633545 -47.575768 -1.310577
31.783213 -37.213360 -0.341663
31.782064 -37.542492 0.343408
31.724190 -37.474125 1.028482
31.658075 -38.064697 1.037069
30.945127 -38.556831 1.035603
0.134374 -0.186657 0.001606
0.134348 -0.186621 0.004817
0.176695 -0.254704 0.002164
0.136769 -0.197152 0.005026
0.151924 -0.223130 0.005654
0.155556 -0.232806 0.001955
0.166635 -0.249386 0.006283
0.153518 -0.234154 0.001955
0.126080 -0.192304 0.004817
0.129831 -0.201844 0.001676
0.118988 -0.184988 0.004607
0.149408 -0.236798 0.001955
0.117369 -0.186019 0.004607
0.147336 -0.238093 0.001955
0.157830 -0.255050 0.006283
0.124503 -0.205174 0.001676
0.140038 -0.230776 0.005654
0.117595 -0.197659 0.001606
0.127795 -0.214804 0.005236
0.115843 -0.198639 0.004817