# This PCD file was generated using the MATLAB® pcwrite function
# from Computer Vision System Toolbox®.
# .PCD v.7 - Point Cloud Data file format
VERSION .7
FIELDS x y z
SIZE 4 4 4
TYPE F F F
COUNT 1 1 1
WIDTH 891
HEIGHT 1
VIEWPOINT 0 0 0 1 0 0 0
POINTS 891
DATA ascii
27.434580 27.917631 -0.819896
27.556978 27.556978 -0.816335
27.603870 27.126247 -0.810681
27.674126 26.724592 -0.805864
23.198143 22.402187 -0.225146
27.695972 26.282495 -0.799791
27.785345 25.910254 -0.795812
27.826115 25.497936 -0.790576
23.349005 21.395420 -0.221097
27.728325 25.408329 -0.262565
27.906399 25.127033 -0.786597
27.770645 25.004801 -0.260890
28.034752 24.803053 -0.784084
27.875452 24.662117 -0.259843
28.069038 24.400043 -0.779058
27.938667 24.286713 -0.258446
28.159260 24.050280 -0.775707
28.027882 23.938072 -0.257329
28.184254 23.649397 -0.770681
28.082504 23.564020 -0.255933
28.266125 23.300795 -0.767330
28.194475 23.241732 -0.255095
28.375147 22.977739 -0.764817
28.209711 22.843773 -0.253420
28.449392 22.629667 -0.761466
28.227989 22.453556 -0.251814
28.456705 22.232815 -0.756440
28.320415 22.126335 -0.250906
28.308571 21.721930 -0.747435
28.353758 21.756603 -0.249510
28.329374 21.347713 -0.743037
28.518579 21.490292 -0.249301
28.385998 21.004534 -0.739686
28.608568 21.169228 -0.248463
28.438799 20.661997 -0.736335
28.509064 20.713047 -0.246020
28.552908 20.366592 -0.734660
28.452644 20.295074 -0.243995
28.565758 20.001959 -0.730472
28.456648 19.925560 -0.242529
28.640343 19.683964 -0.727959
28.530554 19.608505 -0.241691
28.698496 19.540112 0.242389
28.711563 19.366194 -0.725445
28.601099 19.291685 -0.240853
28.527027 19.061150 0.239527
28.687723 19.168524 0.722723
28.779425 19.048687 -0.722932
28.634941 18.953054 -0.239736
28.525026 18.701826 0.238131
28.795378 18.879078 0.721257
28.810400 18.709694 -0.719582
28.665062 18.615309 -0.238619
28.619860 18.408913 0.237572
28.732000 18.481043 0.715603
28.837662 18.371616 -0.716231
28.758947 18.321470 -0.238061
28.677931 18.094427 0.236735
28.621609 18.058889 0.708901
28.962969 18.098072 -0.715393
28.858374 18.032713 -0.237572
28.732702 17.780334 0.235897
28.608076 17.703215 0.704712
29.017506 17.781950 -0.712880
28.869692 17.691370 -0.236385
28.826925 17.492607 0.235408
28.693098 17.411398 0.703037
29.068739 17.466261 -0.710367
28.885834 17.356359 -0.235268
28.875351 17.179029 0.234570
28.740839 17.099003 0.700524
29.185595 17.191629 -0.709529
29.079275 17.129002 -0.235618
28.920507 16.865942 0.233733
28.819868 16.807251 0.698849
29.273897 16.901293 -0.708063
29.115065 16.809591 -0.234710
28.997133 16.573227 0.233174
28.861279 16.495581 0.696335
29.315853 16.586111 -0.705550
29.156206 16.495787 -0.233872
29.035959 16.260920 0.232336
28.934345 16.204012 0.694660
29.415754 16.305418 -0.704503
29.229078 16.201942 -0.233314
29.106619 15.968438 0.231778
29.004526 15.912428 0.692985
29.556925 16.048100 -0.704503
29.307837 15.912857 -0.232825
29.209625 15.694898 0.231499
29.071825 15.620855 0.691309
29.625223 15.752010 -0.702828
29.374950 15.618938 -0.232267
29.239279 15.383529 0.230661
29.136251 15.329324 0.689634
29.619665 15.419022 -0.699477
29.439173 15.325063 -0.231708
29.345741 15.114050 0.230451
29.162254 15.019548 0.687121
29.681826 15.123646 -0.697801
29.643064 15.103896 -0.232267
29.333643 14.785374 0.229334
29.185080 14.710491 0.684608
29.776884 14.846207 -0.696964
29.675301 14.795559 -0.231499
29.461552 14.528830 0.229334
29.312340 14.455246 0.684608
29.797474 14.533199 -0.694451
29.686443 14.479046 -0.230591
29.515162 14.236424 0.228776
29.365328 14.164153 0.682932
29.850973 14.238184 -0.692775
29.811665 14.219435 -0.230591
29.593052 13.956989 0.228427
29.415474 13.873238 0.681257
29.901598 13.943344 -0.691100
29.780548 13.886898 -0.229404
29.713720 13.698213 0.228427
29.508181 13.603457 0.680629
29.949356 13.648707 -0.689424
29.873301 13.614047 -0.229195
29.795658 13.421965 0.228148
29.516380 13.296160 0.678116
29.994253 13.354301 -0.687749
29.954426 13.336570 -0.228916
29.838427 13.129222 0.227589
29.631285 13.038077 0.678116
30.082142 13.080088 -0.687121
29.950453 13.022827 -0.228008
29.878363 12.836758 0.227031
29.661261 12.743484 0.676231
30.112312 12.781919 -0.685236
30.035341 12.749246 -0.227799
29.952358 12.560066 0.226751
29.845098 12.515088 0.677906
30.084156 12.461266 -0.682095
30.025352 12.436909 -0.226891
29.986782 12.267917 0.226193
29.879148 12.223883 0.676231
30.219564 12.209496 -0.682723
30.095655 12.159433 -0.226612
30.018393 11.976125 0.225634
29.947538 11.947856 0.675393
30.250544 11.916006 -0.681047
30.135490 11.870686 -0.226123
30.047201 11.684717 0.225076
29.976118 11.657075 0.673718
30.250706 11.612158 -0.678744
30.163248 11.578587 -0.225565
30.110620 11.407893 0.224797
30.011257 11.370248 0.672252
30.350887 11.347732 -0.678744
30.263142 11.314925 -0.225565
30.171497 11.130854 0.224517
30.062437 11.090619 0.671205
30.401785 11.065345 -0.677697
30.360729 11.050402 -0.225565
30.192190 10.840104 0.223959
30.129847 10.817720 0.670576
30.468916 10.789609 -0.677068
30.380594 10.758333 -0.225006
30.285637 10.576219 0.223959
30.175907 10.537898 0.669529
30.514647 10.507035 -0.676021
30.397682 10.466761 -0.224448
30.338902 10.298670 0.223680
30.228848 10.261312 0.668691
30.614655 10.243521 -0.676231
30.487862 10.201097 -0.224448
30.351645 10.008471 0.223121
30.250778 9.975210 0.667225
30.588778 9.938896 -0.673718
30.499640 9.909933 -0.223889
30.437828 9.743225 0.223121
30.289066 9.695606 0.666178
30.674345 9.671584 -0.673718
30.584957 9.643400 -0.223889
30.454844 9.456480 0.222632
30.334330 9.419060 0.665341
30.719334 9.391843 -0.672880
30.601006 9.355666 -0.223400
30.488329 9.175945 0.222283
30.377075 9.142462 0.664503
30.800121 9.123412 -0.672880
30.643131 9.076909 -0.223121
30.538441 8.901144 0.222074
30.417307 8.865836 0.663665
30.840122 8.843263 -0.672042
30.721174 8.809155 -0.223121
30.605331 8.631596 0.222004
30.532007 8.610916 0.664503
30.887217 8.565784 -0.671414
30.710154 8.516680 -0.222493
30.640898 8.353668 0.221725
30.577051 8.336261 0.663875
30.922161 8.285568 -0.670576
30.792965 8.250950 -0.222563
30.712631 8.085960 0.221725
30.609961 8.058929 0.663037
31.022327 8.022920 -0.671205
30.854113 7.979416 -0.222493
30.830484 7.829946 0.222074
30.717882 7.801348 0.663875
31.023252 7.734965 -0.669739
30.932274 7.712282 -0.222563
30.810219 7.539213 0.221446
30.707100 7.513979 0.662199
31.040962 7.452276 -0.668691
30.920610 7.423382 -0.222004
30.913773 7.279227 0.221725
30.810429 7.254893 0.663037
31.104813 7.181112 -0.668691
31.013443 7.160017 -0.222214
30.937105 7.000352 0.221446
30.833561 6.976923 0.662199
31.166294 6.909401 -0.668691
31.084507 6.891269 -0.222283
31.006788 6.732234 0.221515
30.893270 6.707587 0.662199
31.225403 6.637164 -0.668691
31.133680 6.617668 -0.222214
31.064356 6.461395 0.221515
30.901688 6.427560 0.661152
31.282133 6.364422 -0.668691
31.239239 6.355695 -0.222563
31.119558 6.190065 0.221515
31.005629 6.167403 0.662199
31.297226 6.083564 -0.667854
31.205168 6.065670 -0.221934
31.133095 5.910803 0.221236
31.018980 5.889137 0.661362
31.349123 5.810216 -0.667854
31.266745 5.794949 -0.222004
31.222851 5.646011 0.221515
31.108543 5.625341 0.662199
31.438015 5.543370 -0.668691
31.345667 5.527087 -0.222214
31.221655 5.364861 0.221166
31.156448 5.353657 0.662199
31.485193 5.268814 -0.668691
31.392706 5.253337 -0.222214
31.267282 5.092200 0.221166
31.201981 5.081565 0.662199
31.490473 4.987601 -0.667854
31.397848 4.972930 -0.221934
31.310530 4.819151 0.221166
31.245136 4.809086 0.662199
31.572351 4.718519 -0.668691
31.479609 4.704659 -0.222214
31.390978 4.551475 0.221446
31.325491 4.541980 0.663037
31.582623 4.438648 -0.668063
31.489758 4.425597 -0.222004
31.439409 4.278716 0.221515
31.324308 4.263051 0.662199
31.768839 4.182447 -0.671205
31.606491 4.161074 -0.222563
31.505310 4.007982 0.221725
31.399988 3.994583 0.663037
31.724741 3.895308 -0.669529
31.562199 3.875351 -0.222004
31.539085 3.732897 0.221725
31.473366 3.725118 0.663875
31.836994 3.627367 -0.671205
31.664364 3.607698 -0.222493
31.570459 3.457528 0.221725
31.425167 3.441616 0.662199
31.867435 3.349402 -0.671205
31.734421 3.335422 -0.222772
31.639227 3.185903 0.222004
31.533585 3.175265 0.663875
31.935259 3.075016 -0.672042
31.812088 3.063156 -0.223121
31.665825 2.909681 0.222004
31.550137 2.899050 0.663665
31.921038 2.792729 -0.671205
31.787798 2.781072 -0.222772
31.690010 2.633237 0.222004
31.614088 2.626928 0.664503
32.023930 2.520338 -0.672880
31.890608 2.509845 -0.223331
31.751673 2.359557 0.222283
31.635809 2.350947 0.664503
32.134464 2.247061 -0.674765
32.001076 2.237733 -0.223959
31.820946 2.085655 0.222632
31.655119 2.074786 0.664503
32.152851 1.966552 -0.674765
32.059307 1.960831 -0.224238
31.907820 1.811857 0.223121
31.761856 1.803569 0.666388
32.238674 1.689557 -0.676231
32.115143 1.683083 -0.224517
31.962370 1.535263 0.223400
31.816330 1.528248 0.667225
32.252193 1.408161 -0.676231
32.128609 1.402765 -0.224517
32.054485 1.259424 0.223959
31.908377 1.253683 0.668901
32.303219 1.128053 -0.677068
32.219574 1.125132 -0.225076
32.064255 0.979652 0.223959
31.958075 0.976407 0.669739
32.391788 0.848209 -0.678744
32.258156 0.844710 -0.225285
32.121571 0.700895 0.224308
32.005360 0.698359 0.670576
32.397957 0.565508 -0.678744
32.304291 0.563874 -0.225565
32.206455 0.421606 0.224866
32.050224 0.419560 0.671414
32.481636 0.283463 -0.680419
32.357979 0.282384 -0.225914
32.238907 0.140670 0.225076
32.092655 0.140032 0.672252
32.612846 0.000000 -0.683142
32.439209 0.000000 -0.226472
32.278908 -0.140844 0.225355
32.162640 -0.140337 0.673718
32.611603 -0.284597 -0.683142
32.457973 -0.283256 -0.226612
32.316444 -0.423045 0.225634
32.200176 -0.421523 0.674555
32.717838 -0.571092 -0.685445
32.544250 -0.568062 -0.227240
32.361507 -0.706131 0.225983
32.195271 -0.702503 0.674555
32.791565 -0.858677 -0.687121
32.618023 -0.854133 -0.227799
32.474056 -0.992172 0.226821
32.317825 -0.987399 0.677278
32.832779 -1.146546 -0.688168
32.659298 -1.140488 -0.228148
32.544098 -1.278661 0.227380
32.417870 -1.273702 0.679582
32.851490 -1.434327 -0.688796
32.718033 -1.428500 -0.228636
32.571651 -1.564529 0.227659
32.455452 -1.558947 0.680629
32.917595 -1.725138 -0.690472
32.794193 -1.718671 -0.229265
32.636627 -1.853242 0.228217
32.480541 -1.844379 0.681466
32.991100 -2.017822 -0.692356
32.847816 -2.009058 -0.229753
32.699039 -2.143208 0.228776
32.582924 -2.135598 0.683979
33.091915 -2.314012 -0.694870
32.878910 -2.299117 -0.230102
32.758869 -2.434405 0.229334
32.592960 -2.422075 0.684608
33.140232 -2.608193 -0.696335
27.883099 -2.194448 -0.195266
32.977222 -2.595364 -0.230940
32.776241 -2.723495 0.229614
32.620399 -2.710546 0.685655
27.409266 -2.398000 -0.576335
33.205849 -2.905135 -0.698220
27.852924 -2.436815 -0.195196
33.033012 -2.890014 -0.231499
32.870720 -3.020395 0.230451
32.714973 -3.006084 0.688168
27.078791 -2.607391 -0.569843
33.258846 -3.202462 -0.699896
27.920183 -2.688408 -0.195824
33.076210 -3.184877 -0.231987
32.922707 -3.315142 0.231010
32.806866 -3.303478 0.690681
27.194208 -2.858227 -0.572775
33.259460 -3.495710 -0.700524
33.136662 -3.482804 -0.232616
33.011806 -3.615381 0.231848
32.856297 -3.598350 0.692356
26.095407 -2.973196 -0.550157
33.277359 -3.791476 -0.701571
27.670301 -3.152633 -0.194428
33.184490 -3.780895 -0.233174
33.058445 -3.912724 0.232406
32.903072 -3.894335 0.694032
26.614250 -3.267819 -0.561676
33.352161 -4.095130 -0.703875
26.708767 -3.279424 -0.187866
33.309036 -4.089836 -0.234291
26.892599 -3.421171 0.189262
33.132156 -4.214943 0.233174
32.986847 -4.196457 0.696545
26.594631 -3.501250 -0.561885
33.444012 -4.402988 -0.706597
26.897243 -3.541089 -0.189402
33.391048 -4.396015 -0.235129
33.183289 -4.516047 0.233802
32.988598 -4.489551 0.697383
26.860081 -3.774938 -0.568168
33.473621 -4.704411 -0.708063
33.391026 -4.692802 -0.235408
33.261372 -4.822670 0.234640
33.106472 -4.800210 0.700733
26.796452 -4.004756 -0.567540
33.470844 -5.002251 -0.708901
26.989586 -4.033620 -0.190519
33.427921 -4.995836 -0.235967
33.336620 -5.130997 0.235478
33.181900 -5.107183 0.703246
26.572865 -4.208728 -0.563561
33.504917 -5.306657 -0.710576
33.412682 -5.292049 -0.236176
33.409012 -5.441003 0.236316
33.205143 -5.407801 0.704712
33.526356 -5.610388 -0.712042
33.473717 -5.601579 -0.236944
33.517944 -5.759436 0.237433
33.324196 -5.726144 0.708273
33.121666 -5.840243 -0.704503
33.581127 -5.921258 -0.238061
33.466408 -6.051713 0.237433
33.341824 -6.029184 0.709739
33.030121 -6.121771 -0.703665
33.528175 -6.214080 -0.238061
33.490917 -6.358449 0.237991
33.494209 -6.359075 0.714137
33.014698 -6.417407 -0.704503
33.600281 -6.531233 -0.238969
33.512615 -6.666074 0.238550
33.506084 -6.664774 0.715603
33.075001 -6.729185 -0.707016
33.522408 -6.820211 -0.238829
25.640575 -5.333248 0.182839
33.609814 -6.990851 0.239667
25.792191 -5.364783 0.551833
33.573895 -6.983380 0.718325
25.103542 -5.335923 -0.537592
33.200829 -7.057054 -0.710995
33.383366 -7.095853 -0.238270
25.553970 -5.548311 0.182560
33.518211 -7.277517 0.239457
33.589836 -7.293068 0.720000
24.860806 -5.511508 -0.533403
33.069653 -7.331366 -0.709529
25.461180 -5.644608 -0.182071
33.329933 -7.389068 -0.238340
33.648491 -7.613876 0.240853
33.563919 -7.594740 0.720838
25.444963 -5.874433 -0.547016
33.851933 -7.815335 -0.727749
25.128391 -5.801346 -0.180047
33.468796 -7.726881 -0.239806
33.843571 -7.969103 0.242738
33.652073 -7.924011 0.724189
25.752430 -6.182611 -0.554765
34.336575 -8.243482 -0.739686
25.407408 -6.099779 -0.182420
34.139076 -8.196067 -0.245112
25.671946 -6.281885 0.184515
33.850445 -8.283152 0.243297
33.746735 -8.257773 0.727749
25.561686 -6.373244 -0.551833
34.534950 -8.610531 -0.745550
25.459940 -6.347876 -0.183188
34.270008 -8.544473 -0.246578
26.120136 -6.633669 0.188145
33.466728 -8.499466 0.241063
33.828430 -8.591327 0.731100
25.195356 -6.515962 -0.545131
34.545612 -8.934102 -0.747435
25.055050 -6.479677 -0.180675
34.174778 -8.838199 -0.246438
25.548731 -6.726419 0.184445
33.091507 -8.712266 0.238899
33.897194 -8.924387 0.734241
24.983021 -6.694180 -0.541780
33.896561 -9.082556 -0.735079
25.412889 -6.809363 -0.183677
33.381584 -8.944569 -0.241272
25.421526 -6.930704 0.183956
33.313293 -9.082247 0.241063
33.895191 -9.240890 0.735917
25.463167 -7.061561 -0.553508
33.700401 -9.345948 -0.732566
25.198322 -6.988113 -0.182560
34.535675 -9.577590 -0.250208
25.167591 -7.097995 0.182560
34.127831 -9.625044 0.247555
33.928730 -9.568892 0.738430
33.559898 -9.623145 -0.731309
34.787212 -9.975073 -0.252652
25.056690 -7.303360 0.182211
34.608955 -10.087590 0.251674
33.997509 -9.909369 0.741781
25.067636 -7.425373 -0.547644
26.639757 -7.891056 -0.581990
33.599262 -9.952555 -0.734032
26.357311 -7.807392 -0.191915
34.622135 -10.255544 -0.252093
26.457052 -7.962669 0.192892
35.007957 -10.536199 0.255235
26.289143 -7.912134 0.575079
34.263962 -10.312283 0.749529
26.474272 -8.093997 -0.579896
28.204803 -8.623074 -0.617801
33.654545 -10.289227 -0.737173
26.297739 -8.040026 -0.191985
34.158375 -10.443263 -0.249371
26.510708 -8.231793 0.193800
35.019730 -10.873915 0.256003
26.276384 -8.159035 0.576335
34.888775 -10.833253 0.765236
26.583797 -8.381839 -0.583875
35.251183 -11.114655 -0.774241
26.646202 -8.401515 -0.195056
33.913349 -10.692838 -0.248254
26.580719 -8.508555 0.194847
35.123501 -11.243121 0.257469
26.632668 -8.525185 0.585759
34.830997 -11.149490 0.766074
26.528658 -8.619683 -0.584294
35.190884 -11.434211 -0.775079
26.676485 -8.667715 -0.195824
33.733154 -10.960566 -0.247625
26.657404 -8.790294 0.195964
28.423801 -9.372765 0.208949
34.682167 -11.436463 0.254956
34.580456 -11.402925 0.762723
26.547239 -8.882582 -0.586388
35.203533 -11.778938 -0.777592
33.712086 -11.279905 -0.248184
34.439011 -11.690469 0.253908
28.458477 -9.660351 0.629529
33.911598 -11.511436 0.750157
35.203388 -12.121499 -0.779896
34.075661 -11.733191 -0.251605
34.222393 -11.950994 0.253071
33.724903 -11.777264 0.748273
35.414452 -12.367280 0.785760
27.377729 -9.694963 -0.608377
35.369576 -12.525023 -0.785969
27.156839 -9.616741 -0.201130
34.273609 -12.136922 -0.253839
33.890923 -12.168084 0.251395
33.771400 -12.125171 0.751623
35.371048 -12.699504 0.787226
27.273294 -9.926667 -0.607958
35.709885 -12.997334 -0.796021
35.425549 -12.893846 -0.263194
33.755302 -12.452989 0.251186
35.324535 -13.031910 0.788692
35.819855 -13.392494 -0.801048
35.667606 -13.335572 -0.265846
33.823017 -12.814395 0.252512
34.770050 -13.173194 0.778849
35.925629 -13.790557 -0.806074
35.727253 -13.714407 -0.267173
33.886982 -13.177926 0.253839
35.639111 -13.859293 0.266963
34.392864 -13.374654 0.772985
27.469206 -10.820408 -0.618430
35.878334 -14.132852 -0.807749
35.792290 -14.098959 -0.268569
35.674706 -14.232764 0.268150
34.079834 -13.596476 0.768587
27.290306 -11.025999 -0.616545
36.059544 -14.569000 -0.814660
27.026751 -10.919517 -0.203504
35.973858 -14.534382 -0.270873
35.817543 -14.653344 0.270175
33.922874 -13.878214 0.767749
35.718029 -14.612631 0.808377
36.078819 -14.944337 -0.818011
27.059772 -11.208525 -0.204481
35.947277 -14.889850 -0.271641
35.863522 -15.038823 0.271501
33.837353 -14.189179 0.768587
35.727451 -14.981763 0.811519
36.278343 -15.399243 -0.825550
36.046093 -15.300658 -0.273386
35.914673 -15.430161 0.272897
33.850029 -14.543121 0.771728
35.788254 -15.375848 0.815917
26.038794 -11.321990 -0.594765
36.390133 -15.822880 -0.831205
36.204651 -15.742229 -0.275620
29.499769 -12.980209 0.225006
36.099007 -15.883943 0.275341
35.918095 -15.804340 0.821990
25.802000 -11.487790 -0.591623
36.506405 -16.253698 -0.837068
36.312546 -16.167387 -0.277505
36.114014 -16.268177 0.276528
35.970242 -16.203411 0.826388
30.049429 -13.694314 -0.691728
36.572422 -16.667011 -0.841885
30.555756 -13.925059 -0.234431
36.388466 -16.583179 -0.279181
32.092999 -14.795074 0.246718
36.179543 -16.678997 0.278133
36.072617 -16.629704 0.832042
25.815046 -12.037754 -0.596650
36.633987 -17.082708 -0.846702
30.106812 -14.039037 -0.231917
36.459873 -17.001518 -0.280856
36.466743 -17.198832 0.281484
36.333038 -17.135773 0.841466
25.943636 -12.374479 -0.602095
36.636925 -17.474916 -0.850262
25.650848 -12.234827 -0.198407
36.544788 -17.430969 -0.282671
36.576466 -17.642391 0.283509
36.218140 -17.469557 0.842304
26.158157 -12.758185 -0.609634
36.797543 -17.947361 -0.857592
25.677919 -12.523958 -0.199455
30.531290 -14.891105 -0.237153
36.714844 -17.907024 -0.285184
31.416687 -15.492995 0.244554
36.519768 -18.009556 0.284277
36.243645 -17.873388 0.846493
29.499516 -14.707915 -0.690472
30.734253 -15.323533 -0.719372
37.006367 -18.450695 -0.866179
28.851980 -14.385067 -0.225076
31.438278 -15.674547 -0.245252
36.852497 -18.373978 -0.287488
31.298149 -15.775566 0.244693
36.575527 -18.435583 0.285952
28.979740 -14.606991 0.679791
36.434479 -18.364489 0.854660
36.995384 -18.850090 -0.869739
31.309206 -15.952837 -0.245321
36.833313 -18.767509 -0.288605
36.662174 -18.882259 0.287907
28.824503 -14.845594 0.679163
36.450596 -18.773291 0.858849
29.335882 -15.271295 -0.692775
28.525574 -14.849474 -0.224517
36.934231 -19.226744 -0.290700
27.540144 -14.489571 0.217257
36.770340 -19.345812 0.290071
28.481504 -14.984844 0.674137
36.568516 -19.239628 0.865550
31.311283 -16.648504 -0.742828
37.172768 -19.765112 -0.881885
28.068220 -14.924137 -0.221934
29.719292 -15.802028 -0.234989
30.902412 -16.431105 -0.244344
29.130346 -15.652300 0.230870
36.908424 -19.831612 0.292515
36.610596 -19.671583 0.870576
27.298859 -14.822071 -0.650681
29.310909 -15.914525 -0.698639
37.236099 -20.217554 -0.887540
29.334200 -15.927172 -0.233034
37.058815 -20.121294 -0.294400
30.526882 -16.747622 0.243087
36.777790 -20.176987 0.292864
36.621609 -20.091303 0.874974
27.728107 -15.369942 -0.664084
29.704315 -16.465370 -0.711414
27.567341 -15.280827 -0.220049
29.561426 -16.386166 -0.235967
36.731186 -20.570454 0.293911
36.471058 -20.424774 0.875603
27.070827 -15.315937 -0.651519
37.382278 -21.149878 -0.899686
26.936852 -15.240138 -0.216070
27.139233 -15.511350 0.218234
36.706551 -20.979523 0.295168
36.543156 -20.886133 0.881676
29.187313 -16.851303 -0.705969
37.265560 -21.515280 -0.901362
27.365736 -15.799615 -0.220608
37.082306 -21.409479 -0.298938
28.834127 -16.815565 0.233034
36.798496 -21.460249 0.297402
36.635864 -21.365406 0.888377
26.213625 -15.441005 -0.637278
28.591200 -16.841503 -0.695079
37.205601 -21.915775 -0.904503
26.873558 -15.829736 -0.217746
36.833748 -21.696735 -0.298449
36.644196 -21.801006 0.297681
28.611958 -17.022326 0.697383
36.680012 -21.822315 0.894032
28.066072 -16.863798 -0.685864
37.158623 -22.327152 -0.908063
28.354403 -17.037045 -0.230940
37.028725 -22.249104 -0.301590
27.108595 -16.449900 0.221376
36.751766 -22.301519 0.300124
36.633488 -22.229746 0.897592
26.553917 -16.272261 -0.652356
37.175484 -22.781164 -0.913299
27.795391 -17.033037 -0.227589
37.046310 -22.702009 -0.303336
27.032038 -16.727934 0.221934
36.759830 -22.747673 0.301800
27.732407 -17.161333 0.683142
36.735661 -22.732718 0.904922
26.639828 -16.646412 -0.658011
37.288975 -23.300737 -0.921048
26.568699 -16.601967 -0.218723
37.169041 -23.225796 -0.305989
27.037260 -17.059240 0.223191
36.932034 -23.302378 0.304872
27.040443 -17.061249 0.669739
36.637348 -23.116446 0.907435
27.142817 -17.291882 -0.674137
37.370911 -23.807896 -0.928168
37.411934 -23.834030 -0.309689
27.274231 -17.543375 0.226402
37.240299 -23.953766 0.309130
26.999840 -17.366880 0.672461
28.370432 -18.248476 0.706597
36.821022 -23.684076 0.917069
26.856728 -17.440962 -0.670786
37.539047 -24.378141 -0.937592
27.750933 -18.021666 -0.231010
37.630230 -24.437359 -0.313249
37.163651 -24.365557 0.310247
26.964314 -17.678579 0.675393
36.888855 -24.185392 0.923980
26.361687 -17.448420 -0.662199
37.841778 -25.046925 -0.950576
27.742704 -18.362495 -0.232267
37.590656 -24.880713 -0.314715
28.302536 -18.911150 0.237642
37.357018 -24.961163 0.313668
37.092037 -24.784107 0.934451
37.845554 -25.527147 -0.956231
25.873632 -17.451984 -0.217885
27.573118 -18.598303 -0.232197
37.455006 -25.263720 -0.315413
25.615393 -17.440899 0.216349
37.460136 -25.505697 0.316391
28.164000 -19.176186 0.713718
36.932194 -25.146236 0.935917
30.634291 -21.054365 -0.778639
37.950928 -26.082949 -0.964608
37.480347 -25.759527 -0.317508
28.321480 -19.647310 0.240644
37.499054 -26.014019 0.318625
27.929869 -19.375639 0.712042
37.138512 -25.763903 0.946807
38.090405 -26.671190 -0.974032
25.491390 -17.849264 -0.217257
37.770180 -26.446964 -0.321906
27.658976 -19.547432 0.236455
37.540096 -26.530718 0.320929
37.018406 -26.162024 0.949529
31.784239 -22.671476 -0.817801
38.491077 -27.455420 -0.990367
37.920578 -27.048485 -0.325187
37.436996 -26.950781 0.322046
37.243076 -26.811178 0.961257
30.938114 -22.477856 -0.801048
38.508850 -27.978319 -0.997069
37.877254 -27.519434 -0.326863
37.845524 -27.749485 0.327631
37.967148 -27.838665 0.986179
38.689182 -28.628489 -1.008168
38.576149 -28.544849 -0.335031
38.395145 -28.671017 0.334542
38.107285 -28.456059 0.996231
38.869049 -29.289930 -1.019477
38.676975 -29.145191 -0.338102
38.525558 -29.295515 0.337893
38.239510 -29.077997 1.006283
30.688108 -23.547813 -0.810262
39.048218 -29.962753 -1.030995
29.805559 -22.870609 -0.262286
38.833698 -29.798145 -0.341733
38.647964 -29.924452 0.341244
38.363750 -29.704388 1.016336
39.147667 -30.585510 -1.040629
38.950424 -30.431406 -0.345084
38.856533 -30.632023 0.345433
38.479942 -30.335140 1.026388
39.309612 -31.268276 -1.052147
39.129456 -31.124973 -0.349063
38.993275 -31.295410 0.349063
38.712772 -31.070284 1.039791
39.478127 -31.968756 -1.064084
39.283772 -31.811371 -0.352903
39.090389 -31.938187 0.352414
38.842758 -31.735865 1.050681
39.629662 -32.668171 -1.075812
39.351894 -32.439198 -0.356044
39.179226 -32.585018 0.355765
38.933300 -32.380482 1.060734
39.771965 -33.372639 -1.087540
39.457989 -33.109184 -0.359605
39.351307 -33.313339 0.359954
39.076561 -33.080753 1.072461
39.866943 -34.049587 -1.098220
39.562958 -33.789959 -0.363235
39.483326 -34.021008 0.363863
39.240833 -33.812065 1.085027
39.968201 -34.743824 -1.109320
39.719398 -34.527546 -0.367424
39.545811 -34.680744 0.367214
39.365215 -34.522366 1.096755
40.135223 -35.508644 -1.122514
39.895901 -35.296909 -0.371892
39.681824 -35.417381 0.371333
39.450321 -35.210758 1.107645
40.247326 -36.238857 -1.134451
40.002510 -36.018421 -0.375801
39.844971 -36.192623 0.375801
39.570782 -35.943569 1.119791
40.364452 -36.987206 -1.146807
40.092163 -36.737701 -0.379641
39.968201 -36.946224 0.379990
39.681427 -36.681133 1.131938
40.478863 -37.747150 -1.159372
40.296608 -37.577194 -0.384667
40.081276 -37.704700 0.384179
39.796745 -37.437038 1.144503
40.641064 -38.566929 -1.173613
40.344337 -38.285347 -0.388298
40.184128 -38.467934 0.388368
39.930744 -38.225372 1.157906
40.792004 -39.392380 -1.187854
40.497845 -39.108315 -0.393045
40.312492 -39.270691 0.392905
39.989529 -38.956074 1.169425
40.874550 -40.167309 -1.200420
40.590096 -39.887775 -0.397304
40.500885 -40.148983 0.398141
40.187675 -39.838493 1.185341
41.144588 -41.144588 -1.218849
40.799068 -40.799068 -0.402819
40.599541 -40.955391 0.402609
40.373428 -40.727299 1.201257
41.281509 -42.008369 -1.233718
40.946121 -41.667076 -0.407845
40.826725 -41.909805 0.408474
40.546688 -41.622337 1.217173
41.448120 -42.920784 -1.249844
41.157505 -42.619846 -0.413640
41.012638 -42.842361 0.414059
40.707359 -42.523460 1.233090
41.677612 -43.919037 -1.268273
41.341568 -43.564922 -0.419295
41.130531 -43.723045 0.419085
40.773148 -43.343132 1.246493
41.858696 -44.887959 -1.285655
41.532688 -44.538357 -0.425159
41.290443 -44.667751 0.424670
40.990574 -44.343353 1.264922
42.005741 -45.841221 -1.302409
41.730190 -45.540512 -0.431232
41.571426 -45.766571 0.431651
41.139824 -45.291412 1.281676
42.192810 -46.859863 -1.320838
41.866482 -46.497440 -0.436817
41.703152 -46.724434 0.437236
41.328869 -46.305084 1.300105
42.497753 -48.034973 -1.343456
42.174740 -47.669868 -0.444357
41.926777 -47.808327 0.443938
41.496716 -47.317936 1.318325
42.627926 -49.037819 -1.361048
42.281975 -48.639847 -0.449942
42.056286 -48.808723 0.449803
41.656517 -48.344769 1.336755
42.284531 -49.508827 -0.454550
42.087490 -49.715752 0.454759
41.749836 -49.316895 1.353509
42.291466 -50.849960 0.461741
41.931606 -50.417274 1.373613
42.428185 -51.929504 0.468163
42.097305 -51.524529 1.393718
42.146702 -52.513699 1.410472
0.157744 -0.219120 0.001885
0.157713 -0.219077 0.005654
0.170995 -0.246488 0.002094
0.136769 -0.197152 0.005026
0.123814 -0.181845 0.001536
0.129417 -0.190074 0.004817
0.155556 -0.232806 0.001955
0.138862 -0.207822 0.005236
0.120622 -0.183978 0.001536
0.126080 -0.192304 0.004817
0.151469 -0.235485 0.001955
0.140623 -0.218622 0.005445
0.128064 -0.202970 0.001676
0.117369 -0.186019 0.004607
0.147336 -0.238093 0.001955
0.157830 -0.255050 0.006283
0.140038 -0.230776 0.005654
0.117595 -0.197659 0.001606
0.102236 -0.171844 0.004188
0.115843 -0.198639 0.004817