# This PCD file was generated using the MATLAB® pcwrite function
# from Computer Vision System Toolbox®.
# .PCD v.7 - Point Cloud Data file format
VERSION .7
FIELDS x y z
SIZE 4 4 4
TYPE F F F
COUNT 1 1 1
WIDTH 875
HEIGHT 1
VIEWPOINT 0 0 0 1 0 0 0
POINTS 875
DATA ascii
38.367950 40.431381 -0.389135
38.545086 39.914604 -1.162304
38.427563 39.792908 -0.386203
38.632652 39.312874 -1.154556
38.528042 39.206421 -0.383760
38.607090 38.607090 -0.381177
38.778053 38.107086 -1.138849
38.685760 38.016392 -0.378664
38.793049 37.462013 -0.376499
38.828342 36.846722 -0.373707
38.804428 36.185715 -1.111414
38.797367 36.179131 -0.370356
38.875481 35.622814 -1.104503
38.816708 35.568958 -0.367563
38.976826 35.094894 -1.098639
38.858097 34.987988 -0.365050
39.041988 34.541431 -1.091938
38.952236 34.462029 -0.363095
39.138199 34.022320 -1.086283
38.979801 33.884624 -0.360582
39.281559 33.549622 -1.082095
39.152348 33.439266 -0.359465
39.327755 32.999905 -1.075393
39.228180 32.916351 -0.357510
35.533234 29.291338 -0.964608
35.501583 29.265245 -0.321208
35.608788 28.835428 -0.959791
35.569103 28.803293 -0.319532
35.671280 28.374218 -0.954765
35.631283 28.342402 -0.317857
35.759964 27.938745 -0.950576
35.719658 27.907255 -0.316461
35.812046 27.479551 -0.945550
35.771431 27.448383 -0.314785
35.890793 27.045652 -0.941362
35.817928 26.990746 -0.313110
35.964706 26.612482 -0.937173
35.891335 26.558189 -0.311713
35.993362 26.150707 -0.931938
35.959930 26.126417 -0.310317
36.065548 25.725306 -0.927959
36.023735 25.695480 -0.308921
36.124870 25.294909 -0.923770
36.082767 25.265427 -0.307525
36.212402 24.888094 -0.920419
36.137054 24.836308 -0.306128
36.262440 24.459324 -0.916231
36.219769 24.430542 -0.305011
36.341110 24.053658 -0.912880
36.264812 24.003155 -0.303615
36.348396 23.604923 -0.907854
36.313549 23.582296 -0.302289
36.215607 23.294661 0.901990
36.687912 23.372778 -0.911205
36.442055 23.216150 -0.301660
36.348495 22.934193 0.300055
36.273766 22.887043 0.898430
36.483505 22.797424 -0.901152
36.439739 22.770077 -0.299985
36.453712 22.558241 0.299287
36.344585 22.490711 0.895288
36.544666 22.394602 -0.897802
36.466530 22.346720 -0.298589
36.444004 22.114765 0.297611
36.368523 22.068960 0.891100
36.601585 21.992453 -0.894451
36.488724 21.924637 -0.297192
36.498100 21.714088 0.296494
36.430840 21.674072 0.887959
36.654282 21.591021 -0.891100
36.575268 21.544479 -0.296355
36.513435 21.294006 0.295098
36.480408 21.274746 0.884608
36.702766 21.190351 -0.887749
36.657963 21.164484 -0.295517
36.628414 20.934864 0.294539
36.560513 20.896055 0.882095
27.619032 15.626096 -0.664712
27.537384 15.579902 -0.220887
36.670113 20.536251 0.293422
36.567013 20.478510 0.877906
27.771830 15.394176 -0.665131
27.462389 15.222651 -0.219212
27.537315 15.107489 0.219281
36.604080 20.081686 0.874555
27.720598 15.051057 -0.660733
36.840721 20.002878 -0.878116
27.523882 14.944248 -0.218653
27.597633 14.828744 0.218723
27.715551 14.892103 0.659058
36.619404 19.676315 0.870786
28.583572 15.198155 -0.678116
27.653244 14.703491 -0.218653
27.655190 14.550099 0.218164
27.826757 14.640365 0.658639
26.214291 13.646296 -0.619058
26.574198 13.833652 -0.209159
26.856554 13.832034 0.210904
27.962345 14.401554 0.658849
26.296743 13.398860 -0.618220
26.328602 13.415092 -0.206296
26.627983 13.421608 0.208181
27.819120 14.021992 0.652566
26.233721 13.079651 -0.614032
28.094776 14.007539 -0.657592
26.417818 13.171438 -0.206087
26.376385 13.007394 0.205319
27.321718 13.473580 0.638116
28.018251 13.665415 -0.652985
26.271111 12.813276 -0.204062
28.086630 13.698765 -0.218164
26.137627 12.607294 0.202596
26.096510 12.587462 0.606911
27.405504 13.071754 -0.636021
25.849413 12.329537 -0.199943
25.595457 12.071601 0.197570
26.133020 12.325133 0.605236
25.987207 12.118033 -0.600629
27.092659 12.633514 -0.626178
25.656948 11.964031 -0.197639
25.527283 11.768238 0.196243
27.398012 12.630656 0.210625
27.074890 12.481695 0.624503
27.183680 12.388316 -0.625759
28.612005 13.039242 -0.658639
25.469194 11.606981 -0.195405
27.653049 12.602221 -0.212160
27.078672 12.198052 0.207343
26.818157 12.080699 0.616126
25.719797 11.451192 -0.589739
28.286299 12.593871 -0.648587
27.908134 12.425502 -0.213278
26.662374 11.731725 0.203364
27.879707 12.267365 0.212649
26.391794 11.612667 0.603979
25.992950 11.302057 -0.593718
27.881681 12.123300 -0.636859
27.877947 12.121676 -0.212230
26.543232 11.403872 0.201689
26.409454 11.346396 0.602095
27.811556 11.805305 -0.632880
27.706520 11.760720 -0.210136
26.457300 11.094467 0.200292
26.424482 11.080706 0.600210
28.213161 11.830760 0.640838
27.645651 11.451203 -0.626807
27.863527 11.541451 -0.210555
26.553110 10.863164 0.200292
28.570740 11.688598 0.215512
26.362865 10.785334 0.596650
28.204288 11.538679 0.638325
27.707447 11.194535 -0.625969
41.371140 16.715025 -0.934660
27.953913 11.294113 -0.210485
41.295761 16.684570 -0.310945
26.256805 10.475404 0.197360
28.718092 11.457356 0.215861
26.353834 10.514113 0.594346
28.183187 11.243952 0.635602
27.841290 10.966976 -0.626807
41.403805 16.309391 -0.932147
41.300228 16.268593 -0.309898
28.751741 11.180941 0.215372
26.649580 10.363455 0.598953
41.479214 15.922379 -0.930681
28.725569 11.026713 -0.214813
41.496639 15.929068 -0.310317
28.810814 10.915441 0.215093
26.645508 10.095080 0.596859
28.580814 10.828301 0.640210
28.477955 10.647470 -0.636859
28.698936 10.730093 -0.213906
28.764246 10.611691 0.214045
28.646080 10.568097 0.639582
41.186947 15.194667 0.919582
28.457047 10.357518 -0.634346
28.481390 10.366378 -0.211602
28.921635 10.383927 0.214534
28.793671 10.337984 0.640838
41.101551 14.756965 0.914765
28.386135 10.052057 -0.630786
28.721586 10.170847 -0.212719
41.654312 14.750566 -0.308502
29.124437 10.170709 0.215372
29.335852 10.244538 0.650890
33.630516 11.744302 0.746178
28.444414 9.794197 -0.630157
41.696354 14.357205 -0.307874
29.212082 9.916166 0.215372
29.651348 10.065276 0.655917
33.457172 11.357180 0.740105
28.680500 9.596361 -0.633508
29.150759 9.753708 -0.214604
41.658844 13.938854 -0.306687
29.373478 9.685921 0.215930
29.633610 9.771699 0.653613
29.267099 9.509457 -0.644608
29.367910 9.542212 -0.215581
29.266409 9.368252 0.214534
29.432098 9.421288 0.647330
29.377575 9.262713 -0.645236
29.287933 9.234450 -0.214395
29.461647 9.148085 0.215372
29.799635 9.253033 0.653613
36.674271 11.387664 0.804398
29.380800 8.982612 -0.643561
41.943890 12.823534 -0.918744
29.453468 9.004829 -0.215023
41.942505 12.823111 -0.306198
41.567162 12.510295 0.303057
36.743530 11.058547 0.803770
41.233555 12.409891 0.901990
27.444988 8.129576 -0.599581
29.611446 8.771310 -0.646911
42.044609 12.454181 -0.918535
39.703758 11.760789 -0.289094
41.937752 12.422528 -0.305360
41.674747 12.147081 0.303057
41.724213 12.161499 0.910367
27.082413 7.765757 -0.590157
42.007534 12.045466 -0.915393
29.596527 8.486668 -0.214953
41.813866 11.989933 -0.303685
29.556280 8.335733 0.214395
41.836910 11.799229 0.303475
34.506077 9.731720 0.750995
41.848000 11.802356 0.910786
29.682943 8.231809 -0.645236
29.592371 8.206691 -0.214395
29.618250 8.074862 0.214325
29.660704 8.086436 0.643979
34.599331 9.432860 0.751205
41.930107 11.431459 0.910367
29.550848 7.918126 -0.640838
29.546951 7.917082 -0.213557
29.600555 7.793176 0.213696
29.884834 7.868020 0.647330
29.686577 7.677471 -0.642304
29.527784 7.636404 -0.212928
42.142441 10.898776 -0.303894
29.667435 7.534569 0.213696
42.150826 10.704946 0.303615
29.719793 7.547866 0.642304
30.431501 7.587425 -0.656964
30.194868 7.528426 -0.217257
30.615955 7.491677 0.220049
32.879128 8.045471 0.236316
29.881641 7.311991 0.644398
32.736759 8.010634 0.705969
30.447947 7.309905 -0.655917
30.590012 7.344012 -0.219630
30.767769 7.244848 0.220678
30.898014 7.275517 0.664922
32.747028 7.710902 0.704712
28.786322 6.645846 -0.618849
30.607992 7.066412 -0.658011
30.574987 7.058792 -0.219072
30.839573 6.978283 0.220747
31.184607 7.056356 0.669739
28.970110 6.422519 -0.621571
31.010122 6.874778 -0.665341
42.430279 9.406567 -0.910367
30.918541 6.854475 -0.221097
42.467842 9.414894 -0.303685
30.967699 6.723747 0.221236
31.391550 6.815773 0.672880
33.961102 7.373678 0.727959
42.491192 9.031782 -0.909948
42.450573 9.023148 -0.302987
34.334290 7.141542 0.244833
42.362267 8.811364 0.302079
31.498774 6.551754 0.673927
30.419989 6.189017 -0.650262
42.519405 8.650671 -0.908901
42.449303 8.636409 -0.302428
42.447353 8.443303 0.302149
34.447430 6.852020 0.735707
30.678936 5.963381 -0.654660
42.622719 8.285017 -0.909529
42.513237 8.263736 -0.302358
35.249462 6.692319 0.250488
42.558716 8.080025 0.302428
34.938095 6.633205 0.744922
31.201666 5.782887 -0.664712
42.683563 7.910931 -0.909320
42.623062 7.899717 -0.302638
42.548882 7.694091 0.301870
35.152061 6.356528 0.748273
42.452045 7.676580 0.903665
31.063869 5.477398 -0.660733
42.613132 7.513845 -0.906388
42.572201 7.506628 -0.301800
42.574986 7.315720 0.301590
36.457577 6.264557 0.774870
42.566685 7.314294 0.904713
31.317560 5.240762 -0.665131
42.755966 7.154895 -0.908063
42.714989 7.148037 -0.302358
42.637203 6.943910 0.301590
31.754578 5.171561 0.673927
42.638760 6.944163 0.904922
42.787151 6.776819 -0.907435
42.785618 6.776576 -0.302428
42.745594 6.579176 0.301940
31.936838 4.915550 0.676859
42.658207 6.565726 0.904084
42.884212 6.409088 -0.908273
42.843124 6.402947 -0.302428
42.801380 6.205904 0.301940
42.713879 6.193218 0.904084
42.898907 6.029048 -0.907435
42.897366 6.028832 -0.302428
42.804363 5.825418 0.301590
34.325974 4.671560 0.725655
42.716766 5.813497 0.903037
43.039093 5.666204 -0.909320
42.938431 5.652952 -0.302358
42.903168 5.457973 0.301940
34.286091 4.361742 0.723979
42.805542 5.445553 0.903875
43.086903 5.290406 -0.909320
42.956352 5.274377 -0.302149
42.949165 5.083369 0.301940
42.871292 5.074152 0.904294
43.131428 4.914206 -0.909320
43.000744 4.899316 -0.302149
42.942188 4.702934 0.301590
35.350830 3.871546 0.744922
42.953693 4.704195 0.905131
43.172668 4.537631 -0.909320
35.453842 3.726349 -0.248882
43.071693 4.527018 -0.302358
35.420017 3.566608 0.248533
35.383270 3.562908 0.744922
35.557705 3.423818 -0.748273
35.504917 3.418735 -0.249022
35.449791 3.257378 0.248533
35.413013 3.253999 0.744922
35.586231 3.113392 -0.748273
35.583206 3.113127 -0.249371
35.516727 2.951213 0.248812
35.440060 2.944842 0.744922
35.651913 2.805866 -0.749110
35.599049 2.801706 -0.249301
35.581020 2.644126 0.249091
35.504292 2.638425 0.745760
35.724907 2.498129 -0.750157
35.672020 2.494431 -0.249650
35.602737 2.333527 0.249091
35.565868 2.331110 0.746597
35.745346 2.186279 -0.750157
35.692432 2.183043 -0.249650
35.621746 2.022749 0.249091
35.584858 2.020655 0.746597
35.832954 1.877926 -0.751623
35.750065 1.873582 -0.249929
35.687984 1.714217 0.249440
35.601135 1.710045 0.746597
35.847977 1.565156 -0.751623
35.795025 1.562845 -0.250139
35.731560 1.403897 0.249650
35.704613 1.402838 0.748482
35.900238 1.253664 -0.752461
35.847275 1.251814 -0.250418
35.782429 1.093252 0.249929
35.745476 1.092123 0.749110
35.939793 0.941117 -0.753089
38.368427 1.004713 -0.803980
35.946800 0.941300 -0.251046
35.870586 0.782699 0.250488
35.793625 0.781020 0.749948
35.986622 0.628149 -0.753927
38.565662 0.673166 -0.807959
35.993641 0.628271 -0.251325
35.916046 0.470167 0.250767
35.839066 0.469159 0.750786
36.020725 0.314348 -0.754555
43.748737 0.381789 -0.916440
35.987751 0.314060 -0.251256
35.918781 0.156726 0.250767
35.881786 0.156565 0.751623
35.972111 0.000000 -0.753508
43.290504 0.000000 -0.906807
36.079121 0.000000 -0.251884
36.038780 -0.157250 0.251605
35.921780 -0.156739 0.752461
43.228870 -0.377253 -0.905550
36.067749 -0.314758 -0.251814
36.036034 -0.471738 0.251605
35.959030 -0.470730 0.753299
43.193943 -0.753953 -0.904922
36.063629 -0.629493 -0.251814
36.070534 -0.787062 0.251884
36.033516 -0.786254 0.754974
42.705990 -1.118296 -0.894870
36.096745 -0.945227 -0.252093
36.102272 -1.103024 0.252163
36.065254 -1.101893 0.755812
43.384033 -1.515004 -0.909320
36.207047 -1.264378 -0.252931
43.962132 -1.535191 -0.307106
36.131241 -1.419600 0.252442
36.094227 -1.418146 0.756650
44.118282 -1.926246 -0.925027
36.224606 -1.581600 -0.253141
44.007000 -1.921387 -0.307525
36.157429 -1.736766 0.252722
36.080479 -1.733070 0.756650
43.171272 -2.262511 -0.905550
36.209423 -1.897655 -0.253141
42.011322 -2.201720 -0.293702
44.028503 -2.307436 -0.307804
36.260700 -2.059032 0.253559
36.223686 -2.056930 0.760000
41.892509 -2.562256 -0.879163
36.221428 -2.215398 -0.253350
41.930622 -2.564587 -0.293283
44.056595 -2.694617 -0.308153
36.560661 -2.396312 0.255793
36.483696 -2.391268 0.765864
42.137836 -2.946565 -0.884817
42.076225 -2.942256 -0.294470
44.111206 -3.084556 -0.308711
36.538357 -2.715269 0.255793
36.301914 -2.697698 0.762514
42.349728 -3.332996 -0.889843
38.609669 -3.038647 -0.270384
42.088825 -3.312462 -0.294749
44.222176 -3.480361 -0.309689
36.393684 -3.024082 0.254956
36.356701 -3.021009 0.764189
42.368828 -3.706792 -0.890891
44.220005 -3.868749 -0.309898
36.445572 -3.348878 0.255514
36.368774 -3.341821 0.765027
44.394886 -4.274741 -0.934241
44.304005 -4.265990 -0.310736
36.454758 -3.670801 0.255793
36.417809 -3.667080 0.766702
44.445377 -4.671398 -0.936126
44.394375 -4.666037 -0.311643
36.540619 -4.001849 0.256631
44.353714 -4.857522 0.311504
36.503681 -3.997803 0.769215
44.472458 -5.066997 -0.937592
44.431450 -5.062325 -0.312202
36.494377 -4.319394 0.256561
44.319565 -5.245566 0.311574
36.507118 -4.320902 0.770053
44.664703 -5.484136 -0.942618
44.504684 -5.464488 -0.313040
36.574329 -4.652843 0.257399
44.401058 -5.648528 0.312481
36.547367 -4.649412 0.771728
44.694443 -5.884135 -0.944294
44.643673 -5.877451 -0.314366
36.532337 -4.971833 0.257399
44.429344 -6.046568 0.313040
36.624279 -4.984345 0.774241
39.681240 -5.576835 -0.839372
44.740398 -6.287853 -0.946388
39.906830 -5.608539 -0.281345
44.620392 -6.270987 -0.314576
44.493641 -6.451271 0.313877
36.618965 -5.309497 0.775079
39.809048 -5.949502 -0.843142
39.975048 -5.974311 -0.282183
44.761768 -6.689691 -0.315972
38.120174 -5.867256 0.269267
44.534485 -6.854513 0.314576
36.650288 -5.641019 0.776754
38.511398 -6.099606 -0.816754
40.002480 -6.335770 -0.848377
38.479401 -6.094538 -0.271990
38.324135 -6.241482 0.271082
36.678608 -5.973491 0.778430
38.220047 -6.395842 -0.811728
38.937607 -6.515921 -0.275620
38.662422 -6.643419 0.273875
36.782738 -6.320430 0.781781
40.379230 -6.938421 0.858220
37.335720 -6.583295 -0.794137
38.081589 -6.714811 -0.269965
38.573456 -6.975217 0.273665
36.804890 -6.655408 0.783456
39.116879 -7.073483 0.832671
38.299210 -7.098339 -0.815917
38.798294 -7.190839 -0.275481
45.022144 -8.344361 -0.319672
38.638832 -7.335812 0.274573
37.265995 -7.075170 0.794555
40.218258 -7.817638 -0.858220
41.710007 -8.107604 -0.890053
39.018730 -7.584473 -0.277505
37.347393 -7.428858 0.265846
39.730644 -7.902916 0.282811
36.889050 -7.337688 0.787854
39.472507 -8.030772 -0.843770
39.225430 -7.980504 -0.279460
37.388836 -7.776889 0.266614
45.064365 -9.373402 0.321347
37.107475 -7.718366 0.793927
39.127102 -8.316722 -0.837906
39.428169 -8.380716 -0.281415
42.470135 -9.027306 -0.303126
37.436810 -8.128328 0.267452
39.557350 -8.588743 0.282601
37.273190 -8.092803 0.798953
38.721169 -8.584276 -0.830786
37.879360 -8.397653 -0.270873
37.666801 -8.523128 0.269616
37.766724 -8.545737 0.811100
38.245380 -8.829641 -0.822199
36.762085 -8.487197 -0.263403
36.792839 -8.663564 0.263892
40.073048 -9.435950 0.287418
37.466881 -8.822280 0.806283
37.991882 -9.121044 -0.818430
36.239346 -8.700296 -0.260192
37.581181 -9.022444 -0.269826
37.609447 -9.202973 0.270314
39.289829 -9.614160 0.282392
40.214455 -9.840414 0.867226
37.794430 -9.423210 -0.815917
37.520420 -9.354892 -0.269965
37.178791 -9.442210 0.267801
39.349815 -9.993580 0.283439
39.855724 -10.122065 0.861362
37.100960 -9.594961 -0.802723
37.175964 -9.614358 -0.268080
37.123989 -9.773931 0.268011
38.690567 -10.186376 0.279320
40.162277 -10.573846 0.869948
36.832333 -9.869193 -0.798744
39.005188 -10.451408 -0.845864
37.554279 -10.062639 -0.271431
39.370178 -10.549207 -0.284556
38.137112 -10.397370 0.275969
39.728973 -10.831362 0.287488
40.280682 -10.981774 0.874555
37.255417 -10.331841 -0.809843
37.956478 -10.526263 -0.274992
38.093048 -10.743351 0.276318
40.212185 -11.341008 0.875184
36.789028 -10.549084 -0.801676
37.911236 -10.870872 -0.275341
37.844242 -11.030591 0.275201
39.833332 -11.610357 0.869110
37.280323 -11.042934 -0.814451
37.354706 -11.064968 -0.271990
37.957203 -11.423821 0.276737
39.316921 -11.833051 0.286651
39.567745 -11.908540 0.865550
45.455517 -13.680558 0.994346
36.666245 -11.209996 -0.803142
37.409729 -11.437303 -0.273107
39.584614 -12.291348 0.289373
39.433674 -12.244481 0.864922
44.923832 -13.949222 0.985341
36.624233 -11.547577 -0.804398
36.488323 -11.504724 -0.267103
39.482918 -12.448916 -0.289024
39.285370 -12.575346 0.287977
45.562145 -14.584558 1.002095
37.510952 -12.188046 -0.826178
39.296696 -12.768271 -0.288466
39.345078 -12.974060 0.289234
45.698410 -15.069076 0.335938
45.585056 -15.031697 1.005446
37.810852 -12.651335 -0.835184
45.840847 -15.338133 -0.337474
45.745079 -15.528362 0.337265
42.735050 -14.506596 0.945341
45.942123 -15.819142 -1.017802
42.878223 -14.764156 -0.316600
45.922718 -15.812460 -0.339080
42.681225 -14.904951 0.315623
42.569077 -14.865788 0.944503
42.861931 -15.178206 -0.952461
42.747749 -15.137773 -0.316600
42.474239 -15.249810 0.315064
42.362450 -15.209674 0.942828
42.699661 -15.541407 -0.951833
42.576435 -15.496555 -0.316321
42.264488 -15.592194 0.314506
42.124931 -15.540708 0.940524
42.515591 -15.895928 -0.950786
42.327187 -15.825486 -0.315483
42.089409 -15.946251 0.314227
41.940964 -15.890010 0.939477
42.207249 -16.201845 -0.947016
42.066109 -16.147667 -0.314576
41.762257 -16.240452 0.312830
41.847294 -16.273523 0.940524
42.054955 -16.565886 -0.946807
41.849163 -16.484823 -0.314017
41.544640 -16.574631 0.312272
41.880123 -16.708475 0.944503
42.001488 -16.969702 -0.948901
41.601727 -16.808187 -0.313249
41.324375 -16.906248 0.311713
41.843761 -17.118734 0.947016
42.193562 -17.477146 -0.956650
41.305649 -17.109360 -0.312132
41.221378 -17.285559 0.312062
41.803421 -17.529629 0.949529
42.361546 -17.981409 -0.963980
41.053516 -17.426184 -0.311364
41.133282 -17.672253 0.312551
41.722343 -17.925333 0.951205
42.542255 -18.497898 -0.971728
41.633514 -18.102766 -0.316949
42.753159 -18.811840 0.326095
42.909542 -18.880651 0.981990
42.872417 -19.088030 -0.983037
42.880779 -19.091753 -0.327700
43.362347 -19.533312 0.332029
43.326546 -19.517185 0.995393
43.486610 -19.817989 -1.001048
43.522388 -19.834295 -0.333914
35.562019 -16.394316 0.273386
46.686504 -21.522772 0.358907
34.156853 -15.746525 0.787854
46.550289 -21.459978 1.073718
45.640713 -21.282614 -1.054870
46.673714 -21.764311 -0.359535
46.659702 -22.006145 0.360163
33.945801 -16.009878 0.786178
35.428780 -16.709297 0.820524
45.209606 -21.563875 -1.049215
37.654942 -17.960485 -0.291258
46.752777 -22.299931 -0.361629
37.567207 -18.120270 0.291188
46.718079 -22.534126 0.362118
33.858826 -16.331558 0.787435
35.182564 -16.970053 0.818220
37.992126 -18.325226 0.883561
45.154495 -22.023319 -1.052357
34.575764 -16.863728 -0.268569
37.505760 -18.292782 -0.291328
46.817039 -22.834196 -0.363654
34.439075 -16.983471 0.268080
46.681087 -23.020565 0.363375
35.831173 -17.669979 0.836859
37.642460 -18.563208 0.879163
46.663021 -23.011656 1.089844
34.751629 -17.326523 -0.813404
45.148483 -22.510204 -1.056754
46.875519 -23.371271 -0.365678
34.334202 -17.305862 0.268429
32.979408 -16.622990 0.773613
34.211449 -17.243990 0.802514
34.572380 -17.615507 -0.812775
36.336185 -18.514212 -0.854241
33.153545 -16.892574 -0.259773
35.060253 -17.864090 -0.274713
33.186203 -17.092016 0.260610
32.655327 -16.818598 0.769424
33.953007 -17.486948 0.800000
32.829941 -17.090185 -0.775288
34.674519 -18.050411 -0.818849
32.987129 -17.172012 -0.259633
35.044945 -18.243242 -0.275830
32.787994 -17.250597 0.258656
32.870079 -17.293785 0.778011
34.118439 -18.141096 -0.809425
34.884411 -18.548370 -0.275830
32.838806 -17.644928 0.260261
32.471317 -17.447470 0.772147
35.083469 -19.048771 -0.836231
34.062122 -18.494223 -0.270594
33.639187 -18.455090 0.267871
31.187098 -17.109827 0.745131
34.076454 -18.888887 -0.816126
33.234737 -18.422318 -0.265288
32.098347 -17.975937 0.256841
33.974167 -19.026447 0.271850
30.931923 -17.322710 0.742618
33.353416 -18.870455 -0.802723
32.802906 -18.558992 -0.263124
32.956024 -18.835920 0.265009
31.491344 -17.998787 0.759791
33.118206 -19.120806 -0.801048
32.648361 -18.849541 -0.263194
31.304636 -18.256325 0.253001
32.669464 -19.052267 0.264031
31.626719 -18.444157 0.766911
33.329121 -19.632353 -0.810262
32.482628 -19.133730 -0.263194
32.287113 -19.208813 0.262286
31.481745 -18.729670 0.767330
32.153862 -19.319990 -0.785760
31.808702 -19.112597 -0.259075
30.784626 -18.680571 0.251395
30.804266 -18.692488 0.754765
32.563709 -19.955069 -0.800000
31.308184 -19.185680 -0.256352
31.742874 -19.643087 0.260610
30.129873 -18.644932 0.742199
31.439129 -19.455124 0.774451
32.261154 -20.159006 -0.796859
31.750147 -19.839693 -0.261378
31.265795 -19.727247 0.258097
30.219683 -19.067200 0.748482
31.538729 -19.899456 0.781152
32.564632 -20.745960 -0.808796
34.875019 -22.217838 -0.866179
31.989058 -20.379278 -0.264799
31.782089 -20.442926 0.263822
31.061167 -19.979214 0.773613
32.508125 -21.111025 -0.811938
31.491312 -20.450697 -0.262146
34.711727 -22.542061 -0.288954
31.084000 -20.379562 0.259493
31.286964 -20.512632 0.783665
32.514416 -21.520821 -0.816754
32.479061 -21.497421 -0.271920
34.280212 -22.689577 -0.287000
31.445414 -21.011154 0.264031
30.965450 -20.690453 0.780105
31.977255 -21.568932 -0.807959
34.836807 -23.497723 -0.880210
32.024940 -21.601095 -0.269686
31.938650 -21.746252 0.269756
31.618387 -21.528194 0.801257
36.990044 -25.185623 0.937383
31.993801 -21.988731 -0.813194
31.612711 -21.726814 -0.267801
31.468311 -21.830343 0.267382
32.667885 -22.662519 0.277575
32.538296 -22.572620 0.829529
34.953411 -24.248043 0.891100
32.668808 -22.874947 -0.835393
31.618498 -22.139511 -0.269477
31.292942 -22.115665 0.267522
32.477043 -22.952505 0.277645
32.421722 -22.913408 0.831623
32.581898 -23.240440 -0.838325
32.726646 -23.343691 -0.280647
29.848963 -21.488178 0.256771
29.753891 -21.419737 0.767959
30.655020 -22.272175 -0.793718
30.191778 -21.935612 -0.260541
29.523218 -21.647318 0.255584
29.952847 -21.962336 0.778011
29.945137 -22.158236 -0.780315
29.581211 -21.888945 -0.256910
30.006224 -22.406710 0.261448
29.647900 -22.139137 0.775079
30.897581 -23.072319 0.807749
30.197771 -22.755651 -0.792042
34.677132 -26.131094 -0.909529
30.531092 -23.006828 -0.266894
30.478174 -23.176142 0.267312
29.660488 -22.554359 0.780524
30.790564 -23.413689 0.810262
30.822948 -23.651281 -0.813822
33.305599 -25.556286 -0.879372
30.448158 -23.363695 -0.267941
30.678007 -23.753452 0.270873
29.675976 -22.977596 0.786178
32.031715 -24.801603 0.848587
30.835976 -24.091705 -0.819686
30.440113 -23.782423 -0.269686
32.393536 -25.537003 0.287977
30.031784 -23.675150 0.801048
32.426476 -25.562973 0.864922
31.015783 -24.671068 -0.830158
32.385048 -25.760229 -0.866807
32.673096 -25.989353 -0.291468
32.793343 -26.319441 0.293562
29.987780 -24.067738 0.805445
32.889374 -26.633289 -0.886493
32.934643 -26.669949 -0.295866
29.658516 -24.232023 0.267382
30.951719 -25.288616 0.279041
29.737898 -24.296883 0.804398
32.655704 -26.919287 -0.886493
33.117321 -27.299812 -0.299636
33.082458 -27.514389 0.300404
29.501678 -24.536287 0.803770
32.622490 -27.131840 0.888796
33.108837 -27.781614 -0.905341
34.295948 -28.777716 -0.937802
32.900806 -27.607056 -0.299845
33.039528 -27.970026 0.302219
29.599295 -25.057652 0.812356
32.636295 -27.628662 0.895707
32.986778 -28.173370 -0.908692
35.480362 -30.303093 -0.977383
32.985607 -28.172369 -0.302847
32.733585 -28.205061 0.301660
29.334057 -25.275841 0.811100
33.954483 -29.516182 -0.942409
33.108303 -28.780609 -0.306268
29.042864 -25.469908 0.269686
32.471169 -28.476452 0.301521
29.082302 -25.504496 0.810262
35.485226 -31.394678 -0.992461
46.679661 -41.298676 -1.305550
34.982868 -30.950228 -0.326095
32.370640 -28.891901 0.302917
34.034309 -30.376781 0.318485
32.580639 -29.079332 0.914765
33.154976 -29.591949 0.930891
33.557758 -29.951447 0.942199
46.614681 -41.972046 -1.313927
32.169956 -28.965958 -0.302219
46.460281 -41.833027 -0.436468
32.650227 -29.657377 0.307943
34.093616 -30.968460 0.321557
33.776146 -30.680092 0.955812
46.593079 -42.694691 -1.323770
33.958168 -31.116926 -0.321557
32.419548 -29.968323 0.308223
33.558521 -31.021177 0.957278
46.533142 -43.392857 -1.332776
33.714584 -31.439358 -0.321836
46.366695 -43.237644 -0.442612
45.791569 -43.076405 0.438912
33.322945 -31.347097 0.958325
45.658844 -42.951553 1.313090
45.833607 -43.494469 -1.323561
45.632191 -43.303329 -0.439191
45.124977 -43.197769 0.436119
44.950073 -43.030334 1.303456
45.193398 -43.642757 -1.316022
44.993607 -43.449821 -0.436678
43.879589 -42.745602 0.427672
43.763611 -42.632622 1.279791
44.083473 -43.320709 -1.294660
43.942287 -43.181969 -0.430115
43.767658 -43.387371 0.430255
43.595818 -43.217022 1.285865
43.986534 -43.986534 -1.303037
43.818340 -43.818340 -0.432629
43.668968 -44.051723 0.433048
43.491528 -43.872730 1.294032
43.881313 -44.653946 -1.311414
43.707638 -44.477215 -0.435351
43.568974 -44.724804 0.435910
43.441883 -44.594341 1.304085
43.788605 -45.344429 -1.320420
43.623482 -45.173439 -0.438423
43.432877 -45.370575 0.438493
43.299965 -45.231731 1.311624
43.618343 -45.964146 -1.327331
43.530483 -45.871559 -0.441495
43.211864 -45.935566 1.321048
43.515591 -46.664757 -1.336545
43.367218 -46.505650 -0.443938
43.080822 -46.604568 1.329425
43.457939 -47.426022 -1.347435
43.284008 -47.236206 -0.447289
43.350155 -48.145222 -1.357069
43.157871 -47.931675 -0.450291
43.016247 -48.621021 -0.453223
42.898655 -49.349258 -0.456505
0.128507 -0.178507 0.004607
0.159595 -0.230056 0.001955
0.153865 -0.221796 0.005654
0.155556 -0.232806 0.001955
0.161080 -0.241073 0.006073
0.126080 -0.192304 0.004817
0.129831 -0.201844 0.001676
0.162257 -0.252256 0.006283
0.149408 -0.236798 0.001955
0.117369 -0.186019 0.004607
0.147336 -0.238093 0.001955
0.157830 -0.255050 0.006283
0.129690 -0.213723 0.001745
0.140038 -0.230776 0.005654
0.117595 -0.197659 0.001606
0.127795 -0.214804 0.005236
0.110806 -0.190002 0.004607