# This PCD file was generated using the MATLAB® pcwrite function
# from Computer Vision System Toolbox®.
# .PCD v.7 - Point Cloud Data file format
VERSION .7
FIELDS x y z
SIZE 4 4 4
TYPE F F F
COUNT 1 1 1
WIDTH 1037
HEIGHT 1
VIEWPOINT 0 0 0 1 0 0 0
POINTS 1037
DATA ascii
26.751190 29.710207 -0.279111
26.435200 28.848959 -0.273177
26.748928 28.684713 -0.821571
26.883720 28.829260 -0.275201
27.252863 28.718525 -0.829320
27.409611 28.883703 -0.277994
27.808022 28.796049 -0.838534
27.966265 28.959915 -0.281066
28.394615 28.894569 -0.848587
28.526312 29.028585 -0.284137
28.928463 28.928463 -0.856964
29.061380 29.061380 -0.286930
29.465044 28.955219 -0.865341
29.627701 29.115061 -0.290002
26.660078 25.745338 -0.776335
26.593344 25.680895 -0.258097
26.738688 25.374067 -0.772147
26.642351 25.282648 -0.256422
26.812859 25.003395 -0.767959
26.715700 24.912792 -0.255025
26.823639 24.579336 -0.762095
26.725653 24.489548 -0.253071
26.888514 24.210526 -0.757906
26.789719 24.121571 -0.251674
26.919052 23.815966 -0.752880
26.849409 23.754351 -0.250278
26.974951 23.448967 -0.748691
26.874554 23.361692 -0.248603
27.026503 23.082815 -0.744503
26.963339 23.028866 -0.247555
27.104366 22.743265 -0.741152
26.979427 22.638428 -0.245880
27.155228 22.385042 -0.737173
27.083363 22.325802 -0.245042
27.163065 21.996216 -0.732147
27.121733 21.962746 -0.243646
27.166197 21.608969 -0.727121
27.155842 21.600731 -0.242250
27.251314 21.291059 -0.724398
27.177828 21.233646 -0.240784
27.277437 20.930714 -0.720210
27.243090 20.904358 -0.239736
27.339283 20.601627 -0.717068
27.296696 20.569536 -0.238619
27.381397 20.261168 -0.713508
27.346544 20.235378 -0.237502
27.427750 19.927427 -0.710157
27.562538 20.025356 -0.237852
27.445955 19.577009 -0.706178
27.369896 19.522758 -0.234710
27.517473 19.267942 -0.703665
27.408159 19.191401 -0.233593
27.552736 18.936470 -0.700315
27.475698 18.883524 -0.232755
27.584320 18.605858 -0.696964
27.539957 18.575935 -0.231917
27.496031 18.372259 0.230870
27.415854 18.318687 0.690681
27.620579 18.281662 -0.693822
27.542578 18.230034 -0.230591
27.287352 17.890371 0.227799
27.248589 17.864958 0.682513
27.644905 17.952810 -0.690472
27.365154 17.771139 -0.227799
27.408794 17.629929 0.227519
27.378225 17.610266 0.681885
27.387346 17.447664 -0.680210
27.477024 17.504795 -0.227449
27.561598 17.390074 0.227519
27.463215 17.327999 0.680210
27.606390 17.250387 -0.681885
27.628735 17.264349 -0.227449
27.610264 17.085751 0.226682
27.519865 17.029808 0.677906
27.679153 16.961807 -0.680000
27.616343 16.923317 -0.226123
27.595882 16.745592 0.225355
27.530672 16.706022 0.674555
27.731850 16.662977 -0.677697
27.694401 16.640474 -0.225565
27.629242 16.437672 0.224448
27.606672 16.424244 0.672880
27.772831 16.359447 -0.675184
27.700703 16.316961 -0.224448
27.711168 16.160675 0.223959
27.645309 16.122269 0.670367
27.810635 16.056479 -0.672671
27.764097 16.029610 -0.223819
27.746958 15.858693 0.223121
27.611347 15.781185 0.666178
27.845274 15.754098 -0.670157
27.772373 15.712852 -0.222772
27.709799 15.518232 0.221725
27.678226 15.500552 0.664503
27.876760 15.452341 -0.667644
27.838467 15.431114 -0.222214
27.774027 15.237353 0.221166
27.672194 15.181485 0.661152
27.905109 15.151238 -0.665131
27.831459 15.111250 -0.221097
27.764999 14.918673 0.220049
27.662710 14.863710 0.657801
27.930334 14.850822 -0.662618
27.847488 14.806772 -0.220189
27.752537 14.601315 0.218932
27.685190 14.565883 0.655288
27.916977 14.532659 -0.659267
27.878071 14.512405 -0.219421
27.807779 14.321947 0.218374
27.775692 14.305422 0.654451
27.935837 14.234019 -0.656754
27.932373 14.232255 -0.218863
27.833475 14.029226 0.217606
27.801266 14.012992 0.652147
27.987408 13.954006 -0.655079
27.912323 13.916571 -0.217746
28.170086 13.891950 0.219281
30.603554 15.092002 0.714765
28.045210 13.678563 -0.653613
28.050678 13.681231 -0.217885
30.576229 14.913023 -0.237502
28.317263 13.658626 0.219491
31.463495 15.176188 0.731728
31.042124 14.806334 -0.720419
31.327972 14.942676 -0.242320
31.772736 14.984995 0.245252
31.576647 14.892513 0.731309
31.831610 14.843324 -0.735707
31.964697 14.905383 -0.246229
32.483490 14.975094 0.249720
32.232014 14.859161 0.743456
32.469395 14.797156 -0.747435
32.612217 14.862244 -0.250208
32.676754 14.719805 0.250208
32.579227 14.675873 0.748482
32.953491 14.671840 -0.755603
32.886833 14.642162 -0.251325
32.730740 14.401871 0.249650
32.632851 14.358797 0.746807
33.016090 14.355804 -0.754137
32.894142 14.302780 -0.250418
32.781670 14.084118 0.249091
32.674236 14.037959 0.744922
33.029675 14.020265 -0.751623
32.870426 13.952668 -0.249301
32.829556 13.766575 0.248533
32.730953 13.725228 0.743456
33.086105 13.704714 -0.750157
32.953979 13.649985 -0.249022
32.911419 13.464417 0.248254
32.812469 13.423935 0.742618
28.411953 11.479174 -0.641885
33.102474 13.374268 -0.747854
33.044025 13.350654 -0.248812
32.962646 13.150763 0.247765
32.854076 13.107447 0.740943
28.464533 11.212478 -0.640838
28.404957 11.189010 -0.213138
33.038322 13.014141 -0.247905
33.001595 12.833618 0.247206
32.929935 12.805751 0.740105
28.561296 10.963655 -0.640838
29.126999 11.180807 -0.217815
33.094620 12.703835 -0.247486
33.074924 12.530969 0.246927
32.965637 12.489562 0.738430
28.936823 10.819035 -0.647121
29.373323 10.982236 -0.218932
32.798370 12.099957 0.244065
32.932674 12.149505 0.735288
29.537457 10.750755 -0.658430
33.079319 12.039888 -0.737383
29.787531 10.841774 -0.221306
33.076374 12.038815 -0.245740
32.761539 11.762594 0.243018
32.726921 11.750166 0.728377
32.928669 11.660654 -0.731728
32.803123 11.616196 -0.242948
32.976227 11.515814 0.243855
32.941479 11.503680 0.730890
32.651051 11.242658 -0.723351
32.638504 11.238338 -0.240993
33.075462 11.227607 0.243855
33.087948 11.231846 0.731938
32.615181 10.912887 -0.720419
33.076721 11.067317 -0.243506
33.476078 11.038755 0.246089
33.355614 10.999032 0.735707
32.642609 10.606227 -0.718953
33.590496 10.914214 -0.246578
33.485420 10.718767 0.245461
33.412239 10.695342 0.734870
33.315563 10.504356 -0.731728
33.560482 10.581579 -0.245671
33.539482 10.414287 0.245182
33.504299 10.403361 0.734870
33.750153 10.318458 -0.739267
33.699360 10.302928 -0.246020
33.600361 10.112560 0.244972
33.555515 10.099064 0.734032
33.790981 10.009345 -0.738220
33.634575 9.963016 -0.244903
30.759247 8.965503 0.223680
30.494095 8.888218 0.665341
31.022722 8.895622 -0.676021
33.896263 9.719598 -0.738639
30.855749 8.847743 -0.224098
30.528336 8.609881 0.221446
30.339558 8.556641 0.660315
30.790874 8.539065 -0.669320
30.584885 8.481939 -0.221585
30.293583 8.258979 0.219212
30.104408 8.207404 0.653613
30.555191 8.187239 -0.662618
30.396944 8.144836 -0.219700
30.132418 7.933203 0.217536
29.981518 7.893475 0.649424
30.364130 7.852698 -0.656964
30.273239 7.829192 -0.218304
30.045425 7.630566 0.216419
29.855455 7.582320 0.645236
30.237484 7.539052 -0.652775
30.146353 7.516330 -0.216908
29.994312 7.339561 0.215581
29.881641 7.311991 0.644398
30.311844 7.277230 -0.652985
30.103840 7.227293 -0.216140
29.979351 7.059200 0.215023
29.876190 7.034909 0.642932
30.403419 7.019183 -0.653613
30.204737 6.973313 -0.216419
30.000799 6.788487 0.214744
29.965696 6.780545 0.643561
30.463516 6.753599 -0.653613
30.225388 6.700807 -0.216140
30.097984 6.534913 0.215023
30.062807 6.527275 0.644398
30.491953 6.481265 -0.652985
30.194681 6.418077 -0.215512
30.232187 6.288304 0.215581
30.245871 6.291150 0.647121
30.468975 6.198983 -0.651309
30.327930 6.170287 -0.216070
30.442833 6.055456 0.216698
30.485928 6.064028 0.651100
30.512096 5.930951 -0.651100
30.576942 5.943555 -0.217466
30.691002 5.826869 0.218095
30.694841 5.827598 0.654451
30.749468 5.699077 -0.655079
30.824289 5.712945 -0.218863
30.976847 5.601526 0.219770
31.019999 5.609330 0.660315
30.965410 5.460037 -0.658639
31.109320 5.485412 -0.220538
31.261076 5.371635 0.221446
31.264835 5.372281 0.664503
31.278118 5.234162 -0.664294
31.353254 5.246736 -0.221934
34.188721 5.567987 0.241831
34.112980 5.555652 0.723979
31.559597 4.998549 -0.669320
34.393639 5.447417 -0.729424
34.331211 5.437530 -0.242669
34.236008 5.269426 0.241831
34.170044 5.259273 0.724189
34.380539 5.138206 -0.728168
34.327904 5.130340 -0.242320
34.280689 4.970463 0.241831
34.204746 4.959452 0.723979
34.463673 4.843553 -0.729006
34.371368 4.830581 -0.242320
34.332668 4.672471 0.241901
34.256630 4.662122 0.724189
34.474888 4.538705 -0.728377
34.382469 4.526538 -0.242110
34.362213 4.371426 0.241831
34.286091 4.361742 0.723979
34.592571 4.247434 -0.730053
34.500065 4.236075 -0.242669
34.408985 4.072572 0.241901
34.322845 4.062376 0.723979
34.538918 3.935213 -0.728168
34.535717 3.934848 -0.242669
34.482975 3.776500 0.242180
34.356991 3.762702 0.723979
34.611713 3.637838 -0.729006
34.568737 3.633321 -0.242669
34.514618 3.475439 0.242180
34.428307 3.466748 0.724817
34.642143 3.335659 -0.729006
34.599129 3.331517 -0.242669
34.493843 3.169539 0.241831
34.457249 3.166177 0.724817
34.669933 3.033226 -0.729006
34.626884 3.029460 -0.242669
34.520187 2.868406 0.241831
34.443714 2.862052 0.723979
34.744915 2.734484 -0.730053
34.652000 2.727172 -0.242669
34.583794 2.570020 0.242110
34.507259 2.564332 0.724817
34.717590 2.427690 -0.729006
34.634579 2.421886 -0.242389
34.614883 2.268779 0.242180
34.528324 2.263106 0.724817
34.867180 2.132568 -0.731728
34.774170 2.126879 -0.243227
34.663315 1.968326 0.242389
34.596664 1.964541 0.725864
34.804592 1.824031 -0.730053
34.751461 1.821247 -0.242948
34.679173 1.665760 0.242389
34.612492 1.662557 0.725864
34.889099 1.523291 -0.731519
34.766029 1.517918 -0.242948
34.742348 1.365031 0.242738
34.625683 1.360447 0.725864
34.951023 1.220517 -0.732566
34.817928 1.215869 -0.243227
34.752937 1.061798 0.242738
34.636238 1.058233 0.725864
35.000320 0.916516 -0.733404
34.897186 0.913815 -0.243716
34.800869 0.759358 0.243018
34.724117 0.757683 0.727540
35.006989 0.611049 -0.733404
34.913830 0.609423 -0.243786
34.846165 0.456161 0.243297
34.769394 0.455156 0.728377
35.040977 0.305798 -0.734032
34.957817 0.305072 -0.244065
34.888817 0.152232 0.243576
34.772041 0.151723 0.728377
35.092300 0.000000 -0.735079
35.029148 0.000000 -0.244554
34.928818 -0.152407 0.243855
31.642757 -0.138068 0.662828
35.120956 -0.306496 -0.735707
31.808014 -0.277584 -0.222074
35.027813 -0.305683 -0.244554
31.596523 -0.413621 0.220608
31.480396 -0.412101 0.659477
31.838165 -0.555737 -0.667016
31.704397 -0.553402 -0.221376
31.431751 -0.685843 0.219491
31.235712 -0.681566 0.654451
31.622221 -0.828057 -0.662618
31.498434 -0.824816 -0.219980
31.224669 -0.954000 0.218095
31.068684 -0.949234 0.651100
31.423948 -1.097348 -0.658639
31.330139 -1.094073 -0.218863
31.095249 -1.221736 0.217257
30.979296 -1.217180 0.649424
31.243374 -1.364115 -0.655079
31.159555 -1.360456 -0.217746
30.963545 -1.487286 0.216419
30.807714 -1.479801 0.646074
31.120457 -1.630954 -0.652775
31.026663 -1.626039 -0.216908
30.829584 -1.750631 0.215581
30.753700 -1.746322 0.645236
31.184872 -1.907349 -0.654451
30.981350 -1.894900 -0.216698
30.813133 -2.019599 0.215581
30.787172 -2.017898 0.646283
31.286720 -2.187781 -0.656964
31.113264 -2.175651 -0.217746
31.003752 -2.303977 0.217047
30.917946 -2.297600 0.649424
31.346174 -2.466997 -0.658639
31.172846 -2.453356 -0.218304
31.052225 -2.580241 0.217536
31.056133 -2.580566 0.652775
31.393169 -2.746547 -0.660105
31.229942 -2.732266 -0.218863
31.257555 -2.872166 0.219142
31.271374 -2.873435 0.657801
31.407814 -3.024229 -0.660943
31.394032 -3.022901 -0.220189
31.549683 -3.176886 0.221376
31.533585 -3.175265 0.663875
31.539316 -3.314916 -0.664294
31.495741 -3.310336 -0.221097
31.282190 -3.425957 0.219700
32.160606 -3.522159 0.677697
31.936329 -3.638685 -0.673299
31.555073 -3.595247 -0.221725
32.561920 -3.853957 0.228916
35.421890 -4.192457 0.249022
35.285912 -4.176363 0.744294
32.478912 -3.987909 -0.685445
30.797956 -3.781513 -0.216629
32.912029 -4.041089 -0.231499
35.542210 -4.364035 -0.249999
35.403793 -4.503932 0.249161
35.327465 -4.494221 0.745969
30.827173 -4.058474 -0.651309
33.017784 -4.346874 -0.697592
35.674274 -4.696608 -0.753718
31.398294 -4.133664 -0.221097
33.093624 -4.356858 -0.233034
35.552345 -4.680555 -0.250348
35.442410 -4.823500 0.249720
35.405781 -4.818515 0.748482
30.691578 -4.313420 -0.649215
33.186504 -4.664059 -0.701990
35.681435 -5.014699 -0.754765
31.658098 -4.449255 -0.223191
35.589367 -5.001760 -0.250906
31.895687 -4.624654 0.225006
35.507828 -5.148390 0.250488
29.940283 -4.341135 0.633718
35.441540 -5.138779 0.750157
31.137280 -4.653498 -0.659477
35.715420 -5.337705 -0.756440
31.469717 -4.703181 -0.222144
35.663044 -5.329877 -0.251744
30.144291 -4.639650 0.212928
31.765165 -4.889126 0.224378
35.580147 -5.476308 0.251325
35.474396 -5.460032 0.751833
30.137636 -4.773333 -0.639163
35.766228 -5.664814 -0.758534
31.427477 -4.977623 -0.222144
35.704063 -5.654968 -0.252373
31.622593 -5.150066 0.223680
35.609962 -5.799450 0.251884
30.037580 -4.891931 0.637487
35.533943 -5.787070 0.754137
30.124416 -5.041099 -0.639791
35.774593 -5.986614 -0.759791
29.952765 -5.012373 -0.212021
31.461744 -5.264890 -0.222702
35.682945 -5.971277 -0.252582
31.990370 -5.496951 0.226612
35.636837 -6.123529 0.252442
29.816385 -5.123392 0.633718
35.521503 -6.103711 0.754974
29.941435 -5.279483 -0.636859
35.878525 -6.326352 -0.763142
31.522928 -5.558343 -0.223470
35.747650 -6.303275 -0.253420
29.363058 -5.309706 0.208321
35.670605 -6.450296 0.253071
29.160570 -5.273090 0.620733
35.545593 -6.427691 0.756650
29.786089 -5.520525 -0.634555
35.851440 -6.644672 -0.763770
29.437935 -5.455999 -0.209019
35.769943 -6.629567 -0.253978
29.286133 -5.560146 0.208111
35.730850 -6.783714 0.253908
29.290245 -5.560927 0.624503
31.470808 -5.974919 0.670995
35.684593 -6.774932 0.760838
28.716112 -5.581847 -0.612775
30.256929 -5.881351 -0.645655
31.699604 -6.161779 -0.676440
29.732763 -5.779464 -0.211462
35.867783 -6.971991 -0.255095
29.216881 -5.811599 0.207972
35.778175 -7.116722 0.254676
28.985655 -5.765605 0.619058
31.446886 -6.255175 0.671623
35.731976 -7.107532 0.763142
28.303816 -5.758476 -0.605026
29.792974 -6.061449 -0.636859
35.925957 -7.309219 -0.767959
29.495014 -6.000829 -0.210136
35.844772 -7.292701 -0.255374
35.793030 -7.444961 0.255235
35.688168 -7.423150 0.763561
28.281824 -6.011487 -0.605655
30.139898 -6.406433 -0.645445
36.017277 -7.655708 -0.771309
30.087088 -6.395208 -0.214744
35.936268 -7.638489 -0.256492
35.853737 -7.784609 0.256142
31.772585 -6.898505 0.681047
35.739273 -7.759757 0.766074
28.618721 -6.344618 -0.614032
36.115028 -8.006510 -0.774870
27.735893 -6.148900 -0.198338
30.088709 -6.670506 -0.215162
36.043972 -7.990756 -0.257748
30.546978 -6.912075 0.218653
35.872215 -8.117054 0.256771
30.189976 -6.831294 0.648377
35.787212 -8.097819 0.768587
28.523298 -6.585122 -0.613194
36.170425 -8.350601 -0.777592
27.915022 -6.444691 -0.200013
30.214479 -6.975562 -0.216489
36.109276 -8.336483 -0.258725
30.495230 -7.180673 0.218723
35.926552 -8.459580 0.257678
35.831963 -8.437307 0.771100
27.939783 -6.707748 -0.601885
30.370174 -7.291234 -0.654241
36.173950 -8.684597 -0.779267
27.974401 -6.716060 -0.200851
29.967710 -7.194611 -0.215162
36.074043 -8.660612 -0.259005
30.237143 -7.398982 0.217327
36.074764 -8.827439 0.259284
35.902641 -8.785320 0.774241
31.818720 -7.933298 -0.686911
36.242298 -9.036220 -0.782409
30.088137 -7.501815 -0.216489
36.103825 -9.001695 -0.259773
28.446234 -7.224423 0.204900
30.064810 -7.635489 0.216559
36.064205 -9.159141 0.259773
28.120913 -7.141802 0.607749
30.504698 -7.747206 0.659267
35.940891 -9.127823 0.776754
26.550465 -6.866417 -0.574451
28.757359 -7.437159 -0.622199
36.297573 -9.387191 -0.785341
28.850096 -7.461142 -0.208042
29.924715 -7.739058 -0.215791
32.228851 -8.334948 -0.232406
28.304745 -7.452017 0.204341
30.074396 -7.917928 0.217117
36.089275 -9.501513 0.260541
28.163870 -7.414928 0.610053
30.464935 -8.020748 0.659896
35.966221 -9.469115 0.779058
28.816906 -7.721467 -0.624922
36.339817 -9.737225 -0.788063
29.952629 -8.025783 -0.216489
36.221336 -9.705478 -0.261797
27.775551 -7.572484 0.200990
30.033098 -8.187963 0.217327
36.111111 -9.845018 0.261309
28.242777 -7.699865 0.613194
36.007610 -9.816802 0.781781
26.696344 -7.403551 -0.580314
36.234192 -10.048631 -0.787644
28.050598 -7.779119 -0.203224
36.202713 -10.039901 -0.262286
27.795031 -7.839009 0.201619
36.148937 -10.195055 0.262216
27.423958 -7.734356 0.596859
28.511293 -8.041017 0.620524
30.599363 -8.629913 0.665969
28.735420 -8.239749 -0.626178
36.423828 -10.444365 -0.793718
36.296356 -10.407813 -0.263612
36.250599 -10.566086 0.263612
28.190479 -8.216776 0.615079
30.695662 -8.946969 0.669739
36.407986 -10.784537 -0.795393
36.319206 -10.758239 -0.264450
36.281494 -10.919491 0.264520
28.424059 -8.554670 0.621780
30.712152 -9.243309 0.671833
36.188259 -10.891430 0.791623
36.541950 -11.171996 -0.800419
36.453449 -11.144938 -0.266126
36.328072 -11.280167 0.265567
28.157362 -8.743093 0.617592
36.244606 -11.254250 0.794974
36.624233 -11.547577 -0.804398
36.459709 -11.495703 -0.266894
27.190237 -8.703664 0.199315
36.352062 -11.636387 0.266475
27.927643 -8.939709 0.614241
36.297367 -11.618878 0.798325
27.080149 -8.798874 -0.596440
30.569761 -9.932717 -0.673299
36.588627 -11.888366 -0.805864
26.980816 -8.766599 -0.198058
36.481640 -11.853603 -0.267801
27.360165 -9.022029 0.201130
36.505547 -12.037724 0.268360
27.848566 -9.183080 0.614241
30.782494 -10.150544 0.678953
36.384487 -11.997806 0.802514
26.964409 -9.022165 -0.595602
30.368145 -10.161039 -0.670786
36.663631 -12.267480 -0.809843
27.130878 -9.077865 -0.199734
36.556988 -12.231796 -0.269128
27.318268 -9.273303 0.201409
36.503265 -12.391190 0.269128
27.578026 -9.361478 0.610053
30.815815 -10.460560 0.681676
36.392010 -12.353423 0.805027
30.259411 -10.419151 -0.670367
36.640263 -12.616254 -0.811728
27.173542 -9.356601 -0.200641
36.486671 -12.563369 -0.269407
27.236305 -9.511343 0.201409
36.525913 -12.755421 0.270105
27.004463 -9.430381 0.599163
30.761114 -10.742262 0.682513
36.414967 -12.716676 0.807959
27.264637 -9.654915 -0.605864
36.679562 -12.988914 -0.815079
27.100283 -9.596713 -0.200711
30.239202 -10.708263 -0.223959
36.583023 -12.954728 -0.270943
27.029917 -9.704732 0.200502
36.507328 -13.107471 0.270803
26.892912 -9.655541 0.598534
30.750887 -11.040696 0.684398
36.396706 -13.067752 0.810053
27.414217 -9.977959 -0.611100
36.705738 -13.359797 -0.818220
27.175249 -9.890982 -0.201898
29.966068 -10.906756 -0.222632
27.169359 -10.023306 0.202177
30.284079 -11.172386 0.225355
30.728407 -11.336308 0.686074
36.478260 -13.457541 0.814451
27.532124 -10.293839 -0.615707
29.021105 -10.850547 -0.649006
36.746956 -13.739123 -0.821781
27.500025 -10.281838 -0.204970
36.669823 -13.710285 -0.273316
27.174368 -10.295446 0.202875
36.590950 -13.863070 0.273177
27.159719 -10.289897 0.608377
30.562866 -11.579234 0.684608
27.487913 -10.551621 -0.616754
27.231878 -10.453339 -0.203643
36.735493 -14.101435 -0.274713
27.092808 -10.535817 0.202945
36.608376 -14.236219 0.274224
26.891848 -10.457667 0.604398
36.508060 -14.197208 0.820524
27.692457 -10.908349 -0.623456
29.205095 -11.504193 -0.219142
36.787815 -14.491105 -0.276039
27.547819 -10.990466 0.207064
36.724236 -14.651484 0.276039
27.282440 -10.884590 0.615288
36.596355 -14.600466 0.825341
26.910244 -10.872444 -0.607958
36.930904 -14.921054 -0.834346
28.890345 -11.672457 -0.217536
36.799030 -14.867773 -0.277086
29.394449 -12.025587 0.221725
36.743061 -15.031983 0.277156
27.491777 -11.247183 0.622199
36.652618 -14.994983 0.829529
23.904758 -9.901675 -0.541990
27.193048 -11.263729 -0.616545
28.966509 -11.998321 -0.656754
23.392059 -9.689308 -0.176766
29.083019 -12.046581 -0.219770
36.926563 -15.295484 -0.279041
36.813366 -15.437125 0.278692
27.198961 -11.405472 0.617801
29.697578 -12.453228 0.674555
23.725410 -10.070839 -0.539896
26.725597 -11.344343 -0.608168
23.757650 -10.084525 -0.180186
36.902142 -15.664029 -0.279879
23.483730 -10.089407 0.178441
27.324184 -11.739396 0.207623
36.815067 -15.817001 0.279739
23.451595 -10.075601 0.534660
27.245371 -11.705535 0.621152
36.734402 -15.782345 0.837487
23.315723 -10.137965 -0.532566
37.041103 -16.105928 -0.846074
23.842981 -10.367223 -0.181513
36.984131 -16.081158 -0.281554
23.504625 -10.342283 0.179279
36.849541 -16.214186 0.281066
23.509195 -10.344294 0.538011
30.427431 -13.388391 0.696335
23.555170 -10.487437 -0.540105
29.912052 -13.317703 -0.685864
37.109211 -16.522085 -0.850891
23.596304 -10.505752 -0.180326
29.789991 -13.263359 -0.227659
37.061638 -16.500904 -0.283230
23.604944 -10.633252 0.180745
30.333584 -13.664283 0.232267
23.208370 -10.454609 0.533194
36.781528 -16.568871 0.845027
23.581024 -10.746491 -0.542828
26.628725 -12.135409 -0.612985
37.145569 -16.928211 -0.855079
23.267143 -10.603448 -0.178511
26.761309 -12.195831 -0.205319
29.773207 -13.568432 -0.228427
23.765528 -10.956059 0.182700
36.960526 -17.039036 0.284137
23.207048 -10.698596 0.535288
36.853447 -16.989672 0.850053
23.649445 -11.027918 -0.546597
27.038294 -12.608163 -0.624922
29.077038 -13.558846 -0.672042
23.028719 -10.738468 -0.177394
29.907429 -13.946063 -0.230382
37.157715 -17.326927 -0.286232
23.415773 -11.043595 0.180745
37.063667 -17.480360 0.286092
22.913866 -10.806881 0.530681
28.755365 -13.561911 0.665969
23.624500 -11.268309 -0.548273
29.947050 -14.284010 -0.231638
37.194633 -17.740931 -0.287698
23.570698 -11.369155 0.182700
37.089851 -17.890020 0.287488
23.512074 -11.340878 0.546807
36.974560 -17.834410 0.859896
23.588169 -11.504719 -0.549739
37.372646 -18.227858 -0.870995
22.864763 -11.151890 -0.177603
30.027977 -14.645623 -0.233244
37.227142 -18.156891 -0.289164
23.389872 -11.534608 0.182071
22.479668 -11.085746 0.525026
24.775297 -12.352508 -0.579896
37.426895 -18.660360 -0.876021
24.270029 -12.100590 -0.189332
28.610353 -14.264596 -0.223191
23.734802 -11.963325 0.185562
22.444567 -11.312993 0.526492
25.096132 -12.649492 0.588691
26.801348 -13.508992 0.628691
22.902754 -11.669536 -0.538430
24.693283 -12.581857 -0.580524
37.440792 -19.077036 -0.880210
27.763086 -14.145999 -0.217536
37.367905 -19.039898 -0.292794
26.803213 -13.804563 0.210485
37.248909 -19.184450 0.292515
23.144930 -11.920422 0.545341
25.260326 -13.009923 0.595184
22.941938 -11.942817 -0.541780
28.076605 -14.615755 -0.663037
37.521198 -19.532299 -0.886074
22.680315 -11.806624 -0.178511
37.404335 -19.471464 -0.294400
22.752478 -11.970657 0.179488
27.956078 -14.708405 0.220538
37.248222 -19.597237 0.293841
22.668411 -11.926428 0.536545
29.251274 -15.389840 0.692356
23.128153 -12.297458 -0.548691
26.871031 -14.287580 -0.637487
22.850126 -12.149628 -0.180675
22.902601 -12.306011 0.181513
27.491930 -14.771947 0.217885
29.033451 -15.600236 0.230102
22.625120 -12.156916 0.538011
22.809090 -12.384325 -0.543665
27.448225 -14.903171 -0.654241
22.532322 -12.234053 -0.179000
28.762983 -15.617025 -0.228497
22.610231 -12.404398 0.180047
26.800884 -14.703468 0.213417
28.940044 -15.877052 0.230451
23.035326 -12.637612 0.550367
25.717522 -14.109116 0.614451
27.523182 -15.099735 0.657592
23.425922 -12.985201 -0.561047
26.084185 -14.458699 -0.624712
22.879494 -12.682311 -0.182630
27.226248 -15.091756 -0.217327
37.529018 -20.802673 -0.299566
22.518574 -12.611007 0.180186
25.327942 -14.184329 0.202666
22.653751 -12.686710 0.543875
27.617165 -15.466355 0.663037
37.325916 -20.903517 0.896126
23.007158 -13.016824 -0.553718
25.043343 -14.168842 -0.602723
22.689621 -12.837170 -0.182001
25.561724 -14.462128 -0.205040
26.989073 -15.269683 -0.216489
22.711527 -12.980707 0.182630
25.116379 -14.355194 0.201968
23.062983 -13.181581 0.556440
28.114792 -16.068928 0.678325
22.927322 -13.237096 -0.554555
25.152521 -14.521814 -0.608377
37.663841 -21.745230 -0.910995
23.278196 -13.439672 -0.187656
25.625067 -14.794640 -0.206575
23.003380 -13.415174 0.185911
27.555681 -16.069998 0.222702
25.253010 -14.727120 0.612356
27.144396 -15.830144 0.658220
37.439056 -21.833813 0.907854
22.983225 -13.538154 -0.558744
25.326342 -14.918355 -0.615707
23.004938 -13.550944 -0.186400
28.389990 -16.722982 -0.230033
37.643661 -22.173811 -0.305011
28.041748 -16.683086 0.227799
37.623898 -22.383865 0.305640
28.173756 -16.761623 0.686702
37.496269 -22.307938 0.913927
22.889917 -13.753650 -0.559372
25.606543 -15.385962 -0.625759
37.689949 -22.646406 -0.921048
23.031525 -13.838736 -0.187586
37.594440 -22.589020 -0.306198
23.312878 -14.146602 0.190379
28.202856 -17.113913 0.230312
37.598106 -22.815092 0.307036
25.658825 -15.570158 0.628691
37.505306 -22.758778 0.918953
24.559175 -15.049882 -0.603351
22.935461 -14.054869 -0.187796
25.501442 -15.780771 0.209368
37.661182 -23.305447 0.309200
25.343441 -15.682997 0.624294
37.543320 -23.232510 0.924817
22.824448 -14.262298 -0.563770
24.749094 -15.464951 -0.611309
23.108747 -14.439948 -0.190239
25.542585 -15.960779 -0.210276
27.493942 -17.347385 0.226961
37.701626 -23.787956 0.311225
37.652000 -23.756643 0.932566
22.943647 -14.616716 -0.569843
24.604765 -15.674964 -0.611100
37.893700 -24.140949 -0.941152
23.648119 -15.065514 -0.195755
37.736500 -24.272932 0.313249
27.235279 -17.518320 0.678325
37.695511 -24.246567 0.938849
24.550888 -15.943534 -0.613194
37.916367 -24.623177 -0.947016
24.715019 -16.050121 -0.205738
25.138149 -16.481293 0.209857
26.927757 -17.654612 0.224797
26.621511 -17.453827 0.666807
24.752640 -16.383415 -0.621780
37.958496 -25.124180 -0.953508
27.175676 -17.987188 -0.227519
37.865833 -25.062847 -0.317019
24.843706 -16.600035 0.208600
27.520973 -18.388927 0.231080
37.830944 -25.277830 0.317647
26.451561 -17.674368 0.666388
24.832518 -16.749744 -0.627435
37.986458 -25.622190 -0.959791
26.959644 -18.184509 -0.227031
37.935833 -25.588043 -0.319462
24.780558 -16.872480 0.209298
27.086685 -18.442669 0.228776
37.898216 -25.803978 0.320091
26.337637 -17.932659 0.667435
25.229210 -17.339556 -0.641257
38.033321 -26.139578 -0.966702
27.385046 -18.821220 -0.231987
37.983051 -26.105028 -0.321766
26.883633 -18.649839 0.228427
26.582664 -18.441050 0.677697
27.888796 -19.347145 0.710995
26.723068 -18.711695 -0.683351
38.090405 -26.671190 -0.974032
26.711897 -18.703873 -0.227659
38.024113 -26.624769 -0.324070
26.752525 -18.906816 0.228706
37.940243 -26.813513 0.324349
26.657499 -18.839657 0.683770
38.124809 -27.194160 -0.980943
26.458109 -18.872387 -0.226891
38.050831 -27.141396 -0.326304
26.659555 -19.192133 0.229334
37.964504 -27.330534 0.326583
26.613789 -19.159185 0.686911
28.463772 -20.490984 0.734660
37.924648 -27.301840 0.978849
26.109341 -18.969547 -0.676021
38.136784 -27.707996 -0.987435
38.103771 -27.684011 -0.328817
26.321711 -19.299877 0.227868
38.031002 -27.885483 0.329236
37.999397 -27.862312 0.987016
25.934772 -19.190722 -0.675812
38.182865 -28.253832 -0.994974
38.150116 -28.229601 -0.331331
26.144276 -19.522856 0.227799
38.098690 -28.449642 0.331959
38.011154 -28.384275 0.993718
25.702438 -19.368177 -0.674137
38.222298 -28.802567 -1.002514
38.189819 -28.778093 -0.333844
38.135525 -28.998928 0.334472
38.048508 -28.932758 1.001257
25.492785 -19.561302 -0.673089
38.350220 -29.427160 -1.012566
25.362888 -19.461628 -0.223191
38.222832 -29.329411 -0.336357
38.197281 -29.575497 0.337265
38.102879 -29.502401 1.009425
25.084759 -19.598362 -0.666807
38.407101 -30.006914 -1.020943
38.280628 -29.908106 -0.339150
25.687090 -20.250069 0.228357
38.149765 -30.074852 0.339150
27.472214 -21.657347 0.732775
38.134480 -30.062798 1.017173
25.217930 -20.059246 -0.674974
38.488052 -30.614779 -1.030158
27.249752 -21.675432 -0.243087
38.323387 -30.483799 -0.341872
25.727762 -20.648712 0.230312
38.275799 -30.719576 0.342640
25.714949 -20.638430 0.690681
38.260540 -30.707329 1.027645
25.904364 -20.976940 -0.698220
38.561295 -31.226320 -1.039372
38.428932 -31.119135 -0.345223
25.577566 -20.897747 0.230591
25.340313 -20.703903 0.685445
27.368776 -22.361229 0.740315
25.689463 -21.176760 -0.697383
27.006203 -22.262196 -0.244344
28.371944 -23.388025 -0.256701
26.931873 -22.399002 0.244554
25.366217 -21.096859 0.691100
38.333733 -31.881830 1.044398
27.839609 -23.360205 -0.761257
38.715054 -32.485786 -1.058639
25.715485 -21.577854 -0.234361
27.324139 -22.927675 -0.249022
28.261810 -23.925388 0.258516
25.020905 -21.181759 0.686702
38.389805 -32.499367 1.053613
25.726494 -21.972502 -0.708691
29.611317 -25.290453 -0.815707
38.848225 -33.179516 -1.070158
28.468906 -24.314743 -0.261378
25.779308 -22.212873 0.237572
38.498585 -33.172501 1.064503
29.502672 -25.646282 -0.818849
38.957111 -33.864899 -1.081257
28.799015 -25.034603 -0.266405
28.057978 -24.606186 0.260541
26.744593 -23.454378 0.745131
38.508305 -33.770878 1.072880
39.079426 -34.574554 -1.092985
38.772491 -34.303005 -0.361420
38.600067 -34.451878 0.361210
38.480659 -34.345303 1.080419
39.162575 -35.262138 -1.103875
38.887821 -35.014751 -0.365329
38.749474 -35.197544 0.365469
38.593910 -35.056240 1.092147
39.207180 -35.926762 -1.113927
34.238327 -31.373644 -0.324210
39.111610 -35.839188 -0.370356
38.793312 -35.860168 0.368820
38.646259 -35.724236 1.102409
39.272392 -36.622097 -1.124817
33.678017 -31.405260 -0.321487
39.177662 -36.533760 -0.373986
38.886780 -36.581028 0.372729
38.704426 -36.409489 1.113090
39.357433 -37.348808 -1.136545
33.199577 -31.505220 -0.319532
39.256306 -37.252842 -0.377826
39.057266 -37.389198 0.377477
38.811325 -37.153763 1.125446
39.432751 -38.079765 -1.148273
32.714775 -31.592293 -0.317508
39.310963 -37.962154 -0.381526
39.159271 -38.147274 0.381665
38.886665 -37.881714 1.137173
39.555325 -38.870911 -1.161676
32.152546 -31.596220 -0.314715
39.384731 -38.703266 -0.385505
35.927402 -35.615238 0.353182
35.558285 -35.249325 1.048796
31.677612 -31.677612 -0.312760
39.455597 -39.455597 -0.389554
34.509960 -34.812439 0.342221
35.580036 -35.891895 0.352833
34.679199 -34.983158 1.031833
35.502716 -35.813892 1.056336
39.676781 -40.375385 -1.185760
35.402065 -36.025402 -0.352623
34.944496 -35.871529 0.349622
33.626125 -34.518181 1.009425
39.822975 -41.237900 -1.200838
35.002983 -36.246651 -0.351786
35.287052 -36.861336 0.356254
33.427322 -34.918636 1.012566
39.867634 -42.011723 -1.213194
35.690315 -37.609745 -0.361978
35.183289 -37.400936 0.358488
33.347393 -35.449322 1.019477
39.997250 -42.891800 -1.228482
34.617393 -37.122608 -0.354369
34.828419 -37.677170 0.358208
33.681492 -36.436432 1.039372
34.346169 -37.482265 -0.354927
34.552090 -38.038883 0.358767
34.464687 -37.942661 1.073718
33.308510 -36.992847 -0.347527
33.819305 -37.891331 0.354578
33.560886 -37.933681 -0.353601
33.138046 -37.786697 1.052776
32.762962 -37.689476 -1.046074
32.867756 -37.810028 -0.349761
32.291237 -37.475826 0.345363
32.963665 -38.256214 1.057802
32.582157 -38.148804 -1.050891
31.724764 -37.144928 -0.341035
24.497929 -29.455557 0.802514
24.322184 -29.768867 0.805236
31.289152 -38.985474 0.348993
24.117800 -30.050156 0.807121
23.415188 -29.702024 0.792252
0.134374 -0.186657 0.001606
0.134348 -0.186621 0.004817
0.176695 -0.254704 0.002164
0.153865 -0.221796 0.005654
0.151924 -0.223130 0.005654
0.155556 -0.232806 0.001955
0.166635 -0.249386 0.006283
0.126080 -0.192304 0.004817
0.151469 -0.235485 0.001955
0.140623 -0.218622 0.005445
0.128064 -0.202970 0.001676
0.112034 -0.177564 0.004398
0.126288 -0.204080 0.001676
0.115742 -0.187036 0.004607
0.114127 -0.188076 0.001536
0.119292 -0.196587 0.004817
0.117595 -0.197659 0.001606
0.107348 -0.180436 0.004398
0.115843 -0.198639 0.004817