# This PCD file was generated using the MATLAB® pcwrite function
# from Computer Vision System Toolbox®.
# .PCD v.7 - Point Cloud Data file format
VERSION .7
FIELDS x y z
SIZE 4 4 4
TYPE F F F
COUNT 1 1 1
WIDTH 778
HEIGHT 1
VIEWPOINT 0 0 0 1 0 0 0
POINTS 778
DATA ascii
38.415524 40.481518 -1.169006
38.306000 40.366100 -0.388507
38.454800 39.821110 -1.159582
38.309475 39.670624 -0.385017
38.583599 39.262959 -1.153090
38.471973 39.149364 -0.383201
38.641979 38.641979 -1.144713
38.578804 38.578804 -0.380898
38.742397 38.072048 -1.137802
38.307747 37.644920 -0.374963
38.857407 37.524158 -1.131519
38.793049 37.462013 -0.376499
38.951313 36.963417 -1.124817
38.857357 36.874256 -0.373986
39.038410 36.403908 -1.118116
38.972889 36.342808 -0.372031
39.118729 35.845711 -1.111414
38.993649 35.731094 -0.369239
39.251732 35.342419 -1.106388
39.125622 35.228867 -0.367563
39.259136 34.733551 -1.098011
39.221855 34.700565 -0.365609
39.198563 34.074791 -1.087959
39.130737 34.015831 -0.361978
39.266354 33.536636 -1.081676
39.213181 33.491219 -0.360024
39.274143 32.954918 -1.073927
39.197540 32.890640 -0.357231
39.390476 32.471001 -0.356393
35.935120 29.099684 -0.968587
34.644321 28.054419 -0.311225
36.015553 28.648064 -0.963980
35.247814 28.037376 -0.314436
36.075100 28.184956 -0.958953
35.979694 28.110418 -0.318764
36.121387 27.716915 -0.953718
36.636166 28.111917 -0.322395
36.242115 27.310392 -0.950576
39.715176 29.927532 -0.347178
36.286179 26.850359 -0.945550
36.373638 26.915075 -0.315902
36.389690 26.438660 -0.942199
36.445328 26.479080 -0.314506
36.488796 26.027205 -0.938849
36.447063 25.997438 -0.312551
36.550739 25.593102 -0.934660
36.443188 25.517794 -0.310596
36.607895 25.159910 -0.930472
36.466694 25.062864 -0.308921
36.875793 24.873035 -0.931728
36.783501 24.810785 -0.309759
36.674591 24.274384 -0.921257
36.631710 24.246000 -0.306687
36.817947 23.909855 -0.919582
36.707718 23.838270 -0.305570
40.293751 25.917810 1.003561
36.856556 23.480215 -0.915393
28.826418 18.364452 -0.238619
36.787838 23.436438 -0.304523
28.838615 18.195812 0.238061
28.706161 18.112240 0.710995
36.856567 23.030539 -0.910367
28.883814 18.048611 -0.237782
28.902767 17.885576 0.237293
28.735601 17.782129 0.707854
37.022041 22.687136 -0.909529
29.006111 17.774967 -0.237502
29.442448 17.866116 0.240435
28.795664 17.473639 0.705550
37.047215 22.260212 -0.905341
28.928692 17.382111 -0.235618
28.703474 17.076773 0.233174
28.663509 17.052996 0.698639
37.102230 21.854883 -0.901990
29.225748 17.215282 -0.236804
29.464710 17.183311 0.238131
29.441694 17.169888 0.713927
29.724133 17.161236 -0.718953
29.331566 16.934587 -0.236455
29.518040 16.870951 0.237363
29.720608 16.986727 0.717068
30.847343 17.452587 -0.742409
29.617483 16.756765 -0.237572
29.795013 16.686008 0.238410
30.530663 17.097992 0.732985
37.221241 20.844896 0.893613
31.094656 17.236050 -0.744712
37.276859 20.662901 -0.892775
30.103676 16.686741 -0.240295
30.500580 16.733191 0.242878
37.189842 20.403046 0.296145
30.582289 16.778017 0.730681
37.121235 20.365406 0.886912
32.465172 17.627150 -0.773822
30.687546 16.661978 -0.243786
29.623634 15.917353 0.234780
37.165436 19.969709 0.883770
28.459988 15.132443 -0.675184
29.719292 15.802028 -0.234989
29.655212 15.602363 0.233942
27.561319 14.500711 0.652356
30.543074 16.069489 0.722932
28.342649 14.754250 -0.669320
29.696400 15.458967 -0.233733
29.505760 15.196465 0.231708
29.446678 15.166036 0.693822
29.156248 14.855850 -0.685445
29.616335 15.090277 -0.232057
27.985277 14.105742 0.218793
29.494375 14.866389 0.230591
28.024462 14.125491 0.657383
29.292213 14.764491 0.687121
29.141619 14.529475 -0.682095
29.299437 14.608160 -0.228566
27.954842 13.785803 0.217606
27.886625 13.752162 0.651309
28.629297 13.963442 -0.667225
28.041691 13.676847 -0.217815
30.261658 14.759597 -0.235059
28.110107 13.558706 0.217885
28.176666 13.590811 0.655288
28.786156 13.730292 -0.668063
28.755667 13.715750 -0.222423
28.200224 13.300089 0.217676
28.086216 13.246319 0.650472
28.832390 13.444764 -0.666388
28.964891 13.506551 -0.223121
28.487757 13.133036 0.219002
28.382330 13.084434 0.654660
29.075983 13.250690 -0.669320
28.635784 13.050078 -0.219700
28.592161 12.879829 0.218932
28.386044 12.786980 0.652147
28.879972 12.858192 -0.662199
41.657669 18.547190 -0.955184
28.675493 12.767152 -0.219142
28.676010 12.617746 0.218723
28.350130 12.474356 0.648796
28.844383 12.541895 -0.658849
28.776644 12.512441 -0.219072
28.720713 12.339393 0.218234
28.393608 12.198856 0.647330
28.842295 12.242828 -0.656335
31.962122 13.567116 -0.727330
28.884739 12.260844 -0.219072
28.596756 11.991614 0.216489
28.628059 12.004742 0.650262
28.892614 11.967712 -0.655079
28.556421 11.828457 -0.215791
28.441166 11.635589 0.214534
28.481890 11.652248 0.644608
29.088648 11.752577 -0.657173
28.677097 11.586300 -0.215930
28.588062 11.405480 0.214883
28.545343 11.388437 0.643770
29.022661 11.432330 -0.653404
28.749203 11.324612 -0.215721
28.528065 11.093958 0.213696
28.755455 11.182384 0.646283
28.831974 11.067558 -0.646911
28.921618 11.101969 -0.216279
28.960432 10.972126 0.216210
28.739752 10.888518 0.643770
28.805717 10.770017 -0.644189
28.848801 10.786124 -0.215023
29.101986 10.736289 0.216559
29.068172 10.723815 0.649006
29.030134 10.566105 -0.647121
29.007605 10.557904 -0.215512
29.194569 10.481921 0.216559
29.414709 10.560960 0.654660
29.611300 10.485911 -0.658011
29.145765 10.321056 -0.215861
29.435978 10.279504 0.217676
29.430241 10.277500 0.652985
29.578787 10.184793 -0.655288
29.650740 10.209569 -0.218932
29.562439 10.035095 0.217955
29.566143 10.036353 0.654032
29.694983 9.935802 -0.655917
29.558529 9.890145 -0.217606
29.686871 9.789262 0.218234
29.833002 9.837449 0.658011
29.723507 9.657753 -0.654660
29.681751 9.644185 -0.217885
29.761644 9.526777 0.218164
30.031975 9.613311 0.660524
29.749443 9.379963 -0.653404
30.060425 9.478016 -0.220049
30.111046 9.349728 0.220119
30.267492 9.398306 0.663875
30.193481 9.231073 -0.661362
30.591444 9.352743 -0.223331
30.306395 9.121190 0.220957
30.539827 9.191444 0.668063
30.905569 9.154647 -0.675184
30.978710 9.176312 -0.225565
30.701647 8.948714 0.223261
30.772448 8.969351 0.671414
31.099606 8.917668 -0.677697
33.175476 9.512915 -0.722932
31.326756 8.982802 -0.227519
33.287682 9.545089 -0.241761
30.922934 8.721169 0.224308
30.849548 8.700472 0.671414
31.436365 8.718076 -0.683351
33.536621 9.300528 -0.729006
43.007030 11.926905 -0.934870
31.596672 8.762533 -0.228916
33.475708 9.283635 -0.242529
43.005779 11.926558 -0.311574
31.152224 8.493071 0.225425
31.040047 8.462488 0.673927
33.742046 9.041154 -0.731728
43.022556 11.527860 -0.932985
31.739550 8.504586 -0.229404
33.555447 8.991155 -0.242529
31.534599 8.302367 0.227659
31.818502 8.377112 0.689215
33.877735 8.761378 -0.732985
32.528969 8.412563 -0.234570
33.030586 8.388700 0.237921
42.974651 10.914171 0.309549
31.890394 8.099128 0.689215
34.040211 8.487178 -0.734870
33.484089 8.348521 -0.240923
33.053967 8.088254 0.237572
43.068256 10.538735 0.309549
31.717075 7.761119 0.683979
34.200470 8.210807 -0.736754
33.448711 8.030325 -0.240155
32.529541 7.659690 0.233314
32.386955 7.626116 0.696964
32.147160 7.421757 -0.691100
34.300045 7.918789 -0.737383
33.088802 7.639152 -0.237084
32.585392 7.373322 0.233244
32.481529 7.349819 0.697592
32.279030 7.156088 -0.692566
33.674824 7.465529 -0.722513
33.222542 7.365261 -0.237572
31.544250 6.848928 0.225355
33.303223 7.230839 0.237921
32.730061 7.106393 0.701571
32.418480 6.890761 -0.694241
31.877054 6.775677 -0.227519
31.798622 6.614123 0.226751
34.774849 7.233179 0.247974
34.748493 7.227697 0.743456
33.897961 6.896618 -0.724608
33.414619 6.798281 -0.238061
34.571838 6.876766 0.246089
34.731796 6.908584 0.741781
32.229568 6.264793 -0.687749
32.952423 6.405302 -0.234361
34.591698 6.723945 -0.246020
34.512642 6.552430 0.245252
32.787003 6.224807 0.699058
34.319290 6.515720 0.731728
32.568092 6.036139 -0.693822
33.272533 6.166700 -0.236246
35.278328 6.538451 -0.250488
35.060516 6.339974 0.248742
34.532253 6.244449 0.735079
32.501373 5.730869 -0.691309
33.512192 5.909103 -0.237572
35.412823 6.244236 -0.251046
35.449589 6.091353 0.251116
35.265316 6.059690 0.749529
32.510704 5.440426 -0.690472
33.167976 5.550416 -0.234780
33.389275 5.437788 0.236176
35.531002 5.786592 0.251325
36.066807 5.873852 0.765445
32.576691 5.159641 -0.690890
32.859589 5.204448 -0.232267
35.388012 5.604910 -0.250139
32.970936 5.074712 0.232895
35.738281 5.500648 0.252442
35.820248 5.513263 0.759163
34.489307 5.154461 -0.730472
32.785076 4.899763 -0.231429
35.376236 5.287014 -0.249720
35.903679 5.205785 0.253280
43.751423 6.343654 0.308642
35.866993 5.200467 0.759163
34.394367 4.833813 -0.727540
32.905807 4.624609 -0.231987
35.381416 4.972534 -0.249440
35.967556 4.894969 0.253420
36.119049 4.915586 0.763561
34.346031 4.521740 -0.725655
36.447433 4.798396 -0.770053
33.093624 4.356858 -0.233034
35.601917 4.687081 -0.250697
35.929543 4.570815 0.252861
36.279583 4.615346 0.766074
34.374260 4.220628 -0.725445
36.517689 4.483808 -0.770681
36.008698 4.421312 -0.253280
36.117020 4.274731 0.253908
36.318478 4.298575 0.766074
34.320377 3.910313 -0.723561
36.475956 4.155910 -0.769006
36.393650 4.146533 -0.255724
36.421337 3.988785 0.255793
36.344669 3.980388 0.765864
36.570492 3.843714 -0.770262
36.557735 3.842373 -0.256631
36.454758 3.670801 0.255793
36.417809 3.667080 0.766702
36.722065 3.535933 -0.772775
36.629688 3.527038 -0.256910
36.614857 3.364433 0.256701
36.488247 3.352799 0.767540
36.741562 3.214470 -0.772566
36.688957 3.209868 -0.257120
36.563099 3.038159 0.256142
36.526077 3.035083 0.767749
36.808083 2.896859 -0.773404
36.755447 2.892716 -0.257399
36.658024 2.724162 0.256631
36.620964 2.721408 0.769215
36.792068 2.572752 -0.772566
36.749363 2.569766 -0.257190
36.770206 2.410047 0.257259
36.683224 2.404346 0.770053
36.892952 2.256469 -0.774241
36.850239 2.253857 -0.257748
36.829773 2.091346 0.257539
36.742737 2.086404 0.770890
36.961159 1.937052 -0.775288
36.948391 1.936383 -0.258307
36.886574 1.771789 0.257818
36.809475 1.768086 0.771938
37.046574 1.617488 -0.776754
36.993855 1.615187 -0.258516
36.900631 1.449830 0.257818
36.863464 1.448370 0.772775
37.099243 1.295534 -0.777592
37.046516 1.293693 -0.258795
36.981842 1.129897 0.258307
36.944653 1.128761 0.774241
37.109135 0.971737 -0.777592
37.096378 0.971403 -0.259075
37.030285 0.808004 0.258586
36.993076 0.807192 0.775079
37.196175 0.649262 -0.779267
37.143436 0.648341 -0.259354
37.115917 0.485874 0.259144
36.998714 0.484340 0.775079
37.170429 0.324381 -0.778639
37.107681 0.323834 -0.259075
37.118744 0.161962 0.259144
37.041523 0.161625 0.775917
37.281822 0.000000 -0.780943
37.149094 0.000000 -0.259354
37.168739 -0.162180 0.259493
37.131500 -0.162018 0.777801
37.400372 -0.326388 -0.783456
37.347668 -0.325928 -0.260750
37.235901 -0.487445 0.259982
37.198650 -0.486957 0.779267
37.436085 -0.653449 -0.784294
37.383396 -0.652530 -0.261029
37.310211 -0.814112 0.260541
37.402889 -0.816134 0.783665
37.508911 -0.982205 -0.785969
37.456245 -0.980826 -0.261588
37.581547 -1.148220 0.262495
37.514263 -1.146164 0.786178
37.778679 -1.319261 -0.791833
37.646133 -1.314632 -0.262984
37.450191 -1.471422 0.261658
37.372959 -1.468388 0.783456
37.605915 -1.641910 -0.788482
37.553307 -1.639613 -0.262426
37.475880 -1.800096 0.261937
37.398666 -1.796387 0.784294
37.630093 -1.972110 -0.789320
37.577515 -1.969354 -0.262705
37.498676 -2.129329 0.262216
37.421494 -2.124946 0.785131
37.721222 -2.307129 -0.791623
37.638744 -2.302084 -0.263263
37.568474 -2.462368 0.262844
37.481339 -2.456657 0.786807
37.739544 -2.639006 -0.792461
37.736927 -2.638823 -0.264101
37.655251 -2.798268 0.263612
37.578117 -2.792536 0.789320
37.804783 -2.975301 -0.794346
37.752338 -2.971174 -0.264380
37.709118 -3.133386 0.264171
37.632023 -3.126980 0.790995
37.847095 -3.311192 -0.795812
37.764820 -3.303994 -0.264660
37.760002 -3.469657 0.264729
37.643127 -3.458917 0.791833
37.856567 -3.645173 -0.796650
37.804226 -3.640133 -0.265148
37.768085 -3.803046 0.265009
37.730881 -3.799300 0.794346
37.902859 -3.983751 -0.798325
37.860527 -3.979302 -0.265777
37.812981 -4.141195 0.265567
37.736042 -4.132769 0.795184
38.025589 -4.332469 -0.801676
37.903843 -4.318597 -0.266335
37.894569 -4.485118 0.266405
37.777969 -4.471317 0.796859
38.065720 -4.673883 -0.803351
37.973892 -4.662608 -0.267103
37.933346 -4.825731 0.266963
37.896194 -4.821005 0.800210
38.142429 -5.021546 -0.805864
38.020985 -5.005558 -0.267731
38.008690 -5.172756 0.267801
37.931934 -5.162310 0.801885
38.097157 -5.354207 -0.805864
38.045174 -5.346900 -0.268220
38.041271 -5.515722 0.268360
37.964596 -5.504604 0.803561
38.217079 -5.711581 -0.809425
38.125633 -5.697914 -0.269128
38.070759 -5.859650 0.268918
37.994167 -5.847861 0.805236
38.086784 -6.032354 -0.807749
38.123840 -6.038223 -0.269477
37.899738 -6.172364 0.268080
37.823273 -6.159911 0.802723
38.032692 -6.364490 -0.807749
37.980934 -6.355828 -0.268848
37.923271 -6.516410 0.268639
37.886318 -6.510060 0.805236
38.054470 -6.710030 -0.809425
37.963413 -6.693974 -0.269128
37.943684 -6.861336 0.269197
37.906773 -6.854661 0.806911
38.191074 -7.078298 -0.813613
38.139530 -7.068744 -0.270803
38.078850 -7.229496 0.270594
38.002670 -7.215032 0.810262
38.284878 -7.441826 -0.816964
38.194183 -7.424197 -0.271641
38.171234 -7.592731 0.271711
38.134373 -7.585399 0.814451
38.336044 -7.799556 -0.819477
38.245529 -7.781141 -0.272479
38.221004 -7.949980 0.272548
38.145035 -7.934178 0.816126
38.422989 -8.167059 -0.822828
38.342453 -8.149940 -0.273665
38.306526 -8.317163 0.273665
38.230667 -8.300692 0.819477
38.477150 -8.530178 -0.825550
38.416313 -8.516691 -0.274713
38.310513 -8.668784 0.274224
38.273788 -8.660475 0.821990
38.508400 -8.890365 -0.827854
38.467194 -8.880851 -0.275620
38.515678 -9.069239 0.276248
38.586021 -9.085802 0.830367
38.711277 -9.293756 -0.833927
38.757721 -9.304906 -0.278273
38.736179 -9.478683 0.278413
38.660648 -9.460200 0.833718
38.842121 -9.684428 -0.838534
38.801182 -9.674221 -0.279181
38.729523 -9.836046 0.278971
38.692902 -9.826745 0.836231
38.910999 -10.063068 -0.841885
38.821774 -10.039993 -0.279949
38.874298 -10.234749 0.280647
38.799042 -10.214935 0.840419
39.014847 -10.453997 -0.846074
38.925861 -10.430153 -0.281345
38.937866 -10.615681 0.281764
38.862755 -10.595203 0.843770
39.085915 -10.839483 -0.849634
39.035717 -10.825562 -0.282811
38.959240 -10.987641 0.282601
38.922775 -10.977358 0.847121
39.182045 -11.235271 -0.853822
39.083946 -11.207142 -0.283858
39.053875 -11.383167 0.283998
38.979073 -11.361364 0.850472
39.226299 -11.619359 -0.856964
39.214771 -11.615945 -0.285534
39.144562 -11.781177 0.285394
39.069916 -11.758710 0.854660
39.314629 -12.019688 -0.861152
39.226665 -11.992795 -0.286371
39.231262 -12.181631 0.286790
39.156776 -12.158503 0.858849
39.398941 -12.422439 -0.865341
39.320793 -12.397798 -0.287837
39.275845 -12.572297 0.287907
39.201534 -12.548511 0.862199
39.488716 -12.830661 -0.869739
39.401310 -12.802262 -0.289234
39.316586 -12.964665 0.289024
39.242458 -12.940222 0.865550
39.517460 -13.222358 -0.872880
39.430336 -13.193206 -0.290281
39.429211 -13.384413 0.290700
39.355251 -13.359308 0.870576
39.551823 -13.618784 -0.876231
39.550079 -13.618184 -0.292026
39.679096 -13.856560 0.293422
39.605286 -13.830786 0.878744
39.930962 -14.140295 -0.887330
39.806782 -14.096320 -0.294819
39.566074 -14.205672 0.293492
39.445446 -14.162362 0.877906
39.721489 -14.457440 -0.885446
39.635269 -14.426058 -0.294470
39.665764 -14.633472 0.295168
39.582993 -14.602937 0.883770
39.781109 -14.873547 -0.889634
39.695202 -14.841427 -0.295866
39.686172 -15.035746 0.296285
39.575592 -14.993851 0.886493
39.911144 -15.320453 -0.895498
39.825569 -15.287604 -0.297821
39.767807 -15.464854 0.297890
39.666874 -15.425604 0.891519
39.999180 -15.756097 -0.900524
39.876724 -15.707860 -0.299217
39.826382 -15.889115 0.299356
39.753616 -15.860085 0.896545
40.054829 -16.183201 -0.904922
39.969921 -16.148897 -0.300962
39.908333 -16.326931 0.301032
39.835781 -16.297249 0.901571
40.087578 -16.604818 -0.908901
40.049202 -16.588923 -0.302638
39.948772 -16.751911 0.302428
39.876446 -16.721581 0.905760
37.704811 -16.004744 -0.858011
40.123829 -17.031555 -0.304313
37.559269 -16.136736 0.285394
39.986210 -17.179432 0.911624
37.563709 -16.333166 -0.858011
37.552696 -16.328377 -0.285883
37.536011 -16.516239 0.286301
40.017792 -17.608250 0.915812
37.419750 -16.660345 -0.858011
37.408775 -16.655460 -0.285883
37.426918 -16.859598 0.286581
39.999344 -18.018391 0.918953
35.453415 -16.157051 -0.816126
37.118279 -16.915773 -0.854451
34.941662 -15.923833 -0.268080
37.207409 -16.956394 -0.285464
40.264805 -18.349730 -0.308921
37.450912 -17.265106 0.287907
40.293331 -18.575480 0.309759
36.808048 -16.968744 0.849006
40.140205 -18.504889 0.925864
35.175152 -16.402443 -0.812985
34.864811 -16.257729 -0.268569
35.842686 -16.904507 0.276667
37.407352 -17.642452 0.288745
36.703781 -17.310627 0.850053
40.167088 -18.944027 0.930262
34.750935 -16.575346 -0.806493
35.163864 -16.772305 -0.271990
35.072334 -16.916885 0.271850
36.425255 -17.569456 0.847121
40.261387 -19.419788 0.936336
34.542065 -16.847292 -0.805027
34.611713 -16.881262 -0.268848
34.672256 -17.098465 0.269896
34.486160 -17.006693 0.805445
36.198811 -17.851278 0.845446
34.411629 -17.157003 -0.805445
35.986366 -17.942141 -0.842304
34.686810 -17.294207 -0.270594
34.137753 -17.206844 0.266894
35.405754 -17.845968 0.276807
34.479282 -17.378990 0.808796
36.380913 -18.337488 0.853404
34.189331 -17.420334 -0.803770
35.926411 -18.305422 -0.844608
37.966370 -19.344831 -0.892566
35.532475 -18.104700 -0.278413
33.746269 -17.380470 0.265009
35.497589 -18.282459 0.278762
33.864124 -17.441170 0.797906
32.315586 -16.822430 -0.763142
32.109009 -16.714893 -0.252722
33.288704 -17.329002 -0.262007
35.186863 -18.317122 -0.276947
32.327812 -17.008484 0.255025
34.144184 -17.964123 0.808168
32.202866 -17.122566 -0.763979
31.802998 -16.909954 -0.251465
32.151730 -17.275747 0.254816
33.008545 -17.736130 0.784922
35.183868 -18.904974 0.836650
33.018703 -17.927694 -0.787016
37.218529 -20.208012 -0.887121
31.566341 -17.139126 -0.250767
33.121811 -17.983675 -0.263124
32.376732 -17.762482 0.257818
31.651659 -17.364695 0.756231
33.018398 -18.302397 -0.790786
33.147278 -18.373837 -0.264590
34.931461 -19.362823 -0.278832
32.150696 -18.005255 0.257259
31.559982 -17.674438 0.757697
32.979248 -18.658760 -0.793718
32.019608 -18.115822 -0.256841
31.714529 -18.126347 0.255025
33.103615 -18.920275 0.266195
31.795147 -18.172424 0.767121
32.953697 -19.025826 -0.797068
31.461937 -18.164557 -0.253629
33.427765 -19.299530 -0.269477
31.339188 -18.276474 0.253280
33.040901 -19.268885 0.267033
32.162178 -18.756428 0.779896
31.433952 -18.516012 -0.764189
31.638252 -18.636354 -0.256352
31.273037 -18.605501 0.254048
32.897274 -19.571823 0.267243
31.808249 -18.923920 0.775288
32.033886 -19.247900 -0.782828
31.208700 -18.752079 -0.254188
31.733555 -19.256393 0.259144
33.024441 -20.039722 0.269686
32.026524 -19.434172 0.784712
31.302080 -19.181940 -0.769006
30.975662 -18.981911 -0.253629
31.504782 -19.495750 0.258656
31.609161 -19.560343 0.778639
31.031754 -19.390791 -0.766493
31.402456 -19.622433 -0.258516
31.392653 -19.807287 0.259144
32.889553 -20.751762 0.271501
31.335798 -19.771418 0.776126
31.097454 -19.811264 -0.772356
31.095085 -19.809753 -0.257399
32.537251 -20.728514 -0.269337
31.117685 -20.015568 0.258307
32.623108 -20.983889 0.270803
31.439552 -20.222599 0.783037
31.024006 -20.147224 -0.774870
32.675823 -21.219929 -0.816126
32.422215 -21.055231 -0.269896
31.962078 -20.955257 0.266824
31.454185 -20.622267 0.787854
32.747852 -21.675329 -0.822618
31.978743 -21.166267 -0.267731
31.503616 -21.050043 0.264520
30.741003 -20.540482 0.774451
31.803196 -21.451527 -0.803561
31.560692 -21.287954 -0.265777
31.079018 -21.160950 0.262495
32.261013 -21.965740 0.272479
31.130806 -21.196213 0.788901
31.449997 -21.614985 -0.799372
31.711603 -21.794781 -0.268639
31.673717 -21.972839 0.269128
31.133589 -21.598139 0.793718
31.522247 -22.072115 -0.806074
31.520203 -22.070683 -0.268639
31.301107 -22.121435 0.267592
30.984751 -21.897856 0.794765
31.116810 -22.195406 -0.800629
32.541199 -23.211412 -0.837278
31.619476 -22.553953 -0.271152
31.390917 -22.598227 0.270035
32.770557 -23.591427 0.281903
31.401026 -22.605503 0.810472
32.491085 -23.606155 -0.841257
32.020111 -23.263973 -0.276318
31.781208 -23.302946 0.275131
37.071354 -27.181843 0.320929
31.420254 -23.038282 0.816126
36.878685 -27.040571 0.957906
31.536425 -23.335728 -0.821781
31.663151 -23.429499 -0.274992
31.496519 -23.519567 0.274433
30.328815 -22.647602 0.792880
31.794691 -23.959019 -0.833927
31.808878 -23.969707 -0.278064
30.478174 -23.176142 0.267312
31.624390 -24.047745 0.277365
29.899237 -22.735909 0.786807
30.910198 -23.718229 -0.816126
30.464025 -23.375870 -0.268080
30.274767 -23.441229 0.267312
30.387442 -23.528471 0.805027
31.699697 -24.544529 0.839791
30.639017 -23.937824 -0.814451
34.972126 -27.323219 -0.929634
30.006718 -23.443817 -0.265846
31.239145 -24.626957 0.277715
30.133854 -23.755615 0.803770
31.422651 -24.994705 -0.841048
34.169003 -27.179253 -0.914555
31.342693 -24.931103 -0.279599
29.486713 -23.665590 0.263961
29.792850 -23.911291 0.800210
31.149551 -25.000158 0.836650
31.079021 -25.167295 -0.837697
33.837284 -27.400892 -0.912042
30.517778 -24.712809 -0.274154
31.667927 -25.644180 -0.284486
29.294559 -23.934660 0.264101
30.696177 -25.079828 0.276737
30.496635 -24.916798 0.824922
30.187048 -24.884281 -0.819477
33.897747 -27.943148 -0.920210
30.733059 -25.334377 -0.278064
30.330070 -25.225254 0.275411
30.823795 -25.635880 0.839791
31.094584 -26.091454 -0.850262
30.901480 -25.929420 -0.281624
30.322487 -25.669880 0.277365
31.026226 -26.265638 0.851519
30.683254 -26.205975 -0.845236
30.324251 -25.899357 -0.278413
33.555897 -28.659445 -0.308083
30.468521 -26.253357 0.280786
31.068501 -26.770332 0.859058
30.604307 -26.603918 -0.849425
31.017807 -26.963369 -0.286930
33.742245 -29.331684 -0.312132
30.847235 -27.052299 0.286441
30.841223 -27.047026 0.859267
32.171688 -28.213812 0.896336
47.256229 -41.808781 -1.321676
33.747124 -29.856932 -0.314576
34.399868 -30.703056 0.321906
30.753199 -27.448280 0.863456
32.073433 -28.626633 0.900524
46.421505 -41.798111 -1.308482
33.515015 -30.177055 -0.314855
32.028458 -29.092604 0.302079
30.460695 -27.668549 0.861990
46.298233 -42.424515 -1.315393
31.714617 -29.316690 0.301521
33.463078 -30.932953 0.954556
46.138298 -43.024658 -1.321467
46.051170 -43.700928 -1.329844
46.013268 -44.434494 -1.339896
45.901863 -45.107635 -1.348064
45.796329 -45.796329 -1.356650
45.731308 -46.536514 -1.366702
45.642937 -47.264645 -1.376336
45.572842 -48.023758 -1.386807
45.354576 -47.793751 -0.459995
45.235847 -48.509510 -0.463067
54.664879 -60.181335 1.703038
49.155525 -57.553726 -0.528412
48.335358 -57.096031 0.522268
47.566708 -57.192749 0.519336
45.935406 -57.234329 0.512355
0.128507 -0.178507 0.004607
0.131071 -0.188937 0.004817
0.155556 -0.232806 0.001955
0.138862 -0.207822 0.005236
0.120622 -0.183978 0.001536
0.126080 -0.192304 0.004817
0.129831 -0.201844 0.001676
0.162257 -0.252256 0.006283
0.128064 -0.202970 0.001676
0.112034 -0.177564 0.004398
0.147336 -0.238093 0.001955
0.157830 -0.255050 0.006283
0.129690 -0.213723 0.001745
0.119292 -0.196587 0.004817
0.117595 -0.197659 0.001606
0.102236 -0.171844 0.004188
0.130953 -0.224548 0.005445