# This PCD file was generated using the MATLAB® pcwrite function
# from Computer Vision System Toolbox®.
# .PCD v.7 - Point Cloud Data file format
VERSION .7
FIELDS x y z
SIZE 4 4 4
TYPE F F F
COUNT 1 1 1
WIDTH 1056
HEIGHT 1
VIEWPOINT 0 0 0 1 0 0 0
POINTS 1056
DATA ascii
31.733242 34.029736 -0.974660
31.780350 34.080254 -0.325327
31.719305 33.425171 -0.965236
31.608471 33.308380 -0.320579
31.655584 32.780315 -0.954556
31.620079 32.743549 -0.317787
31.611082 32.167671 -0.944713
31.547157 32.102619 -0.314227
31.636089 31.636089 -0.937173
31.663469 31.663469 -0.312621
31.654243 31.106539 -0.929634
31.389387 30.846266 -0.307245
31.665585 30.579100 -0.922095
31.520702 30.439188 -0.305919
31.670151 30.053852 -0.914555
31.698088 30.080362 -0.305081
31.646046 29.510416 -0.906388
31.579082 29.447971 -0.301451
31.637003 28.989973 -0.898849
31.510466 28.874022 -0.298379
31.532150 28.391674 -0.888796
31.612610 28.464123 -0.296983
31.509144 27.876936 -0.881257
31.560225 27.922129 -0.294190
31.570124 27.443489 -0.876231
31.561186 27.435720 -0.291956
31.625950 27.011114 -0.871205
31.525663 26.925461 -0.289443
31.584743 26.502747 -0.863665
31.575583 26.495060 -0.287768
31.567953 26.022612 -0.856964
31.527813 25.989523 -0.285254
31.545206 25.544804 -0.850262
31.566900 25.562372 -0.283579
31.579138 25.119181 -0.845236
31.569643 25.111628 -0.281624
31.608057 24.694921 -0.840210
31.535421 24.638172 -0.279390
31.631992 24.272081 -0.835184
31.590561 24.240290 -0.277994
31.563137 23.784531 -0.827854
31.545334 23.771114 -0.275760
31.600719 23.383303 -0.823456
31.558651 23.352173 -0.274084
31.609449 22.965611 -0.818430
31.567074 22.934822 -0.272409
31.580755 22.526333 -0.812566
31.570631 22.519112 -0.270733
31.546816 22.089319 -0.806702
31.569351 22.105097 -0.269058
31.573589 21.699926 -0.802514
31.563263 21.692831 -0.267382
31.517099 21.459229 0.266195
31.571115 21.294987 -0.797697
31.560692 21.287954 -0.265777
31.511930 21.055599 0.264590
31.447598 21.012613 0.792252
31.472286 20.831051 -0.790576
31.470083 20.829594 -0.263473
31.502132 20.653702 0.262984
31.462545 20.627748 0.788063
31.460018 20.430374 -0.785760
21.846836 14.187501 -0.181862
31.482925 20.445251 -0.262076
31.479322 20.248180 0.261309
31.447960 20.228008 0.783247
31.468466 20.047625 -0.781571
22.315594 14.216601 -0.184724
31.457735 20.040787 -0.260401
31.451851 19.844641 0.259633
31.462631 19.851442 0.779267
31.489599 19.676886 -0.777801
22.074154 13.793463 -0.181722
31.461817 19.659525 -0.259005
25.254847 15.628173 0.207343
31.453762 19.464178 0.258237
31.464634 19.470905 0.775079
22.010342 13.487954 -0.540733
31.515194 19.312536 -0.774241
22.773464 13.955597 -0.186469
31.521339 19.316301 -0.258097
31.459990 19.090391 0.256910
31.428215 19.071110 0.770053
31.468281 18.908051 -0.769006
31.440130 18.891136 -0.256073
31.453508 18.712872 0.255514
31.421600 18.693888 0.765864
31.494253 18.551533 -0.765655
31.517626 18.565300 -0.255374
31.442846 18.336926 0.254118
31.410807 18.318241 0.761676
31.516411 18.196009 -0.762304
31.505236 18.189556 -0.253978
31.393305 17.942751 0.252442
31.430584 17.964060 0.758325
31.499966 17.821823 -0.758116
31.488701 17.815451 -0.252582
31.478889 17.629025 0.251884
31.446583 17.610933 0.754974
21.292318 11.802526 -0.509948
25.673203 14.230888 -0.614869
31.540613 17.483248 -0.755393
31.468050 17.443026 -0.251186
22.785574 12.500593 0.181443
31.456190 17.257456 0.250488
22.351629 12.262524 0.534032
31.458822 17.258902 0.751623
23.977659 13.018806 -0.571519
31.516256 17.111931 -0.751205
22.593838 12.267453 -0.179488
31.478462 17.091410 -0.250069
22.788088 12.244481 0.180605
31.429415 16.887634 0.249091
22.501822 12.090665 0.535079
31.432095 16.889074 0.747435
31.461351 16.728296 -0.746388
21.508080 11.436049 -0.170063
31.493973 16.745642 -0.249022
31.478243 16.561504 0.248323
22.544540 11.861256 0.533613
31.472107 16.558277 0.744922
24.254425 12.626055 -0.572775
31.393297 16.342316 -0.741362
22.999630 11.972850 -0.181024
31.426027 16.359354 -0.247346
31.434879 16.190027 0.246857
31.446527 16.196026 0.740943
23.187813 11.814781 -0.545131
31.499081 16.049583 -0.740524
31.487404 16.043633 -0.246718
31.432093 15.843079 0.245740
31.434893 15.844490 0.737383
31.494781 15.702719 -0.737173
22.533897 11.234987 -0.175788
31.483023 15.696856 -0.245601
31.461529 15.515109 0.244903
22.829372 11.258201 0.533194
31.329861 15.450177 0.731728
31.486835 15.357156 -0.733822
22.550194 10.998464 -0.175160
31.475000 15.351383 -0.244484
31.073332 14.987996 0.240853
31.103294 15.002448 0.723351
22.225800 10.601163 -0.515812
23.561333 11.238179 -0.546807
22.952185 10.947630 -0.177533
31.084280 14.826441 -0.240435
31.049189 14.643748 0.239667
31.124519 14.679276 0.720838
23.250757 10.842007 -0.537382
30.717096 14.323617 -0.709948
23.237165 10.835669 -0.179000
31.022160 14.465871 -0.238969
23.238817 10.713242 0.178650
31.094065 14.334560 0.239038
31.178797 14.373622 0.719163
22.998775 10.481146 -0.529424
30.840921 14.055017 -0.709948
31.192713 14.215338 -0.239318
23.395245 10.538789 0.179139
31.108562 14.013386 0.238201
31.047804 13.986016 0.713299
31.135935 13.862611 -0.713927
23.313112 10.379666 -0.178162
31.233358 13.905987 -0.238689
31.202208 13.729300 0.237991
31.168673 13.714543 0.713299
23.031496 10.014380 -0.526074
31.081518 13.514628 -0.709948
31.096748 13.521252 -0.236735
31.137075 13.377543 0.236595
31.213678 13.410455 0.711623
31.005007 13.160845 -0.705550
31.020258 13.167318 -0.235268
23.266563 9.756480 0.176137
31.068193 13.027975 0.235199
31.145117 13.060231 0.707435
25.179432 10.429663 -0.570890
31.007833 12.843865 -0.703037
31.106266 12.884637 -0.235059
31.106659 12.726069 0.234640
31.109848 12.727375 0.704084
31.007498 12.527843 -0.700524
31.180433 12.597713 -0.234780
31.142225 12.424488 0.234082
30.690424 12.244237 0.692147
31.115643 12.256778 -0.700524
31.186836 12.284822 -0.234012
30.764830 11.963788 0.230451
29.957481 11.649827 0.673299
23.306391 8.946486 -0.522932
26.190521 10.053599 -0.587644
30.754728 11.805634 -0.690053
31.106142 11.940529 -0.232616
31.129892 11.794062 0.232406
30.020607 11.373790 0.672461
30.734838 11.491285 -0.687330
25.149035 9.402839 -0.187447
31.162325 11.651115 -0.232267
31.081522 11.466578 0.231289
30.428251 11.225574 0.679372
23.440189 8.531531 -0.522513
30.871527 11.236317 -0.688168
23.660883 8.611857 -0.175788
30.924530 11.255609 -0.229753
31.105110 11.167875 0.230731
30.807344 11.060966 0.685655
31.072073 11.003199 -0.690472
31.172394 11.038724 -0.230870
26.537695 9.267378 0.196243
31.125856 10.869636 0.230172
30.987644 10.821370 0.687540
23.056141 7.938866 -0.510786
24.606451 8.472680 -0.545131
31.006208 10.676293 -0.686911
23.486109 8.086916 -0.173414
26.284777 9.050574 -0.194079
31.154078 10.727209 -0.230033
31.143772 10.571886 0.229614
25.722448 8.731595 0.569006
30.995693 10.521620 0.685655
26.196436 8.765204 -0.578639
31.155081 10.424344 -0.688168
23.110085 7.732526 -0.170133
31.142189 10.420031 -0.229265
25.935652 8.552295 0.190658
31.149372 10.271523 0.228985
31.086330 10.250734 0.685655
31.121252 10.111908 -0.685445
22.606062 7.345155 -0.165945
31.117811 10.110789 -0.228427
31.056870 9.941382 0.227659
31.060337 9.942492 0.683142
31.093889 9.803865 -0.682932
22.707447 7.159631 -0.166224
31.090414 9.802771 -0.227589
23.292368 7.232473 0.170273
31.104242 9.658124 0.227380
31.107725 9.659205 0.682304
31.073088 9.499996 -0.680629
21.143383 6.464181 -0.154356
23.142012 7.075223 -0.168947
31.098272 9.507696 -0.227031
22.540680 6.783975 0.164339
30.957527 9.317159 0.225704
30.999361 9.329748 0.678116
21.194855 6.278202 -0.463037
23.035385 6.823392 -0.503246
31.030188 9.191561 -0.677906
31.055414 9.199033 -0.226123
22.685425 6.612198 0.164967
30.999254 9.035459 0.225425
22.594618 6.585730 0.492985
30.964417 9.025304 0.675602
20.864414 5.982775 -0.454660
31.118828 8.923181 -0.678116
31.009546 8.891845 -0.225215
30.701574 8.658739 0.222702
22.699339 6.401876 0.494032
30.762945 8.676048 0.669529
21.609491 5.992842 -0.469738
30.867949 8.560440 -0.670995
21.488436 5.959270 -0.155682
30.575249 8.479267 -0.221515
22.855255 6.231058 0.165386
29.627897 8.077492 0.214395
23.014776 6.274549 0.499686
29.380978 8.010174 0.637906
21.554735 5.775574 -0.467435
22.926050 6.143016 -0.497173
29.830904 7.993167 -0.646911
21.703825 5.815522 -0.156869
24.756075 6.633370 -0.178930
29.508314 7.906729 -0.213278
24.784784 6.525289 0.178930
29.252426 7.701521 0.211183
22.739933 5.986925 0.492566
24.596252 6.475653 0.532775
29.285397 7.710202 0.634346
21.265539 5.499642 -0.460105
24.566198 6.353251 -0.531519
29.280043 7.572334 -0.633508
22.470160 5.811178 -0.162035
24.464495 6.326949 -0.176416
29.188940 7.548773 -0.210485
29.783739 7.564106 0.214534
22.568438 5.731653 0.487749
24.903770 6.324752 0.538220
29.593821 7.515873 0.639582
21.332123 5.318696 -0.460524
23.805836 5.935462 -0.513927
24.921431 6.213611 -0.538011
21.947554 5.472140 -0.157916
29.729137 7.412306 -0.213906
22.456881 5.495164 0.161407
29.732056 7.275388 0.213696
29.697126 7.266840 0.640419
21.416611 5.141674 -0.461361
23.497026 5.641137 -0.506178
30.127134 7.232885 -0.649006
21.313829 5.116998 -0.153029
24.532295 5.889683 -0.176137
29.394026 7.056881 -0.211043
22.250908 5.239393 0.159592
29.444006 6.933143 0.211183
30.031897 7.071573 0.646283
21.353508 4.929846 -0.459058
29.809185 6.881993 -0.640838
22.107918 5.104015 -0.158405
24.962753 5.763105 -0.178860
29.727306 6.863090 -0.212998
29.708202 6.722280 0.212649
29.780422 6.738621 0.639582
22.274189 4.938069 -0.477906
24.236113 5.373017 -0.520000
29.965714 6.643239 -0.642932
22.063751 4.891416 -0.157776
29.776302 6.601247 -0.212928
29.951403 6.503087 0.213976
30.082346 6.531518 0.644817
30.130117 6.404354 -0.645236
22.164284 4.711164 -0.158195
30.047962 6.386891 -0.214464
30.163656 6.274049 0.215093
30.294811 6.301330 0.648168
22.072861 4.490775 -0.471833
30.273033 6.159118 -0.647121
22.322142 4.541491 -0.159033
24.419128 4.968128 -0.173973
30.171146 6.138389 -0.214953
22.351551 4.446000 0.159103
24.891724 4.951272 0.177184
30.334949 6.033997 0.215930
30.348646 6.036721 0.648168
22.513588 4.376198 -0.480419
24.662882 4.793978 -0.526283
30.364883 5.902336 -0.647958
22.341290 4.342707 -0.158893
24.726585 4.806362 -0.175858
30.419886 5.913027 -0.216349
24.816092 4.711483 0.176347
30.189964 5.731744 0.214534
30.193901 5.732491 0.643770
22.442787 4.159524 -0.478115
30.375914 5.629843 -0.647121
22.545486 4.178559 -0.160080
24.600439 4.559422 -0.174671
30.244184 5.605428 -0.214744
30.356916 5.489425 0.215372
30.321484 5.483017 0.645445
21.818554 3.847200 -0.464084
30.226967 5.329830 -0.642932
30.360884 5.353443 -0.215232
30.314966 5.209064 0.214744
30.318909 5.209742 0.644398
24.484100 4.097233 -0.520000
30.380795 5.084002 -0.645236
30.376856 5.083343 -0.215023
30.319790 4.937891 0.214464
30.333614 4.940143 0.643770
21.566383 3.415779 -0.457382
30.374630 4.810869 -0.644189
30.370676 4.810243 -0.214674
30.282660 4.660947 0.213906
30.296518 4.663080 0.642095
22.574280 3.373749 -0.478115
24.364006 3.641225 -0.516021
30.336351 4.533798 -0.642513
30.332376 4.533204 -0.214115
30.322180 4.396507 0.213906
30.286585 4.391346 0.641047
24.899780 3.499436 -0.526702
30.305458 4.259154 -0.641047
24.835318 3.490376 -0.175090
30.331171 4.262768 -0.213836
30.280125 4.120944 0.213347
30.294033 4.122837 0.640419
24.760860 3.259829 -0.523142
30.212612 3.977566 -0.638325
22.772934 2.998114 -0.160360
25.271313 3.327032 -0.177952
30.238331 3.980952 -0.212928
30.205814 3.842665 0.212579
30.209845 3.843178 0.637906
22.893019 2.810909 -0.483142
24.986832 3.067997 -0.527330
30.285866 3.718637 -0.639163
30.291771 3.719362 -0.213068
30.238197 3.578927 0.212579
30.192589 3.573528 0.636859
24.823915 2.828328 -0.523351
30.237694 3.445150 -0.637487
30.243589 3.445822 -0.212510
30.178816 3.305118 0.211951
30.182871 3.305562 0.636021
25.454176 2.675342 -0.536126
30.236778 3.178013 -0.636859
30.272509 3.181769 -0.212510
30.216457 3.042637 0.212021
30.180725 3.039039 0.635393
30.313118 2.918821 -0.637906
25.610920 2.466051 -0.179628
30.249353 2.912681 -0.212160
30.241859 2.778836 0.212021
30.245918 2.779210 0.636231
30.247797 2.646339 -0.636021
30.233772 2.645112 -0.211881
30.215130 2.510684 0.211672
30.179348 2.507710 0.634346
30.279707 2.383065 -0.636231
30.265673 2.381960 -0.211951
30.195999 2.243950 0.211393
30.200083 2.244254 0.634346
30.219563 2.113158 -0.634555
30.245405 2.114965 -0.211672
30.224411 1.981012 0.211462
30.218517 1.980626 0.634346
30.266788 1.851196 -0.635184
30.262709 1.850947 -0.211672
30.160677 1.712647 0.210904
30.164780 1.712880 0.632880
30.201918 1.582815 -0.633508
30.237766 1.584694 -0.211393
30.174475 1.449384 0.210904
30.218523 1.451500 0.633718
30.264523 1.321378 -0.634555
30.210482 1.319018 -0.211113
30.185974 1.186010 0.210904
30.190079 1.186171 0.632880
30.194967 1.054431 -0.632880
30.180868 1.053939 -0.210834
30.195173 0.922546 0.210904
30.199280 0.922671 0.632880
30.193024 0.790632 -0.632671
30.228901 0.791572 -0.211113
30.202074 0.659012 0.210904
30.206182 0.659101 0.632880
30.248756 0.527994 -0.633718
30.274651 0.528446 -0.211393
30.206676 0.395427 0.210904
30.170795 0.394957 0.632042
30.202225 0.263571 -0.632671
30.238111 0.263884 -0.211113
30.208977 0.131812 0.210904
30.213085 0.131830 0.632880
30.213373 0.000000 -0.632880
30.199265 0.000000 -0.210834
30.208977 -0.131812 0.210904
30.213085 -0.131830 0.632880
30.202225 -0.263571 -0.632671
30.198114 -0.263535 -0.210834
30.206676 -0.395427 0.210904
30.210783 -0.395481 0.632880
30.198774 -0.527122 -0.632671
30.234657 -0.527748 -0.211113
30.162085 -0.658139 0.210625
30.166201 -0.658229 0.632042
30.233002 -0.791679 -0.633508
30.218904 -0.791310 -0.211043
30.195173 -0.922546 0.210904
30.199280 -0.922671 0.632880
30.224943 -1.055478 -0.633508
30.260817 -1.056731 -0.211393
30.185974 -1.186010 0.210904
30.230040 -1.187742 0.633718
30.264523 -1.321378 -0.634555
30.250443 -1.320763 -0.211393
30.254381 -1.453222 0.211462
30.208536 -1.451020 0.633508
30.251839 -1.585432 -0.634555
30.237766 -1.584694 -0.211393
30.230562 -1.716616 0.211393
30.284559 -1.719682 0.635393
30.266788 -1.851196 -0.635184
30.302633 -1.853389 -0.211951
30.214432 -1.980358 0.211393
30.268400 -1.983896 0.635393
30.299349 -2.118737 -0.636231
30.275331 -2.117057 -0.211881
30.245861 -2.247656 0.211742
30.249935 -2.247958 0.635393
30.279707 -2.383065 -0.636231
30.265673 -2.381960 -0.211951
30.225096 -2.511512 0.211742
30.269020 -2.515162 0.636231
30.297596 -2.650696 -0.637068
30.283581 -2.649470 -0.212230
30.241859 -2.778836 0.212021
30.136404 -2.769146 0.633927
30.313118 -2.918821 -0.637906
30.328983 -2.920349 -0.212719
30.176661 -3.038630 0.211742
30.130987 -3.034031 0.634346
30.157234 -3.169653 -0.635184
30.153170 -3.169226 -0.211672
30.099293 -3.296409 0.211393
30.113300 -3.297943 0.634555
30.168159 -3.437227 -0.636021
30.154171 -3.435634 -0.211881
30.119032 -3.564822 0.211742
30.083376 -3.560602 0.634555
30.137016 -3.700360 -0.636021
30.123041 -3.698644 -0.211881
30.086777 -3.827522 0.211742
30.090830 -3.828037 0.635393
30.103577 -3.963211 -0.636021
30.139189 -3.967900 -0.212230
30.091864 -4.095323 0.212021
30.056278 -4.090480 0.635393
30.067846 -4.225760 -0.636021
30.103416 -4.230759 -0.212230
30.054979 -4.357765 0.212021
30.059015 -4.358350 0.636231
30.118816 -4.501287 -0.637906
30.104910 -4.499209 -0.212510
30.005924 -4.618353 0.211951
30.019838 -4.620495 0.636231
30.078388 -4.763949 -0.637906
30.064501 -4.761749 -0.212510
30.053307 -4.894492 0.212579
30.323746 -4.938536 0.643561
30.075113 -5.032848 -0.638744
30.080978 -5.033829 -0.212928
30.571203 -5.253094 0.216559
30.535685 -5.246990 0.649006
30.286043 -5.340247 -0.644189
30.557840 -5.388172 -0.216629
30.553719 -5.525012 0.216768
30.439543 -5.504366 0.647958
30.552860 -5.662638 -0.650890
30.539154 -5.660098 -0.216838
30.474869 -5.785835 0.216559
30.468927 -5.784707 0.649634
30.502281 -5.929043 -0.650890
30.498413 -5.928291 -0.216908
30.531101 -6.073014 0.217327
30.495733 -6.065979 0.651309
30.537554 -6.212935 -0.652775
30.563107 -6.218134 -0.217746
30.516104 -6.347359 0.217606
30.519943 -6.348157 0.652985
30.491953 -6.481265 -0.652985
30.468555 -6.476291 -0.217466
30.498640 -6.621904 0.217885
30.502464 -6.622734 0.653822
30.541603 -6.770910 -0.655288
30.528032 -6.767902 -0.218304
30.517717 -6.905455 0.218444
30.472763 -6.895282 0.654451
30.559286 -7.055167 -0.656964
30.555500 -7.054293 -0.218932
30.495230 -7.180673 0.218723
30.460089 -7.172399 0.655498
30.545162 -7.333245 -0.658011
30.531672 -7.330006 -0.219212
30.470259 -7.456025 0.219002
30.474030 -7.456947 0.657173
30.518808 -7.609194 -0.658849
30.544165 -7.615516 -0.219770
30.481569 -7.741333 0.219561
30.485317 -7.742284 0.658849
30.519001 -7.892750 -0.660315
30.505589 -7.889282 -0.219980
30.490215 -8.027404 0.220119
30.493940 -8.028384 0.660524
30.574505 -8.192414 -0.663037
30.561148 -8.188835 -0.220887
30.496183 -8.314214 0.220678
30.499884 -8.315223 0.662199
30.540386 -8.469599 -0.663875
30.527069 -8.465905 -0.221166
30.499464 -8.601738 0.221236
30.503139 -8.602776 0.663875
30.503756 -8.746811 -0.664712
30.519316 -8.751273 -0.221655
30.500040 -8.889951 0.221795
30.503693 -8.891016 0.665550
30.531712 -9.043905 -0.667016
30.528076 -9.042829 -0.222283
30.459602 -9.167300 0.222074
30.463238 -9.168394 0.666388
30.413383 -9.298305 -0.666178
30.448002 -9.308888 -0.222283
30.493044 -9.468342 0.222912
30.458454 -9.457602 0.668063
30.493179 -9.614463 -0.669739
30.508661 -9.619344 -0.223331
30.485447 -9.758469 0.223470
30.489025 -9.759614 0.670576
30.560253 -9.929628 -0.673089
30.509150 -9.913024 -0.223959
30.513090 -10.061707 0.224308
30.478657 -10.050353 0.672252
30.548286 -10.221313 -0.674765
30.535278 -10.216961 -0.224797
30.490408 -10.350099 0.224797
30.456060 -10.338440 0.673718
30.533552 -10.513545 -0.676440
30.511141 -10.505828 -0.225285
30.483892 -10.645452 0.225425
30.487387 -10.646672 0.676440
30.516037 -10.806295 -0.678116
30.503136 -10.801726 -0.225914
30.465126 -10.938098 0.225983
30.468596 -10.939343 0.678116
30.495733 -11.099539 -0.679791
30.482885 -11.094863 -0.226472
30.481094 -11.245070 0.226821
30.484531 -11.246337 0.680629
30.425804 -11.375742 -0.680419
30.459837 -11.388467 -0.227031
30.494017 -11.553149 0.227659
30.460024 -11.540271 0.682304
30.521385 -11.716062 -0.684817
27.119850 -10.410336 -0.202806
30.536671 -11.721930 -0.228357
30.503874 -11.862308 0.228497
30.469973 -11.849125 0.684817
30.483097 -12.007611 -0.686283
27.390825 -10.789534 -0.205528
30.498344 -12.013618 -0.228846
30.473499 -12.157693 0.229055
30.365412 -12.114571 0.684817
26.622881 -10.756342 -0.601466
30.488388 -12.318109 -0.688796
27.499603 -11.110560 -0.207064
30.475790 -12.313019 -0.229474
30.477306 -12.468596 0.229893
29.990189 -12.269310 0.678744
26.583422 -11.011213 -0.602723
30.527521 -12.644914 -0.692147
27.115204 -11.231485 -0.204900
30.514997 -12.639726 -0.230591
26.604849 -11.156340 0.201409
30.496443 -12.788219 0.230870
28.840120 -12.093666 0.655079
30.444397 -12.766396 0.691519
26.504726 -11.250588 -0.603142
30.489637 -12.942083 -0.693822
26.693991 -11.330927 -0.202457
30.495583 -12.944607 -0.231289
27.452812 -11.794659 0.208600
30.503124 -13.105177 0.231778
28.200705 -12.115978 0.642932
30.460434 -13.086836 0.694451
26.616415 -11.573147 -0.607958
30.522234 -13.271445 -0.697173
25.319412 -11.009193 -0.192753
26.768332 -11.639202 -0.203783
28.263103 -12.289146 -0.215162
27.632580 -12.158627 0.210764
30.469976 -13.407110 0.232406
27.535683 -12.115990 0.630157
30.427431 -13.388391 0.696335
25.464062 -11.337331 -0.583875
26.587477 -11.837507 -0.609634
30.478327 -13.569825 -0.698849
25.368540 -11.294802 -0.193870
27.478777 -12.234340 -0.209996
26.030172 -11.725738 0.199315
28.008648 -12.616976 0.214464
27.975840 -12.602197 0.642723
26.601433 -12.122972 -0.612356
30.467920 -13.885031 -0.701362
25.205313 -11.486723 -0.193381
26.943296 -12.278768 -0.206715
30.501158 -13.900179 -0.234012
25.273008 -11.651016 0.194288
27.852072 -12.839981 0.214115
27.792166 -12.812364 0.641047
24.809265 -11.568750 -0.573403
26.558056 -12.384225 -0.613822
30.499630 -14.222211 -0.704922
25.348810 -11.820345 -0.195266
27.850159 -12.986743 -0.214534
30.505577 -14.224984 -0.234989
27.748007 -13.086810 0.214185
27.570789 -13.003228 0.638534
25.032225 -11.939758 -0.580943
30.428501 -14.513650 -0.706178
25.073208 -11.959307 -0.193939
30.416384 -14.507871 -0.235268
25.777355 -12.433520 0.199804
27.551687 -13.289356 0.213557
26.321636 -12.696050 0.612147
25.097813 -12.241021 -0.584922
30.507366 -14.879436 -0.710995
25.057768 -12.221490 -0.194638
25.605093 -12.627034 0.199315
27.049023 -13.339102 0.210555
26.496777 -13.066765 0.618849
25.133192 -12.530948 -0.588273
25.200737 -12.564624 -0.196592
30.453875 -15.183742 -0.237572
25.851110 -13.030032 0.202107
30.485558 -15.365986 0.238340
27.185246 -13.702492 0.637697
25.013975 -12.745257 -0.588063
30.456831 -15.518531 -0.716021
25.972208 -13.233500 -0.203504
30.418221 -15.498857 -0.238340
27.549971 -14.189167 0.216349
30.430315 -15.672642 0.238969
26.940199 -13.875114 0.634765
25.176714 -13.106168 -0.594555
26.453730 -13.770940 -0.624712
30.444403 -15.848353 -0.718953
26.361319 -13.722835 -0.207483
30.432600 -15.842209 -0.239527
26.416237 -13.898254 0.208391
30.487082 -16.040030 0.240504
24.995419 -13.150725 0.591623
27.490536 -14.463470 0.650681
23.463600 -12.475818 -0.556650
24.840696 -13.208033 -0.589320
23.371054 -12.426609 -0.184794
26.116953 -13.886630 -0.206506
30.460949 -16.196375 -0.240853
24.770044 -13.309424 0.196313
30.389990 -16.329130 0.240853
25.531422 -13.718528 0.607121
27.521799 -14.787995 0.654451
30.488266 -16.553778 -0.726702
23.358389 -12.682570 -0.185562
24.685371 -13.403063 -0.196104
30.520575 -16.571320 -0.242459
24.854597 -13.635699 0.197919
30.439211 -16.699524 0.242389
25.638634 -14.065836 0.612566
27.453060 -15.061264 0.655917
23.119873 -12.815555 -0.553718
24.475237 -13.566845 -0.586178
30.465067 -16.887062 -0.729634
23.080652 -12.793814 -0.184235
24.821102 -13.758562 -0.198128
24.804457 -13.891164 0.198477
30.475542 -17.067123 0.243855
24.921743 -13.956847 0.598325
22.789616 -12.893744 -0.548482
24.425526 -13.819298 -0.587854
30.499277 -17.255661 -0.734032
23.264040 -13.162161 -0.186609
24.874159 -14.073122 -0.199524
30.444300 -17.224556 -0.244204
24.751745 -14.146788 0.199036
30.446991 -17.401888 0.244833
25.814569 -14.754242 0.622828
30.458414 -17.408419 0.734870
22.814764 -13.172111 -0.551833
30.477409 -17.596140 -0.737173
30.483351 -17.599571 -0.245740
24.713732 -14.412622 0.199734
30.449459 -17.757601 0.246089
25.926655 -15.119978 0.628691
30.434887 -17.749102 0.738011
22.371601 -13.177880 -0.543875
22.419044 -13.205827 -0.181652
24.305965 -14.317308 -0.196941
26.744318 -15.753607 -0.216698
24.638582 -14.658416 0.200153
30.456621 -18.119785 0.247416
25.329744 -15.069614 0.617383
26.584202 -15.815939 0.647958
30.450684 -18.116253 0.742199
22.427149 -13.475591 -0.548063
22.371521 -13.442166 -0.182211
24.000099 -14.420714 -0.195475
30.522984 -18.340059 -0.248603
24.834585 -15.069996 0.202806
30.425571 -18.462690 0.248463
25.658825 -15.570158 0.628691
30.436735 -18.469463 0.745760
23.868689 -14.626751 -0.586388
24.917206 -15.269283 -0.612147
26.482359 -16.228411 -0.216838
30.498196 -18.689318 -0.249720
24.804171 -15.349286 0.203643
30.433365 -18.832737 0.249859
30.410429 -18.818544 0.749110
22.035936 -13.769581 -0.544293
24.376036 -15.231837 -0.602095
27.903141 -17.435818 -0.689215
24.236624 -15.144724 -0.199524
27.077517 -16.919910 -0.222912
30.469625 -19.039536 -0.250837
25.328932 -15.981365 0.209089
26.927319 -16.989872 0.222283
30.496202 -19.241671 0.251744
27.040443 -17.061249 0.669739
30.464891 -19.221914 0.754555
22.623230 -14.412587 -0.561885
24.823999 -15.814631 -0.616545
30.422890 -19.381517 -0.755603
24.525225 -15.624291 -0.203015
26.777025 -17.058847 -0.221655
30.462557 -19.406790 -0.252163
25.121223 -16.158514 0.208530
26.836901 -17.262075 0.222772
30.436460 -19.577389 0.252652
26.663498 -17.150537 0.664084
22.429518 -14.565899 -0.560210
24.710201 -16.046991 -0.617173
30.512529 -19.815067 -0.762095
23.473818 -15.244075 -0.195405
26.752939 -17.373562 -0.222702
30.476545 -19.791700 -0.253699
25.205051 -16.525156 0.210415
30.431711 -19.951904 0.254048
25.267025 -16.565788 0.632880
26.730206 -17.525089 0.669529
22.868471 -15.136312 -0.574451
24.485855 -16.206835 -0.615079
23.098074 -15.288282 -0.193381
24.590694 -16.276224 -0.205877
30.477783 -20.172806 -0.255165
26.473347 -17.688925 0.222283
30.414417 -20.322264 0.255374
25.163065 -16.813423 0.633927
26.584566 -17.763239 0.669739
22.694071 -15.307343 -0.573403
23.643576 -15.947793 -0.199106
25.111185 -17.097597 0.212091
30.450825 -20.733229 0.257190
25.040176 -17.049250 0.634555
26.602089 -18.112717 0.674137
24.380547 -16.756285 -0.619686
25.369280 -17.435823 -0.644817
26.737030 -18.375851 -0.679582
24.723183 -16.991774 -0.209438
30.467203 -20.939528 -0.258097
25.158216 -17.452875 0.213766
26.801470 -18.592842 0.227729
30.433062 -21.112165 0.258586
25.120453 -17.426678 0.640419
30.320337 -21.033966 0.772985
24.077787 -16.859449 -0.615707
26.665741 -18.671553 -0.681885
30.482153 -21.343832 -0.779477
24.082483 -16.862736 -0.205249
25.106398 -17.579689 -0.213976
26.679132 -18.680929 -0.227380
30.443655 -21.515448 0.260261
26.298256 -18.585770 0.674555
30.372404 -21.465092 0.779058
24.361134 -17.376627 -0.626807
26.461090 -18.874514 -0.680838
25.090429 -17.896830 -0.215162
26.612787 -18.982718 -0.228217
30.398333 -21.682920 -0.260680
26.196970 -18.859119 0.225355
27.698345 -19.939955 0.238270
26.135065 -18.814554 0.674555
22.534269 -16.372107 -0.583456
24.532104 -17.823616 -0.635184
30.460897 -22.131138 -0.788692
24.836216 -18.044567 -0.214325
30.377848 -22.070799 -0.262146
27.547476 -20.198645 0.238480
25.147491 -18.438904 0.653194
24.544405 -18.161903 -0.639582
24.573305 -18.183289 -0.213417
26.140787 -19.343166 -0.227031
30.425241 -22.513494 -0.264241
24.742115 -18.475813 0.215581
26.264460 -19.612602 0.228846
30.462927 -22.747747 0.265428
24.689226 -18.436319 0.645445
24.384979 -18.375401 -0.639582
26.522039 -19.985790 -0.231848
30.395327 -22.904522 -0.265707
24.484425 -18.618389 0.214744
26.124149 -19.865265 0.229125
30.414495 -23.127720 0.266754
24.487610 -18.620811 0.644398
30.392649 -23.111107 0.799791
24.747196 -18.989191 -0.653404
24.704420 -18.956369 -0.217396
26.370422 -20.234737 -0.232057
30.464025 -23.375870 -0.268080
23.190359 -17.955894 0.204760
23.549477 -18.233953 0.623875
30.355820 -23.503988 0.804189
23.383030 -18.268826 -0.621571
25.321112 -19.783020 -0.673089
30.449936 -23.790098 -0.809425
23.253632 -18.167727 -0.206017
23.189844 -18.281399 0.206157
23.161768 -18.259266 0.617801
30.392952 -23.959871 0.810681
23.520042 -18.708687 -0.629529
23.728102 -18.874184 -0.211672
23.029428 -18.483070 0.206157
23.095112 -18.535788 0.620314
30.424419 -24.418177 0.817173
23.021784 -18.642673 -0.620524
23.344896 -18.904324 -0.209717
25.777304 -20.874048 -0.231568
30.440065 -24.649879 -0.273456
22.998901 -18.790890 0.207343
23.180231 -18.939043 0.627016
24.589315 -20.090315 0.665131
22.896795 -18.874660 -0.621571
22.901260 -18.878342 -0.207204
22.664906 -18.850203 0.205808
25.717133 -21.388714 0.233523
23.536774 -19.575329 0.641257
22.800142 -19.131590 -0.623456
30.428270 -25.532351 -0.832042
23.539972 -19.752382 -0.214534
25.815069 -21.661415 -0.235268
30.434204 -25.537329 -0.277365
22.507177 -19.053732 0.205877
23.250593 -19.683081 0.638116
22.571501 -19.277884 -0.621780
22.636734 -19.333597 -0.207832
23.632841 -20.184353 -0.216978
30.430706 -25.990278 -0.279390
22.309746 -19.223307 0.205598
22.312969 -19.226086 0.616964
21.330961 -18.542721 -0.592042
24.749044 -21.514017 -0.686911
30.415670 -26.439939 -0.844189
21.410589 -18.611940 -0.198058
23.810507 -20.698158 -0.220259
22.374207 -19.621653 0.207762
24.855219 -21.797441 0.230800
22.151859 -19.426661 0.617173
21.610121 -19.119020 -0.604398
24.006254 -21.238939 -0.671414
21.576889 -19.089619 -0.201130
24.512724 -21.687025 -0.228497
30.414351 -26.908344 -0.283509
22.060379 -19.689642 0.206436
22.205257 -19.818949 0.623456
24.659248 -22.009220 0.692356
21.278999 -19.159698 -0.599791
21.439205 -19.303947 -0.201409
24.686670 -22.227978 -0.231917
30.386452 -27.360085 -0.285464
22.035757 -20.015873 0.207832
22.416290 -20.361525 0.634346
24.732664 -22.465570 0.699896
21.391096 -19.601328 -0.607749
21.432131 -19.638929 -0.202945
21.764790 -20.119164 0.206925
23.497747 -21.721094 0.223400
22.120285 -20.447781 0.630995
21.058367 -19.637245 -0.603142
21.252621 -19.818390 -0.202875
23.804983 -22.198505 -0.227240
30.416260 -28.363621 -0.290351
21.930716 -20.630358 0.210206
23.635061 -22.233646 0.226542
21.693413 -20.407125 0.623875
20.849939 -19.785854 -0.602095
22.213345 -21.079676 -0.641466
21.528587 -20.429867 -0.207204
23.559586 -22.357212 -0.226751
30.435966 -28.882654 -0.292934
21.757072 -20.827866 0.210276
21.500059 -20.581829 0.623456
30.375965 -29.078661 0.880838
21.431625 -20.696280 -0.624084
20.939472 -20.221012 -0.203224
21.209183 -20.661072 0.206715
20.875622 -20.336130 0.610472
23.568327 -22.959248 0.689215
24.821581 -24.180113 0.725864
21.064796 -20.700319 -0.618639
20.676626 -20.318865 -0.202387
20.850534 -20.669369 0.204970
20.732864 -20.552721 0.611519
24.616728 -24.402838 0.726074
20.211750 -20.211750 -0.598744
21.286316 -21.286316 -0.630576
20.661156 -20.661156 -0.203992
21.884422 -21.884422 -0.216070
20.760889 -20.942856 0.205877
23.445587 -23.651087 0.697592
24.508417 -24.723232 0.729215
20.020586 -20.373096 -0.598325
20.942659 -21.311403 -0.208600
21.233246 -21.796537 0.212440
22.963724 -23.572922 0.229753
21.103533 -21.663382 0.633508
20.619884 -21.352514 -0.621780
20.512762 -21.241587 -0.206157
21.042229 -21.980999 0.212440
24.299177 -25.383251 0.245321
20.892941 -21.825050 0.632880
21.465071 -22.619465 -0.653194
24.355526 -25.665369 -0.741152
20.698318 -21.811476 -0.209927
20.205553 -21.479136 0.205877
20.393423 -21.678848 0.623456
23.832289 -25.334469 0.728587
20.510012 -21.994295 -0.629948
20.077543 -21.530529 -0.205528
19.881590 -21.507782 0.204481
20.474928 -22.149651 0.631833
20.195717 -22.039757 -0.626178
21.114319 -23.042234 -0.654660
20.024006 -21.852367 -0.206925
20.150343 -22.183796 0.209228
20.314468 -22.364487 0.632880
20.504354 -22.772394 -0.641885
20.187178 -22.420134 -0.210625
20.035891 -22.448318 0.210066
20.378168 -22.831808 0.641047
20.092859 -22.710846 -0.635184
19.871490 -22.460634 -0.209368
20.155710 -22.983183 0.213417
20.534117 -23.414673 0.652356
20.661327 -23.768137 -0.659686
20.284851 -23.335052 -0.215861
20.026180 -23.241528 0.214185
20.296375 -23.555103 0.651309
20.576494 -24.091980 -0.663665
20.463610 -23.959808 -0.219980
20.061661 -23.697790 0.216768
19.876875 -23.479513 0.644398
20.455442 -24.377848 -0.666597
20.144472 -24.007248 -0.218793
19.873280 -23.895021 0.216978
19.882191 -23.905737 0.651309
19.575426 -23.959124 0.216000
19.824636 -24.264143 0.656335
19.509560 -24.308407 0.217606
19.787359 -24.654539 0.662199
19.445267 -24.666204 0.219281
19.540510 -24.787018 0.661152
19.963919 -25.783758 0.227659
20.223223 -26.118654 0.691938
20.393934 -26.819384 0.705760
20.545965 -27.514385 0.239736
20.523857 -27.991011 0.242320
20.123766 -27.445354 0.712880
20.383974 -28.315126 0.243576
0.157713 -0.219077 0.005654
0.119696 -0.172542 0.001466
0.153865 -0.221796 0.005654
0.127778 -0.191233 0.001606
0.138862 -0.207822 0.005236
0.159001 -0.242517 0.002025
0.148007 -0.225748 0.005654
0.124421 -0.193434 0.001606
0.135214 -0.210214 0.005236
0.149408 -0.236798 0.001955
0.138709 -0.219841 0.005445
0.126288 -0.204080 0.001676
0.136786 -0.221043 0.005445
0.145253 -0.239369 0.001955
0.119292 -0.196587 0.004817
0.117595 -0.197659 0.001606
0.127795 -0.214804 0.005236
0.130953 -0.224548 0.005445