# This PCD file was generated using the MATLAB® pcwrite function
# from Computer Vision System Toolbox®.
# .PCD v.7 - Point Cloud Data file format
VERSION .7
FIELDS x y z
SIZE 4 4 4
TYPE F F F
COUNT 1 1 1
WIDTH 1022
HEIGHT 1
VIEWPOINT 0 0 0 1 0 0 0
POINTS 1022
DATA ascii
30.516472 33.302883 -0.946179
30.553644 32.764771 -0.938430
30.334547 32.529819 -0.310526
30.549358 32.192307 -0.929634
30.403881 32.039005 -0.308362
30.606880 31.694353 -0.922932
30.543385 31.628601 -0.306966
30.573965 31.112291 -0.913718
30.481802 31.018507 -0.303615
30.646357 30.646357 -0.907854
30.532127 30.532127 -0.301451
30.741484 30.209572 -0.902828
30.540640 30.012203 -0.298938
30.773800 29.717913 -0.896126
30.592775 29.543100 -0.296913
30.807146 29.234890 -0.889634
30.791391 29.219940 -0.296355
30.907541 28.821749 -0.885236
30.869688 28.786449 -0.294679
30.870403 28.287512 -0.877069
30.891167 28.306540 -0.292515
30.700010 27.642412 -0.865341
30.810034 27.741478 -0.289443
30.820257 27.267460 -0.861990
30.811287 27.259525 -0.287209
30.936306 26.892521 -0.858639
30.866869 26.832161 -0.285534
30.926531 26.413752 -0.851938
30.856522 26.353960 -0.283300
30.972044 25.988630 -0.846911
30.932121 25.955132 -0.281903
30.927645 25.494783 -0.839582
30.941391 25.506115 -0.279949
30.985785 25.091793 -0.835184
30.883028 25.008583 -0.277435
30.921890 24.596382 -0.827644
30.794880 24.495354 -0.274713
30.883247 24.128637 -0.820943
30.818350 24.077934 -0.273037
30.846745 23.669540 -0.814451
30.614759 23.491531 -0.269407
30.820570 23.224966 -0.808377
30.682829 23.121170 -0.268220
30.829185 22.812397 -0.803351
30.762852 22.763313 -0.267173
30.832964 22.401461 -0.798325
30.790436 22.370562 -0.265707
30.897047 22.038651 -0.794974
30.862368 22.013912 -0.264660
30.801552 21.567478 -0.787644
30.791176 21.560213 -0.262426
30.922672 21.252563 -0.785969
30.879255 21.222725 -0.261588
30.864109 21.014624 0.260680
30.858091 21.010527 0.781990
30.841722 20.803005 -0.779267
30.764835 20.751143 -0.259075
30.888344 20.638931 0.259354
30.815819 20.590471 0.776335
30.913706 20.461334 -0.776545
30.869701 20.432209 -0.258446
30.866570 20.237009 0.257678
30.868914 20.238546 0.773194
30.965311 20.109108 -0.773404
30.921030 20.080353 -0.257399
30.814919 19.820822 0.255793
30.850954 19.844000 0.768377
30.970974 19.730686 -0.769215
30.884243 19.675432 -0.255654
30.851398 19.465784 0.254676
30.853840 19.467323 0.764189
30.997839 19.369598 -0.765655
31.029324 19.389273 -0.255444
30.918053 19.132671 0.253839
30.852514 19.092115 0.760000
31.037819 19.020000 -0.762514
31.026819 19.013260 -0.254048
30.912859 18.758385 0.252442
30.881191 18.739166 0.756650
31.031221 18.645439 -0.758325
31.020128 18.638773 -0.252652
31.006628 18.447004 0.251884
30.940437 18.407625 0.754137
31.020462 18.272448 -0.754137
31.052359 18.291237 -0.251605
30.993662 18.074970 0.250488
30.996256 18.076483 0.751623
31.040201 17.921068 -0.750786
31.037594 17.919563 -0.250208
30.985260 17.709536 0.249161
30.953180 17.691200 0.746807
22.267517 12.598355 -0.535917
31.047480 17.565819 -0.747226
31.044830 17.564320 -0.249022
31.033926 17.379833 0.248323
31.001707 17.361790 0.744294
22.096792 12.248452 -0.529215
31.068422 17.221508 -0.744084
31.056990 17.215170 -0.247905
31.044138 17.031397 0.247206
30.967962 16.989607 0.739896
31.006655 16.835239 -0.739058
30.995125 16.828979 -0.246229
30.839233 16.570518 0.244414
30.771572 16.534163 0.731728
31.081766 16.526468 -0.737383
30.681681 16.313740 -0.242599
30.770269 16.189022 0.242738
30.666945 16.134661 0.725864
30.825735 16.046862 -0.727959
30.397121 15.823739 -0.239248
30.768133 15.846630 0.241621
30.699917 15.811497 0.723351
30.652811 15.618387 -0.720629
30.721157 15.653211 -0.240714
30.762375 15.505513 0.240504
30.595676 15.421491 0.717697
30.761095 15.336916 -0.720000
30.677603 15.295288 -0.239318
30.717142 15.148019 0.239108
30.755989 15.167175 0.718325
30.785931 15.015302 -0.717487
30.809910 15.026997 -0.239318
30.812136 14.862010 0.238829
30.779114 14.846082 0.715812
22.731136 10.842196 -0.527540
30.762384 14.672905 -0.713927
30.903767 14.740341 -0.239038
30.832125 14.541374 0.237991
30.798986 14.525744 0.713299
23.223574 10.829330 -0.536754
30.816769 14.370095 -0.712252
30.877153 14.398253 -0.237852
30.885197 14.238271 0.237433
30.851936 14.222938 0.711623
30.868214 14.067456 -0.710576
30.937929 14.099227 -0.237363
30.862392 13.902494 0.236316
30.792566 13.871040 0.707435
30.889332 13.752816 -0.708273
30.904490 13.759565 -0.236176
30.872704 13.584314 0.235478
30.802628 13.553480 0.704922
30.861473 13.418950 -0.704922
30.885830 13.429542 -0.235129
30.953321 13.298596 0.235199
30.846243 13.252591 0.703246
30.866962 13.102248 -0.702409
30.928209 13.128246 -0.234570
30.883759 12.950635 0.233802
30.923838 12.967441 0.702409
29.871712 12.373268 -0.677278
29.932968 12.398641 -0.226193
30.884535 12.635197 0.232965
30.813740 12.606234 0.697383
29.895121 12.078413 -0.675393
29.836050 12.054546 -0.224657
30.882166 12.320735 0.232127
30.885431 12.322038 0.696545
30.194731 11.894021 -0.679791
29.772636 11.727754 -0.223400
30.876669 12.007279 0.231289
30.842695 11.994068 0.693194
30.577387 11.737559 -0.686074
26.288984 10.091395 -0.196592
30.546007 11.725513 -0.228427
30.905466 11.709033 0.230731
30.946186 11.724462 0.693194
26.361540 9.856175 -0.589529
30.762934 11.501789 -0.687958
30.815763 11.521542 -0.229683
30.968941 11.425046 0.230451
30.897245 11.398596 0.689843
30.871527 11.236317 -0.688168
30.821167 11.217987 -0.228985
30.926291 11.103673 0.229404
30.892033 11.091372 0.687540
25.596527 9.064206 -0.568796
30.883587 10.936452 -0.686283
30.833052 10.918556 -0.228357
30.899281 10.790512 0.228497
30.902695 10.791704 0.685655
24.653717 8.488955 -0.546178
30.836052 10.617704 -0.683142
30.927158 10.649075 -0.228357
30.888107 10.485100 0.227729
30.919956 10.495911 0.683979
30.889608 10.335519 -0.682304
30.819767 10.312150 -0.226891
30.892960 10.186971 0.227100
30.791988 10.153675 0.679163
22.382961 7.272665 -0.492985
30.788456 10.003776 -0.678116
30.880053 10.033537 -0.226682
30.333067 9.709691 0.222353
29.565405 9.463961 0.650262
22.493248 7.092094 -0.494032
30.836441 9.722692 -0.677278
22.478561 7.087463 -0.164548
30.747086 9.694519 -0.225076
29.270647 9.088778 0.213976
29.207653 9.069218 0.640629
30.595041 9.353843 -0.670157
22.463051 6.867644 -0.163990
24.213047 7.402671 -0.176766
30.524504 9.332277 -0.222842
29.042431 8.740780 0.211742
29.132505 8.767889 0.637278
22.738216 6.735366 -0.496754
24.684193 7.311791 -0.539267
29.994890 8.884892 -0.655288
22.915234 6.787801 -0.166852
24.286312 7.193933 -0.176835
29.262465 8.667937 -0.213068
22.723825 6.623391 0.165246
29.108002 8.484209 0.211672
30.129356 8.781906 0.657383
21.258446 6.095761 -0.463246
22.325212 6.401651 -0.486492
24.276146 6.961072 -0.529006
22.627548 6.488345 -0.164339
29.135132 8.354364 -0.211602
22.626772 6.381410 0.164129
29.392666 8.289589 0.213208
29.617874 8.353105 0.644608
24.210722 6.714228 -0.526283
29.220501 8.103562 -0.635184
24.793608 6.875876 -0.179628
29.553825 8.196001 -0.214115
29.415649 8.019627 0.212859
29.554600 8.057508 0.641676
21.767193 5.832502 -0.472042
29.492905 7.902600 -0.639582
29.778767 7.979197 -0.215232
29.523193 7.772808 0.213138
29.430422 7.748384 0.637487
22.291550 5.764987 -0.482304
24.421007 6.315702 -0.528377
29.125174 7.532282 -0.630157
29.818220 7.711516 -0.215023
29.473593 7.485339 0.212300
29.361256 7.456809 0.634555
21.991779 5.483167 -0.474765
24.902029 6.208773 -0.537592
29.248001 7.292346 -0.631414
29.554487 7.368762 -0.212649
29.615498 7.246866 0.212859
29.502901 7.219314 0.636231
21.902689 5.258370 -0.471833
29.670221 7.123190 -0.639163
29.773241 7.147923 -0.213766
30.144821 7.098163 0.216210
29.808067 7.018868 0.641466
22.054901 5.091775 -0.474136
29.887117 6.899985 -0.642513
24.699678 5.702370 -0.176975
30.039097 6.935072 -0.215232
30.176355 6.828212 0.216000
30.014452 6.791577 0.644608
22.215624 4.925085 -0.476649
30.043800 6.660550 -0.644608
30.244913 6.705136 -0.216279
30.107758 6.537035 0.215093
30.150738 6.546367 0.646283
22.287094 4.737268 -0.477278
24.595016 5.227832 -0.526702
30.257250 6.431377 -0.647958
30.116430 6.401445 -0.214953
30.202816 6.282195 0.215372
30.167564 6.274862 0.645445
22.445150 4.566518 -0.479791
24.443760 4.973139 -0.522513
30.106482 6.125233 -0.643561
30.180944 6.140383 -0.215023
30.207451 6.008636 0.215023
30.172144 6.001613 0.644398
30.207859 5.871813 -0.644608
30.184299 5.867234 -0.214674
30.219439 5.737339 0.214744
30.184080 5.730627 0.643561
30.287439 5.613445 -0.645236
30.244184 5.605428 -0.214744
30.199472 5.460954 0.214255
30.164070 5.454553 0.642095
24.949556 4.399280 -0.530681
30.256506 5.335038 -0.643561
30.252558 5.334342 -0.214464
30.157280 5.181969 0.213627
30.171108 5.184345 0.641257
24.917971 4.169838 -0.529215
30.223024 5.057600 -0.641885
30.209192 5.055285 -0.213836
30.171743 4.913781 0.213417
30.175730 4.914430 0.640419
24.805290 3.928772 -0.526074
30.216635 4.785845 -0.640838
30.212650 4.785213 -0.213557
30.124525 4.636608 0.212789
30.138414 4.638746 0.638744
25.194597 3.765358 -0.533613
30.217695 4.516065 -0.640000
22.905048 3.423182 -0.161686
30.184029 4.511033 -0.213068
30.134150 4.369244 0.212579
30.138170 4.369827 0.637906
22.949379 3.225325 -0.485445
30.186651 4.242457 -0.638534
30.172733 4.240501 -0.212719
30.121590 4.099369 0.212230
30.085997 4.094524 0.636021
24.869896 3.274184 -0.525445
30.222525 3.978871 -0.638534
30.178846 3.973120 -0.212510
30.156216 3.836355 0.212230
30.170172 3.838131 0.637068
25.463148 3.126482 -0.537382
30.146938 3.701579 -0.636231
30.132967 3.699863 -0.211951
30.148823 3.568348 0.211951
30.162804 3.570003 0.636231
30.207893 3.441755 -0.636859
30.193913 3.440162 -0.212160
30.139053 3.300763 0.211672
30.143116 3.301208 0.635184
30.206949 3.174878 -0.636231
30.183004 3.172362 -0.211881
30.166710 3.037628 0.211672
30.180725 3.039039 0.635393
30.153891 2.903489 -0.634555
30.129910 2.901180 -0.211323
30.192070 2.774261 0.211672
30.156317 2.770976 0.634346
30.178080 2.640240 -0.634555
30.203888 2.642498 -0.211672
30.175268 2.507371 0.211393
30.139496 2.504399 0.633508
30.199970 2.376789 -0.634555
30.185921 2.375684 -0.211393
30.156111 2.240986 0.211113
30.170172 2.242031 0.633718
30.219563 2.113158 -0.634555
30.205503 2.112175 -0.211393
30.144583 1.975780 0.210904
30.148684 1.976049 0.632880
30.236851 1.849365 -0.634555
30.222786 1.848505 -0.211393
30.160677 1.712647 0.210904
30.194725 1.714581 0.633508
30.171967 1.581246 -0.632880
30.157877 1.580507 -0.210834
30.174475 1.449384 0.210904
30.178577 1.449581 0.632880
30.224569 1.319633 -0.633718
30.200491 1.318582 -0.211043
30.185974 1.186010 0.210904
30.180088 1.185779 0.632671
30.274900 1.057223 -0.634555
30.220842 1.055335 -0.211113
30.195173 0.922546 0.210904
30.199280 0.922671 0.632880
30.282974 0.792988 -0.634555
30.228901 0.791572 -0.211113
30.202074 0.659012 0.210904
30.206182 0.659101 0.632880
30.208771 0.527296 -0.632880
30.154671 0.526352 -0.210555
30.206676 0.395427 0.210904
30.210783 0.395481 0.632880
30.252211 0.264007 -0.633718
30.238111 0.263884 -0.211113
30.208977 0.131812 0.210904
30.173094 0.131656 0.632042
30.293354 0.000000 -0.634555
30.279263 0.000000 -0.211393
30.208977 -0.131812 0.210904
30.213085 -0.131830 0.632880
30.252211 -0.264007 -0.633718
30.278109 -0.264233 -0.211393
30.206676 -0.395427 0.210904
30.210783 -0.395481 0.632880
30.288740 -0.528692 -0.634555
30.304646 -0.528970 -0.211602
30.242064 -0.659884 0.211183
30.236168 -0.659756 0.633508
30.203018 -0.790894 -0.632880
30.228901 -0.791572 -0.211113
30.275135 -0.924989 0.211462
30.279226 -0.925114 0.634555
30.304876 -1.058270 -0.635184
30.290798 -1.057778 -0.211602
30.265909 -1.189151 0.211462
30.270000 -1.189312 0.634555
30.264523 -1.321378 -0.634555
30.240452 -1.320327 -0.211323
30.294333 -1.455141 0.211742
30.298414 -1.455337 0.635393
30.331711 -1.589618 -0.636231
30.317654 -1.588881 -0.211951
30.320415 -1.721718 0.212021
30.324488 -1.721949 0.636231
30.306705 -1.853638 -0.636021
30.342558 -1.855830 -0.212230
30.304237 -1.986245 0.212021
30.308306 -1.986511 0.636231
30.299349 -2.118737 -0.636231
30.285307 -2.117755 -0.211951
30.325640 -2.253584 0.212300
30.289816 -2.250922 0.636231
30.359442 -2.389340 -0.637906
30.345425 -2.388237 -0.212510
30.304819 -2.518136 0.212300
30.229166 -2.511850 0.635393
30.337435 -2.654182 -0.637906
30.313465 -2.652085 -0.212440
30.241859 -2.778836 0.212021
30.206095 -2.775550 0.635393
30.382780 -2.925529 -0.639372
30.289167 -2.916515 -0.212440
30.216457 -3.042637 0.212021
30.180725 -3.039039 0.635393
30.246721 -3.179059 -0.637068
30.222784 -3.176543 -0.212160
30.188755 -3.306206 0.212021
30.192808 -3.306650 0.636231
30.257561 -3.447414 -0.637906
30.243589 -3.445822 -0.212510
30.158754 -3.569524 0.212021
30.123089 -3.565303 0.635393
30.216402 -3.710108 -0.637697
30.212368 -3.709612 -0.212510
30.166136 -3.837617 0.212300
30.130501 -3.833084 0.636231
30.192787 -3.974956 -0.637906
30.139189 -3.967900 -0.212230
30.171131 -4.106111 0.212579
30.135530 -4.101265 0.637068
30.186651 -4.242457 -0.638534
30.222244 -4.247459 -0.213068
30.173735 -4.374983 0.212859
30.138170 -4.369827 0.637906
30.197920 -4.513109 -0.639582
30.144468 -4.505121 -0.212789
30.134409 -4.638129 0.212859
30.336044 -4.669164 0.642932
30.275883 -4.795229 -0.642095
30.212650 -4.785213 -0.213557
30.527054 -4.971646 0.215930
30.728327 -5.004426 0.652147
30.193441 -5.052649 -0.641257
30.238779 -5.060236 -0.214045
30.679613 -5.271721 0.217327
30.604658 -5.258842 0.650472
30.433731 -5.366288 -0.647330
30.715405 -5.415955 -0.217746
30.671801 -5.546365 0.217606
30.675659 -5.547063 0.652985
30.719976 -5.693611 -0.654451
30.666973 -5.683787 -0.217746
30.622232 -5.813813 0.217606
30.626085 -5.814544 0.652985
30.669123 -5.961473 -0.654451
30.694735 -5.966452 -0.218304
30.648792 -6.096424 0.218164
30.652624 -6.097186 0.654660
30.704105 -6.246821 -0.656335
30.719891 -6.250032 -0.218863
30.711908 -6.388086 0.219002
30.676556 -6.380733 0.656335
30.648422 -6.514524 -0.656335
30.664181 -6.517873 -0.218863
30.654993 -6.655851 0.219002
30.619705 -6.648190 0.656335
30.707537 -6.807697 -0.658849
30.723286 -6.811189 -0.219700
30.673769 -6.940765 0.219561
30.638535 -6.932793 0.658011
30.637218 -7.073159 -0.658639
30.662678 -7.079037 -0.219700
30.728834 -7.235680 0.220398
30.693649 -7.227395 0.660524
30.700708 -7.370588 -0.661362
30.687246 -7.367356 -0.220329
30.664522 -7.503561 0.220398
30.668255 -7.504474 0.661362
30.751629 -7.667242 -0.663875
30.738220 -7.663899 -0.221166
30.714178 -7.800408 0.221236
30.679121 -7.791504 0.663037
30.722267 -7.945318 -0.664712
30.737938 -7.949371 -0.221655
30.712631 -8.085960 0.221725
30.725979 -8.089476 0.665550
30.767647 -8.244166 -0.667225
30.754330 -8.240598 -0.222283
30.689137 -8.366819 0.222074
30.692801 -8.367818 0.666388
30.733070 -8.523034 -0.668063
30.748699 -8.527369 -0.222772
30.691950 -8.656025 0.222632
30.695589 -8.657051 0.668063
30.686354 -8.799170 -0.668691
30.673113 -8.795374 -0.222772
30.730448 -8.957108 0.223470
30.734055 -8.958160 0.670576
30.771364 -9.114893 -0.672252
30.786951 -9.119511 -0.224168
30.727716 -9.247993 0.224029
30.731298 -9.249071 0.672252
30.719334 -9.391843 -0.672880
30.734886 -9.396598 -0.224378
30.722242 -9.539510 0.224587
30.716253 -9.537650 0.673718
30.750626 -9.695635 -0.675393
30.737549 -9.691512 -0.225006
30.752111 -9.843828 0.225425
30.717550 -9.832766 0.675602
30.788456 -10.003776 -0.678116
30.775438 -9.999546 -0.225914
30.741011 -10.136866 0.225983
30.706533 -10.125496 0.677278
30.775835 -10.297450 -0.679791
30.791319 -10.302631 -0.226682
30.765011 -10.443314 0.226821
30.768480 -10.444491 0.680629
30.798239 -10.604684 -0.682304
30.775879 -10.596985 -0.227240
30.738789 -10.734466 0.227310
30.713919 -10.725780 0.681466
30.779919 -10.899741 -0.683979
30.767069 -10.895190 -0.227868
30.728647 -11.032712 0.227938
30.760296 -11.044075 0.684608
30.833948 -11.222639 -0.687330
30.821167 -11.217987 -0.228985
30.678108 -11.317752 0.228287
30.747168 -11.343229 0.686493
28.075274 -10.496915 -0.627854
30.800392 -11.515795 -0.688796
28.062016 -10.491958 -0.209159
30.815763 -11.521542 -0.229683
30.755848 -11.652349 0.229614
30.759201 -11.653619 0.689006
30.782730 -11.816382 -0.690681
27.026495 -10.374499 -0.202107
30.751390 -11.804353 -0.229963
30.802109 -11.978285 0.230731
30.768150 -11.965079 0.691519
23.701839 -9.336403 -0.533613
26.622711 -10.486964 -0.599372
30.771463 -12.121202 -0.692775
23.762285 -9.360213 -0.178301
27.083796 -10.668591 -0.203224
30.758856 -12.116236 -0.230800
26.814079 -10.697733 0.201549
30.733559 -12.261447 0.231010
26.753134 -10.673418 0.603351
30.764711 -12.273875 0.693822
23.628733 -9.546628 -0.533822
23.744600 -9.593441 -0.178790
27.119467 -10.956976 -0.204202
30.800297 -12.444128 -0.231917
23.545177 -9.632586 0.177603
26.821510 -10.972969 0.202317
30.819748 -12.608691 0.232476
30.776726 -12.591091 0.696545
23.710787 -9.821329 -0.537592
26.380213 -10.927042 -0.598116
30.841572 -12.774998 -0.699267
23.558353 -9.758190 -0.178022
26.736422 -11.074589 -0.202038
30.810631 -12.762181 -0.232825
30.763874 -12.900363 0.232895
27.162083 -11.390006 0.616964
30.739437 -12.890116 0.698220
23.522943 -9.984898 -0.535288
26.191822 -11.117769 -0.596021
30.848557 -13.094435 -0.701990
23.481506 -9.967308 -0.178092
30.799341 -13.073545 -0.233593
23.805300 -10.227564 0.180884
30.787943 -13.227544 0.233942
23.598570 -10.138745 0.538011
30.800312 -13.232859 0.702199
25.827917 -11.230298 -0.589948
30.879808 -13.426923 -0.705341
23.201054 -10.088105 -0.176626
30.803297 -13.393655 -0.234501
23.431402 -10.310064 0.178720
30.781176 -13.544041 0.234780
23.619009 -10.392612 0.540524
30.793476 -13.549454 0.704712
22.806227 -10.153987 -0.522932
30.843664 -13.732484 -0.707226
23.230894 -10.343060 -0.177533
23.313187 -10.501825 0.178511
30.862392 -13.902494 0.236316
23.317759 -10.503884 0.535707
30.801683 -13.875146 0.707644
22.744043 -10.365057 -0.523561
30.886410 -14.075747 -0.710995
23.030558 -10.495630 -0.176696
30.828737 -14.049464 -0.236525
23.293304 -10.738360 0.179069
30.794384 -14.196405 0.236735
23.424955 -10.799052 0.540314
30.797461 -14.197824 0.710367
22.797703 -10.630743 -0.526911
24.220295 -11.294108 -0.559791
30.816769 -14.370095 -0.712252
22.865589 -10.662399 -0.176137
30.831839 -14.377123 -0.237502
23.035912 -10.864441 0.177813
22.895782 -10.798351 0.530262
30.835155 -14.542804 0.714137
22.568707 -10.764721 -0.523770
23.141724 -11.038035 -0.179000
23.462618 -11.317023 0.181862
30.803129 -14.857666 0.238759
22.872717 -11.032490 0.531937
25.340090 -12.222609 0.589320
30.806129 -14.859113 0.716440
22.734503 -11.088358 -0.529843
24.091383 -11.750153 -0.561466
30.848833 -15.045980 -0.718953
22.999578 -11.217645 -0.178650
30.818897 -15.031381 -0.239387
22.959383 -11.322314 0.178720
30.842703 -15.209937 0.240086
22.775572 -11.231668 0.531937
25.277298 -12.465384 0.590367
30.791855 -15.184862 0.719163
22.771084 -11.353244 -0.532985
24.122139 -12.026855 -0.564608
30.904253 -15.408293 -0.723351
22.838169 -11.386691 -0.178162
30.865534 -15.388988 -0.240784
23.190098 -11.688771 0.181303
23.667681 -11.929493 0.555184
30.836729 -15.542991 0.723351
22.884937 -11.660458 -0.538011
22.800301 -11.617333 -0.178650
23.158333 -11.927325 0.181862
30.857033 -15.892416 0.242320
23.411575 -12.057754 0.551623
30.886570 -15.907629 0.727749
23.199114 -12.076694 -0.547854
25.735409 -13.397006 -0.607749
30.887812 -16.079178 -0.729424
22.635965 -11.783538 -0.178162
30.849485 -16.059225 -0.242808
23.469299 -12.347796 0.185143
23.438181 -12.331424 0.554765
25.322792 -13.322965 0.599372
30.790815 -16.199831 0.728796
22.925119 -12.189503 -0.543875
25.670485 -13.649239 -0.609006
30.922871 -16.441982 -0.733613
22.735346 -12.088598 -0.179767
25.075100 -13.332667 -0.198268
30.911242 -16.435799 -0.244414
25.219288 -13.550812 0.199873
30.865660 -16.584717 0.244623
25.328861 -13.609688 0.602304
30.868448 -16.586216 0.734032
22.896952 -12.432030 -0.545759
25.690977 -13.949062 -0.612356
30.892433 -16.773222 -0.736335
25.239012 -13.703666 -0.200502
25.748837 -14.126296 0.205040
30.921400 -16.964060 0.246229
23.499889 -12.892481 0.561466
25.515919 -13.998512 0.609634
30.871544 -16.936708 0.737592
23.644529 -13.106377 -0.566283
26.827448 -14.870697 -0.642513
30.911026 -17.134262 -0.740315
23.176857 -12.847142 -0.185003
26.762711 -14.834813 -0.213627
30.908308 -17.132755 -0.246718
23.408497 -13.109388 0.187307
25.179621 -14.101265 0.201479
30.903055 -17.306543 0.247276
23.569672 -13.199651 0.565864
22.284922 -12.608202 -0.536335
23.624975 -13.366367 -0.568587
30.943060 -17.506741 -0.744712
23.072567 -13.053830 -0.185073
30.879467 -17.470762 -0.247695
23.206388 -13.263544 0.186609
30.924488 -17.674801 0.248672
24.495197 -14.000158 0.590995
30.892420 -17.656471 0.745341
22.728182 -13.122122 -0.549739
30.927643 -17.856083 -0.748063
23.087675 -13.329675 -0.186120
30.890373 -17.834566 -0.249022
23.167503 -13.510889 0.187237
23.007530 -13.417596 0.557906
26.444841 -15.422176 0.641257
30.909893 -18.026115 0.749529
22.957380 -13.522931 -0.558115
30.942932 -18.226780 -0.752252
22.746456 -13.398686 -0.184305
30.923117 -18.215109 -0.250557
22.851059 -13.594952 0.185632
23.908104 -14.223827 0.194219
26.245632 -15.614511 0.213208
22.726315 -13.520736 0.553927
30.897476 -18.382067 0.753089
22.598545 -13.578575 -0.552252
30.919813 -18.578499 -0.755603
22.217236 -13.349462 -0.180954
24.034386 -14.441316 -0.195755
25.105818 -15.085097 -0.204481
24.424236 -14.820991 0.199455
30.904310 -18.753197 0.252373
22.932255 -13.915634 0.561885
22.061487 -13.519298 -0.541990
23.928360 -14.663318 -0.587854
30.961100 -18.972986 -0.760629
22.227787 -13.621205 -0.182001
23.933025 -14.666178 -0.195964
30.941557 -18.961010 -0.253350
23.103506 -14.296884 0.189681
30.943563 -19.148458 0.254048
23.447571 -14.509797 0.577592
22.002022 -13.748389 -0.543456
23.791010 -14.866274 -0.587644
25.834358 -16.143099 -0.638116
22.226799 -13.888845 -0.182979
24.185741 -15.112929 -0.199106
30.944521 -19.336283 -0.254746
23.003237 -14.513961 0.189890
25.388130 -16.018717 0.209577
22.652079 -14.292397 0.561047
21.822184 -13.902265 -0.541990
30.970974 -19.730686 -0.769215
23.479446 -14.958056 -0.194358
25.149321 -16.021883 -0.208181
30.993881 -19.745279 -0.256561
22.741140 -14.627593 0.188773
30.957891 -19.912785 0.256980
22.072432 -14.197466 0.549739
23.728916 -15.262952 0.590995
25.755375 -16.566414 0.641466
25.766695 -16.733088 -0.643561
23.247381 -15.097026 -0.193521
30.971350 -20.113029 -0.257818
22.746429 -14.913213 0.189890
30.975285 -20.308287 0.258586
21.897532 -14.356650 0.548482
23.929260 -15.688710 0.599372
25.877380 -16.965954 0.648168
22.384924 -14.816257 -0.562304
31.013750 -20.527554 -0.779058
22.414305 -14.835705 -0.187656
30.994781 -20.514997 -0.259493
22.174755 -14.816697 0.186190
30.963173 -20.688931 0.259982
22.511259 -15.041542 0.567121
30.923885 -20.662680 0.779058
22.229912 -14.994265 -0.561676
30.990917 -20.903637 -0.783037
25.293320 -17.060560 -0.212998
30.963799 -20.885345 -0.260750
22.119003 -15.060293 0.186819
30.971563 -21.087788 0.261588
23.924524 -16.289629 0.606283
30.948997 -21.072422 0.784294
21.851032 -15.017799 -0.555393
25.913084 -17.809570 -0.658639
30.996828 -21.303530 -0.787854
21.781124 -14.969752 -0.184515
25.324781 -17.405239 -0.214534
30.969908 -21.285028 -0.262356
23.449232 -16.267311 0.199245
26.604279 -18.456045 0.226053
30.999983 -21.505453 0.263403
21.982450 -15.249768 0.560419
23.444660 -16.264139 0.597697
30.977510 -21.489864 0.789739
21.629061 -15.144832 -0.553089
25.838579 -18.092367 -0.660733
23.615578 -16.535805 -0.201270
21.779299 -15.392087 0.186190
23.012398 -16.263556 0.196732
21.873030 -15.458328 0.561047
23.016077 -16.266155 0.590367
30.968420 -21.886316 0.794346
21.650723 -15.443311 -0.557068
23.783237 -16.964418 -0.611938
25.647154 -18.293938 -0.659896
23.543648 -16.793520 -0.201898
22.950752 -16.522179 0.197430
23.778538 -17.118097 0.204551
30.960793 -22.288582 0.266335
23.295179 -16.770128 0.601257
30.962872 -22.290077 0.799163
21.879110 -15.896104 -0.566492
23.051928 -16.748205 -0.596859
31.016956 -22.535137 -0.267662
22.829891 -16.739569 0.197639
26.152361 -19.175705 0.226402
30.990911 -22.723476 0.268290
25.897320 -18.988701 0.672671
30.976807 -22.713135 0.804608
22.125326 -16.371880 -0.576545
31.054216 -22.978912 -0.809215
25.417334 -18.807838 -0.220747
30.995966 -22.935808 -0.269197
22.682943 -16.938156 0.197639
26.104214 -19.492941 0.227449
31.031803 -23.172546 0.270384
25.001648 -18.669615 0.653613
31.001722 -23.150084 0.810472
22.420767 -16.895260 -0.588063
25.399023 -19.139538 -0.666178
31.084063 -23.423521 -0.815288
25.651548 -19.329828 -0.224238
31.074150 -23.416052 -0.271641
24.197870 -18.400488 0.212230
31.051281 -23.611942 0.272339
23.620157 -17.961185 0.621571
31.021353 -23.589186 0.816335
25.294489 -19.409143 -0.667854
31.037107 -23.815611 -0.819477
22.705219 -17.422327 -0.199804
25.418421 -19.504240 -0.223680
31.011427 -23.795904 -0.272897
24.202417 -18.739513 0.213696
31.002182 -24.004454 0.273735
23.952641 -18.546116 0.634555
25.399284 -19.666227 0.672880
24.990219 -19.524500 -0.664294
31.072329 -24.276363 -0.825969
24.735054 -19.325142 -0.219142
30.960188 -24.188749 -0.274294
24.783998 -19.538130 0.220329
24.206011 -19.082481 0.645655
25.430838 -20.048056 0.678325
30.989662 -24.430279 0.826597
22.463753 -17.868475 -0.601257
25.624796 -20.382883 -0.685864
31.031433 -24.683516 -0.830576
24.972418 -19.863958 -0.222772
22.795467 -18.295298 0.204062
24.674944 -19.803736 0.220887
24.334856 -19.530787 0.653613
31.048189 -24.918806 0.833927
22.718763 -18.397293 -0.612356
31.016863 -25.116961 -0.836021
22.295774 -18.054762 -0.200292
24.821438 -20.100004 -0.222981
29.818363 -24.146435 -0.267871
24.896116 -20.340981 0.224448
31.044645 -25.364538 0.279879
24.070587 -19.666494 0.651100
31.046335 -25.365919 0.839791
22.264202 -18.353191 -0.604398
25.234304 -20.801556 -0.685027
31.066507 -25.609253 -0.843351
22.685209 -18.700245 -0.205249
29.243858 -24.106777 -0.264590
31.052765 -25.826311 0.281973
24.021038 -19.978086 0.654451
31.046711 -25.821278 0.845864
21.727915 -18.231886 -0.594136
31.086926 -26.085028 -0.850053
22.590099 -18.955345 -0.205877
28.756607 -24.129660 -0.262076
22.339270 -18.911589 0.204341
31.131495 -26.354755 0.284766
22.449375 -19.004799 0.616126
31.072010 -26.304398 0.852775
21.963310 -18.758440 -0.605026
31.146999 -26.602051 -0.858011
28.119127 -24.016003 -0.258167
21.840067 -18.818605 0.201270
20.760302 -17.888220 0.574032
21.676754 -18.677887 0.599372
31.038204 -26.744228 0.858220
21.429050 -18.627991 -0.594765
22.606140 -19.651218 -0.627435
22.678471 -19.714094 -0.209787
27.576416 -23.971813 -0.255095
20.411953 -17.900803 0.189541
28.471479 -24.968817 0.264380
21.550520 -18.899300 0.600419
25.857616 -22.676521 0.720419
21.610121 -19.119020 -0.604398
20.416035 -18.062582 -0.190309
21.779102 -19.268522 -0.203015
26.969238 -23.860367 -0.251395
20.478775 -18.278006 0.191636
20.713469 -18.487478 0.581571
31.044098 -27.707916 0.871624
21.427597 -19.293495 -0.603979
20.569748 -18.521084 -0.193241
20.829231 -18.919941 0.196453
25.832983 -23.465031 0.243646
20.987982 -19.064140 0.593927
27.826097 -25.275448 0.787435
31.119347 -28.266823 0.880629
20.911970 -19.162291 -0.594136
20.820204 -19.078203 -0.197151
21.177345 -19.576136 0.201340
20.930943 -19.348366 0.597068
20.860945 -19.453146 -0.597487
20.791880 -19.388741 -0.198477
22.542532 -21.205896 0.216070
25.237438 -23.741013 0.241901
21.059868 -19.811146 0.605655
25.290775 -23.791185 0.727330
21.589659 -20.487822 -0.623456
25.665369 -24.355526 -0.741152
20.172169 -19.142673 -0.194149
25.220652 -23.933506 -0.242738
22.038788 -21.097549 0.212998
22.761133 -21.789045 0.219980
21.630056 -20.706274 0.627225
22.677254 -21.708748 0.657592
21.266212 -20.536543 -0.619267
24.934042 -24.078524 -0.726074
20.133831 -19.443014 -0.195405
20.514387 -19.984232 0.199943
20.782524 -20.245438 0.607749
20.216215 -19.866419 -0.593718
21.193153 -20.826454 -0.622409
20.127438 -19.779177 -0.197011
21.568169 -21.194979 -0.211113
20.182976 -20.007610 0.198407
21.582008 -21.394485 0.212160
24.273544 -24.062637 0.238619
20.569557 -20.390833 0.606702
21.378992 -21.193233 0.630576
19.632050 -19.632050 -0.581571
19.996492 -19.996492 -0.197430
20.901688 -21.084890 0.207274
20.911690 -21.094980 0.622199
19.516043 -19.859669 -0.583246
22.431185 -22.826139 -0.670367
20.038507 -20.391333 -0.199594
20.012142 -20.543039 0.200223
21.310001 -21.875328 0.213208
19.715233 -20.238253 0.591833
19.737862 -20.439154 -0.595184
22.078346 -22.862797 -0.665760
20.276585 -20.997017 -0.203783
21.846474 -22.622684 -0.219561
20.170944 -21.070843 0.203643
19.952690 -20.842852 0.604398
19.544983 -20.596113 -0.594765
19.755295 -20.817738 -0.200362
20.581301 -21.688166 -0.208740
20.335735 -21.617523 0.207204
20.256418 -21.533205 0.619267
21.338770 -22.683779 0.652356
19.623608 -21.043743 -0.602723
19.613794 -21.033220 -0.200781
19.677954 -21.287491 0.202387
20.128815 -21.775229 0.621152
19.540539 -21.324755 -0.605864
19.679462 -21.476366 -0.203364
20.499964 -22.568701 0.212859
19.689304 -21.676233 0.613403
19.427292 -21.576193 -0.608168
19.551519 -21.714163 -0.203992
20.015915 -22.425938 0.209857
19.719090 -22.093372 0.620314
19.635752 -22.194180 -0.620733
19.805231 -22.385740 -0.208670
21.097309 -23.846169 -0.222283
19.905165 -22.697491 0.210764
19.815588 -22.595348 0.629529
19.559389 -22.500504 -0.624503
19.976511 -22.980347 -0.212579
22.141453 -25.470827 -0.235618
21.116264 -24.506630 0.225844
21.092567 -24.479130 0.676859
19.862259 -23.255716 -0.640629
20.068121 -23.705423 0.216838
22.047375 -26.043411 0.714765
19.572405 -23.325485 -0.212579
19.566357 -23.525988 0.213627
22.273169 -26.780575 0.729634
19.353985 -23.688093 0.213557
22.409876 -27.428320 0.247276
22.392857 -27.407488 0.741362
19.227900 -23.957468 0.214464
18.948807 -23.609722 0.634136
19.117155 -24.249996 0.215581
18.872034 -23.939062 0.638534
19.853722 -25.641438 0.226402
18.864399 -24.363708 0.645445
19.825369 -25.604818 0.678325
19.889475 -26.155989 0.229404
19.649586 -25.840517 0.680000
19.857910 -26.592966 0.231708
19.620743 -26.275362 0.686911
19.435875 -26.507189 0.229474
19.189701 -26.171452 0.679791
0.181113 -0.251582 0.002164
0.181078 -0.251533 0.006492
0.148196 -0.213623 0.001815
0.136769 -0.197152 0.005026
0.135070 -0.198377 0.001676
0.151924 -0.223130 0.005654
0.155556 -0.232806 0.001955
0.166635 -0.249386 0.006283
0.153518 -0.234154 0.001955
0.148007 -0.225748 0.005654
0.151469 -0.235485 0.001955
0.140623 -0.218622 0.005445
0.106720 -0.169141 0.001396
0.096030 -0.152198 0.003770
0.147336 -0.238093 0.001955
0.157830 -0.255050 0.006283
0.140065 -0.230821 0.001885
0.140038 -0.230776 0.005654
0.117595 -0.197659 0.001606
0.102236 -0.171844 0.004188
0.115843 -0.198639 0.004817