# This PCD file was generated using the MATLAB® pcwrite function
# from Computer Vision System Toolbox®.
# .PCD v.7 - Point Cloud Data file format
VERSION .7
FIELDS x y z
SIZE 4 4 4
TYPE F F F
COUNT 1 1 1
WIDTH 782
HEIGHT 1
VIEWPOINT 0 0 0 1 0 0 0
POINTS 782
DATA ascii
23.773630 26.403292 -0.248044
24.086264 26.285543 -0.746807
24.069262 25.811123 -0.739267
23.961039 25.249666 -0.243018
23.985970 24.838198 -0.241063
24.091976 24.516172 -0.720000
23.977522 24.399704 -0.238829
24.191887 24.191887 -0.716650
24.041044 24.041044 -0.237363
24.230934 23.811674 -0.711623
24.078749 23.662121 -0.235687
24.265202 23.432632 -0.706597
24.147648 23.319113 -0.234361
24.330973 23.089231 -0.702618
24.205153 22.969831 -0.232965
24.229158 22.594055 -0.231289
24.248461 22.219620 -0.229614
24.263086 21.846582 -0.227938
24.303020 21.501497 -0.226542
24.439682 21.245092 -0.678325
24.338791 21.157389 -0.225146
24.502510 20.927120 -0.674974
24.370417 20.814302 -0.223749
24.561657 20.609678 -0.671623
24.436222 20.504425 -0.222702
24.555424 20.241930 -0.666597
24.429039 20.137745 -0.221027
24.606815 19.926207 -0.663246
24.510586 19.848282 -0.220189
24.654575 19.611134 -0.659896
24.526342 19.509132 -0.218793
24.706598 19.302910 -0.656754
24.601097 19.220484 -0.217955
24.683741 18.940500 -0.651728
24.601288 18.877232 -0.216489
24.656456 18.579971 -0.646702
24.581402 18.523415 -0.214883
24.721214 18.292736 -0.644189
24.709957 18.284407 -0.214604
24.742403 17.976408 -0.640629
24.803856 18.021057 -0.214045
24.800659 17.690138 -0.638116
29.521494 21.057476 -0.759582
24.862482 17.734236 -0.213208
24.790295 17.358351 -0.633927
29.540335 20.684364 -0.755393
24.917997 17.447769 -0.212370
24.825476 17.062077 -0.630995
29.662037 20.386152 -0.753927
25.003380 17.184347 -0.211811
29.673037 20.014715 -0.749739
24.986584 16.853662 -0.210415
24.993368 16.700035 0.209857
24.872114 16.619017 0.626597
29.679825 19.644648 -0.745550
24.974272 16.530109 -0.209089
25.046160 16.420982 0.209089
24.974388 16.373926 0.625550
29.749506 19.319555 -0.743037
25.016933 16.246187 -0.208251
25.053942 16.115236 0.207972
24.956564 16.052601 0.621571
29.815781 18.994747 -0.740524
25.022814 15.941291 -0.207134
25.125961 15.853301 0.207413
25.036509 15.796861 0.620105
29.921053 18.696749 -0.739058
24.982887 15.611041 -0.205668
29.791204 18.615610 -0.245252
25.203825 15.596601 0.206925
25.105394 15.535689 0.618430
30.014875 18.393139 -0.737383
25.015852 15.329734 -0.204830
29.824627 18.276554 -0.244204
25.227835 15.308626 0.206017
25.137444 15.253776 0.615917
30.037125 18.048126 -0.734032
25.071533 15.064497 -0.204202
29.845839 17.933189 -0.243087
25.231558 15.011199 0.204970
25.200861 14.992937 0.614241
29.891975 17.607719 -0.726702
29.897802 17.611153 -0.242250
25.223383 14.709842 0.203853
25.330738 14.772450 0.614241
29.905956 17.266212 -0.723351
30.059010 17.354578 -0.242320
25.220560 14.414738 0.202806
25.319805 14.471461 0.610890
29.872759 16.901194 -0.718953
30.174496 17.071909 -0.242040
25.197071 14.111037 0.201619
25.410234 14.230415 0.610053
29.975388 16.615629 -0.717906
30.086185 16.677044 -0.240155
25.205280 13.828090 0.200711
30.106064 16.516752 0.239736
25.463327 13.969659 0.608377
30.048954 16.315250 -0.716231
30.054813 16.318432 -0.238759
25.184053 13.531879 0.199594
30.152155 16.201338 0.238969
25.478580 13.690135 0.605864
30.119564 16.014856 -0.714555
30.010658 15.956949 -0.237293
25.265781 13.292971 0.199315
30.195042 15.886380 0.238201
25.490902 13.411412 0.603351
30.187227 15.714476 -0.712880
30.006845 15.620575 -0.236176
30.190287 15.549019 0.237084
25.509195 13.138100 0.601047
30.180681 15.377825 -0.709529
30.061827 15.317266 -0.235548
30.119446 15.181451 0.235478
25.453247 12.829493 0.597068
30.242147 15.078178 -0.707854
30.158552 15.036500 -0.235268
30.062441 14.825155 0.234012
25.411798 12.531713 0.593508
30.345617 14.800547 -0.707226
30.189756 14.724528 -0.234501
30.082588 14.510118 0.233174
25.412130 12.257357 0.590995
30.428501 14.513650 -0.706178
30.280998 14.443295 -0.234221
30.099533 14.195862 0.232336
25.364403 11.962629 0.587435
30.120794 14.205889 0.697592
30.481508 14.213760 -0.704503
30.324320 14.140463 -0.233593
30.185944 13.915911 0.232057
25.422432 11.719902 0.586388
30.116503 13.883898 0.694660
30.458822 13.880885 -0.701152
30.346468 13.829682 -0.232825
30.233294 13.619105 0.231499
25.487276 11.481180 0.585550
30.090664 13.554856 0.691309
30.542261 13.598290 -0.700315
30.392918 13.531798 -0.232267
30.286919 13.326563 0.231010
30.171202 13.275646 0.690472
30.623089 13.315298 -0.699477
30.509846 13.266058 -0.232267
30.356121 13.042019 0.230661
30.212416 12.980278 0.688796
30.710510 13.035838 -0.698849
30.587631 12.983679 -0.231987
30.441113 12.765018 0.230451
30.259998 12.689071 0.687330
30.795387 12.755867 -0.698220
30.588905 12.670340 -0.231150
30.468050 12.464808 0.229823
30.323311 12.405594 0.686283
30.822102 12.452937 -0.696335
30.661222 12.387938 -0.230870
30.510651 12.172515 0.229334
30.356125 12.110866 0.684608
30.938902 12.187158 -0.696545
30.730944 12.105241 -0.230591
30.569113 11.887678 0.228985
30.423384 11.831007 0.683770
31.072077 11.927453 -0.697173
30.844746 11.840189 -0.230661
30.596878 11.592120 0.228427
30.488071 11.550897 0.682932
31.128155 11.638340 -0.696126
30.834497 11.528546 -0.229823
30.696873 11.324674 0.228427
30.559570 11.274020 0.682304
31.162767 11.342320 -0.694660
30.886944 11.241928 -0.229474
30.756882 11.042850 0.228148
30.581512 10.979885 0.680629
31.147469 11.029897 -0.692147
30.946165 10.958612 -0.229195
30.814314 10.760840 0.227868
30.676165 10.712596 0.680629
31.280348 10.770687 -0.692985
31.163532 10.730465 -0.230102
30.916515 10.494742 0.227938
30.721144 10.428423 0.679582
31.297298 10.471930 -0.691309
31.170639 10.429550 -0.229474
30.968933 10.212023 0.227659
30.735018 10.134890 0.677906
31.320930 10.176787 -0.689843
31.222425 10.144781 -0.229195
31.018776 9.929188 0.227380
30.822290 9.866293 0.677906
31.408546 9.903077 -0.689843
31.271616 9.859903 -0.228916
31.142441 9.669985 0.227659
30.907215 9.596946 0.677906
31.445965 9.613997 -0.688796
31.356468 9.586635 -0.228916
31.254368 9.406497 0.227868
30.961065 9.318223 0.677278
31.490320 9.327858 -0.687958
31.410170 9.304116 -0.228706
31.258461 9.111011 0.227310
31.002810 9.036495 0.676440
31.532080 9.041678 -0.687121
31.442104 9.015878 -0.228357
31.336779 8.837886 0.227310
31.080486 8.765604 0.676440
31.571245 8.755481 -0.686283
31.442495 8.719776 -0.227799
31.374119 8.553567 0.227031
31.232962 8.515082 0.678116
31.607819 8.469290 -0.685445
31.478756 8.434707 -0.227519
31.408886 8.269270 0.226751
31.267406 8.232021 0.677278
31.719240 8.203154 -0.686283
31.589888 8.169701 -0.227799
31.479853 7.994864 0.226751
31.338053 7.958852 0.677278
31.673208 7.897017 -0.683770
31.582355 7.874366 -0.227240
31.509569 7.710342 0.226472
31.406313 7.685076 0.677278
31.740915 7.620319 -0.683770
31.649870 7.598462 -0.227240
31.575653 7.435080 0.226472
31.433254 7.401549 0.676440
31.806206 7.343041 -0.683770
31.724716 7.324228 -0.227310
31.571062 7.143802 0.225983
31.496647 7.126964 0.676440
31.839790 7.058712 -0.683142
31.699558 7.027623 -0.226682
31.632200 6.868024 0.225983
31.518562 6.843350 0.675602
31.900177 6.780592 -0.683142
31.759678 6.750728 -0.226682
31.641979 6.581541 0.225634
31.577080 6.568042 0.675602
31.958134 6.501956 -0.683142
31.817379 6.473319 -0.226682
31.698208 6.305166 0.225634
31.584166 6.282481 0.674555
32.013657 6.222825 -0.683142
31.882475 6.197325 -0.226751
31.752024 6.028310 0.225634
31.637787 6.006621 0.674555
32.096233 5.948685 -0.683770
31.964838 5.924333 -0.226961
31.803421 5.750995 0.225634
31.688999 5.730305 0.674555
32.146923 5.668370 -0.683770
31.985777 5.639956 -0.226751
31.852396 5.473243 0.225634
31.737799 5.453551 0.674555
32.165581 5.382672 -0.683142
32.033775 5.360616 -0.226751
31.898945 5.195073 0.225634
31.784182 5.176383 0.674555
32.240952 5.106465 -0.683770
32.158348 5.093382 -0.227310
31.943066 4.916508 0.225634
31.828142 4.898819 0.674555
32.284286 4.824919 -0.683770
32.152122 4.805167 -0.226961
32.034233 4.644743 0.225983
31.919151 4.628057 0.675602
32.374664 4.549963 -0.684817
32.192829 4.524407 -0.226961
32.073547 4.365018 0.225983
31.958323 4.349337 0.675602
32.413136 4.267271 -0.684817
32.270744 4.248524 -0.227240
32.110416 4.084961 0.225983
31.985144 4.069024 0.675393
32.478912 3.987909 -0.685445
32.356216 3.972844 -0.227589
32.214355 3.812820 0.226472
32.059147 3.794450 0.676231
32.562141 3.709987 -0.686493
32.389652 3.690335 -0.227589
32.246403 3.531555 0.226472
32.051285 3.510187 0.675393
32.543564 3.420466 -0.685445
32.420624 3.407545 -0.227589
32.275993 3.250021 0.226472
32.120487 3.234363 0.676231
32.611980 3.140177 -0.686283
32.528755 3.132163 -0.228148
32.342957 2.971900 0.226751
32.197269 2.958513 0.677278
32.638142 2.855467 -0.686283
32.505039 2.843822 -0.227799
32.417484 2.693685 0.227100
32.211895 2.676602 0.677068
32.701683 2.573678 -0.687121
32.568497 2.563196 -0.228078
32.469673 2.412914 0.227310
32.273911 2.398366 0.677906
32.722897 2.288208 -0.687121
32.669426 2.284469 -0.228636
32.489494 2.129474 0.227310
32.333515 2.119251 0.678744
32.791515 2.005615 -0.688168
32.688118 1.999291 -0.228636
32.506840 1.845872 0.227310
32.390705 1.839278 0.679582
32.837723 1.720952 -0.688796
32.744263 1.716054 -0.228916
32.601616 1.565968 0.227868
32.485413 1.560386 0.681257
32.851490 1.434327 -0.688796
32.757992 1.430245 -0.228916
32.693977 1.284550 0.228427
32.547741 1.278804 0.682304
32.942688 1.150384 -0.690472
32.769226 1.144327 -0.228916
32.753918 1.000723 0.228776
32.587643 0.995642 0.682932
33.031429 0.864958 -0.692147
32.857937 0.860415 -0.229474
32.751408 0.714638 0.228706
32.635071 0.712100 0.683770
33.077705 0.577373 -0.692985
32.914185 0.574519 -0.229823
32.796391 0.429328 0.228985
32.680031 0.427805 0.684608
33.171459 0.289483 -0.694870
33.037937 0.288318 -0.230661
32.848888 0.143331 0.229334
32.682518 0.142605 0.684608
33.242706 0.000000 -0.696335
33.079193 0.000000 -0.230940
32.888885 -0.143506 0.229614
32.722511 -0.142780 0.685445
33.241444 -0.290094 -0.696335
33.117931 -0.289016 -0.231219
33.006367 -0.432077 0.230451
32.809990 -0.429506 0.687330
33.277630 -0.580863 -0.697173
33.154140 -0.578708 -0.231499
32.991344 -0.719874 0.230382
32.844975 -0.716680 0.688168
33.351250 -0.873333 -0.698849
33.217804 -0.869839 -0.231987
33.073761 -1.010495 0.231010
32.907421 -1.005413 0.689634
33.412300 -1.166783 -0.700315
33.298889 -1.162823 -0.232616
33.133629 -1.301824 0.231499
32.987305 -1.296075 0.691519
33.450787 -1.460493 -0.701362
33.287476 -1.453363 -0.232616
33.210899 -1.595234 0.232127
33.014687 -1.585809 0.692356
33.516640 -1.756533 -0.703037
33.353413 -1.747978 -0.233174
33.185730 -1.884422 0.232057
33.069462 -1.877820 0.693822
33.589848 -2.054443 -0.704922
33.416740 -2.043855 -0.233733
33.337654 -2.185065 0.233244
33.141602 -2.172215 0.695707
33.640457 -2.352370 -0.706388
33.517334 -2.343760 -0.234570
33.357204 -2.478868 0.233523
33.151295 -2.463567 0.696335
33.708351 -2.652905 -0.708273
33.535480 -2.639300 -0.234850
33.404060 -2.775663 0.234012
33.208244 -2.759392 0.698011
33.763596 -2.953932 -0.709948
33.580906 -2.937948 -0.235338
33.428356 -3.071635 0.234361
33.312325 -3.060973 0.700733
33.806194 -3.255166 -0.711414
33.643570 -3.239507 -0.235967
33.509724 -3.374252 0.235129
33.363926 -3.359571 0.702409
33.905758 -3.563639 -0.714137
33.693581 -3.541338 -0.236525
33.558525 -3.675256 0.235687
33.412846 -3.659302 0.704084
33.913105 -3.863910 -0.714974
33.770683 -3.847683 -0.237293
33.614548 -3.978544 0.236316
33.459068 -3.960142 0.705760
34.036865 -4.179202 -0.718325
33.864849 -4.158081 -0.238201
33.687668 -4.285613 0.237084
33.542248 -4.267113 0.708273
34.078400 -4.486506 -0.720000
33.936329 -4.467803 -0.238969
33.738163 -4.591562 0.237712
33.573082 -4.569096 0.709739
34.107254 -4.793462 -0.721466
33.935661 -4.769346 -0.239248
33.766083 -4.895849 0.238201
33.620979 -4.874810 0.711623
34.232220 -5.116040 -0.725027
34.011425 -5.083042 -0.240086
33.840672 -5.208578 0.239038
33.685856 -5.184749 0.713927
34.344265 -5.439598 -0.728377
34.094170 -5.399986 -0.240993
33.872890 -5.516551 0.239597
33.678799 -5.484941 0.714765
34.334934 -5.745697 -0.729215
34.164101 -5.717110 -0.241831
33.981144 -5.839028 0.240714
33.836571 -5.814187 0.719163
34.431175 -6.071145 -0.732356
34.181843 -6.027181 -0.242320
34.046978 -6.156697 0.241552
33.892769 -6.128811 0.721466
34.504677 -6.395064 -0.735079
34.285263 -6.354398 -0.243437
34.070549 -6.468496 0.242110
33.955860 -6.446722 0.723979
34.604584 -6.726449 -0.738430
34.356113 -6.678152 -0.244344
34.169727 -6.796781 0.243227
33.976757 -6.758397 0.725655
34.622944 -7.044117 -0.740105
34.443516 -7.007612 -0.245391
34.226597 -7.119142 0.244065
34.073097 -7.087214 0.729006
34.638390 -7.362617 -0.741781
34.459301 -7.324550 -0.245950
34.319519 -7.451498 0.245182
34.127197 -7.409740 0.731519
34.728992 -7.699233 -0.745131
34.550274 -7.659611 -0.247067
34.379978 -7.779395 0.246089
34.217255 -7.742575 0.734870
34.689709 -8.008750 -0.745760
34.676987 -8.005813 -0.248463
34.495720 -8.122663 0.247416
34.274899 -8.070667 0.737592
34.774044 -8.348509 -0.749110
34.732208 -8.338465 -0.249371
34.540081 -8.451904 0.248254
34.309990 -8.395601 0.739896
34.855080 -8.690348 -0.752461
34.687225 -8.648497 -0.249580
34.629776 -8.794843 0.249440
34.429222 -8.743908 0.744084
34.981182 -9.046749 -0.756859
34.726608 -8.980912 -0.250418
34.658081 -9.124711 0.250208
34.438622 -9.066933 0.745969
35.036102 -9.387896 -0.759791
34.801460 -9.325023 -0.251535
34.808678 -9.489935 0.251884
34.589687 -9.430231 0.750995
34.962479 -9.695953 -0.760000
34.844028 -9.663104 -0.252442
34.801533 -9.815047 0.252442
34.621544 -9.764285 0.753508
34.914978 -10.011709 -0.760838
34.892948 -10.005392 -0.253420
34.800961 -10.143555 0.253071
34.678993 -10.108005 0.756650
35.085106 -10.392682 -0.766493
34.996067 -10.366307 -0.254816
34.864323 -10.492970 0.254188
34.742645 -10.456348 0.760000
35.585857 -10.879688 -0.779477
35.066841 -10.721009 -0.256003
34.924229 -10.844261 0.255305
34.841034 -10.818429 0.764189
36.090271 -11.379218 -0.792671
35.181763 -11.092767 -0.257539
34.942551 -11.185199 0.256142
34.983349 -11.198257 0.769424
35.904018 -11.665922 -0.790786
35.492565 -11.532233 -0.260541
34.995560 -11.539805 0.257259
34.884293 -11.503115 0.769424
29.657059 -9.923113 -0.655079
35.611225 -11.915349 -0.786597
35.352646 -11.828830 -0.260261
35.348042 -11.999043 0.260610
34.934059 -11.858515 0.772775
35.250656 -12.137774 -0.780943
34.983334 -12.045728 -0.258307
35.053169 -12.241116 0.259214
35.065216 -12.245321 0.778011
35.991585 -12.745288 -0.799791
34.989998 -12.390609 -0.259144
35.472061 -12.735771 0.263124
35.211082 -12.642071 0.783665
35.409248 -12.887912 -0.789320
34.805367 -12.668118 -0.258586
36.459187 -13.270059 -0.270873
35.406479 -13.062140 0.263473
35.211979 -12.990385 0.786178
35.145599 -13.140401 -0.785969
36.304531 -13.573708 -0.270594
35.515572 -13.455646 0.265148
35.256214 -13.357385 0.789739
35.122929 -13.482429 -0.788063
36.595459 -14.047681 -0.273665
35.722992 -13.891912 0.267592
35.315350 -13.733389 0.793718
34.985329 -13.781088 -0.787644
36.313313 -14.304194 -0.272479
35.897614 -14.321696 0.269826
35.305595 -14.085504 0.796231
34.937897 -14.115826 -0.789320
36.773315 -14.857385 -0.830786
36.159290 -14.609302 -0.272269
35.771267 -14.634413 0.269826
35.264614 -14.427134 0.798116
34.905750 -14.458435 -0.791414
36.808525 -15.246591 -0.834555
35.365246 -14.648765 -0.267243
35.679085 -14.961482 0.270105
35.238792 -14.776852 0.800419
36.867336 -15.649256 -0.838953
35.015152 -14.863050 -0.265567
35.675793 -15.327531 0.271082
35.328960 -15.178519 0.805445
37.022766 -16.097956 -0.845655
34.801582 -15.132158 -0.264939
35.705429 -15.710766 0.272339
35.387333 -15.570799 0.809843
30.414392 -13.541360 -0.697383
37.100079 -16.518019 -0.850681
34.896587 -15.536962 -0.266684
37.015961 -16.480568 -0.282881
35.348152 -15.923182 0.270663
35.386841 -15.940609 0.812985
37.172863 -16.940649 -0.855707
35.105450 -15.998475 -0.269337
37.034523 -16.877604 -0.284137
35.144283 -16.201736 0.270175
35.427975 -16.332520 0.817173
37.268265 -17.378477 -0.861362
37.230217 -17.360735 -0.286790
35.173405 -16.588854 0.271501
35.464951 -16.726357 0.821362
37.521267 -17.896725 -0.870786
37.104378 -17.697880 -0.287000
35.162403 -16.960329 0.272548
36.945740 -17.820511 0.286371
35.533756 -17.139450 0.826388
29.851389 -14.559496 -0.695707
37.579323 -18.328661 -0.875812
37.164227 -18.126205 -0.288675
35.219334 -17.368254 0.274154
37.022003 -18.257233 0.288186
35.463539 -17.488682 0.828273
37.552158 -18.722815 -0.878953
37.299953 -18.597071 -0.290979
37.048794 -18.674129 0.289652
35.452415 -17.869490 0.831623
32.942196 -16.784887 -0.774451
37.636768 -19.176891 -0.884817
37.385723 -19.048977 -0.292934
37.168900 -19.143242 0.291886
35.357346 -18.210230 0.833089
37.680824 -19.615396 -0.889843
29.740749 -15.482054 -0.234082
37.493034 -19.517639 -0.295098
37.283619 -19.615862 0.294120
35.329807 -18.587910 0.836231
37.090546 -19.514280 0.877906
37.826008 -20.112444 -0.897383
37.568504 -19.975529 -0.297053
37.322430 -20.054066 0.295796
35.351200 -18.994884 0.840629
37.103786 -19.936584 0.882304
37.789635 -20.518097 -0.900733
37.533363 -20.378954 -0.298170
37.154774 -20.383808 0.295866
37.033581 -20.317318 0.884817
32.834766 -18.200609 -0.786388
37.757797 -20.929489 -0.904294
37.529018 -20.802673 -0.299566
37.036552 -20.741467 0.296355
35.310894 -19.775049 0.847749
36.933380 -20.683685 0.886702
37.573715 -21.258186 -0.904294
37.406975 -21.163849 -0.300055
37.201412 -21.262360 0.299147
36.959797 -21.124266 0.891728
37.681160 -21.755228 -0.911414
37.567268 -21.689472 -0.302847
37.014450 -21.586189 0.299147
37.093597 -21.632347 0.899477
29.779987 -17.541754 -0.723979
37.610477 -22.154264 -0.914346
37.540268 -22.112907 -0.304173
37.340298 -22.215143 0.303336
37.075253 -22.057459 0.903665
28.734516 -17.265440 -0.702199
37.749939 -22.682451 -0.922514
29.057262 -17.459366 -0.236665
37.645870 -22.619921 -0.306617
37.384384 -22.685402 0.305291
37.043755 -22.478703 0.907644
37.763676 -23.141609 -0.927749
37.702827 -23.104324 -0.308711
37.321049 -23.094967 0.306408
37.118237 -22.969461 0.914346
37.924873 -23.698090 -0.936754
37.711781 -23.564936 -0.310457
37.422543 -23.611866 0.308921
37.567448 -23.703293 0.930472
28.019751 -17.850550 -0.695917
38.112934 -24.280617 -0.946597
37.673378 -24.000589 -0.311853
37.551476 -24.153921 0.311713
37.409618 -24.062675 0.931728
28.064148 -18.225071 -0.700943
38.167912 -24.786531 -0.953299
28.430239 -18.462812 -0.236665
37.965691 -24.655209 -0.316042
28.717367 -18.827930 0.239736
37.707222 -24.721939 0.314785
37.507568 -24.591040 0.939477
38.250290 -25.317316 -0.960838
38.082638 -25.206348 -0.318834
37.689598 -25.183386 0.316461
37.491055 -25.050722 0.944503
29.266897 -19.740770 -0.739477
38.334579 -25.857000 -0.968587
37.894382 -25.560085 -0.319113
37.939545 -25.832117 0.320440
37.667698 -25.647022 0.954556
28.879288 -19.848185 -0.734032
38.494732 -26.456696 -0.978430
28.431660 -19.540539 -0.240853
38.065460 -26.161667 -0.322464
37.967381 -26.338909 0.322604
37.754612 -26.191305 0.962514
38.532650 -26.980852 -0.985341
37.934006 -26.561678 -0.323302
37.997406 -26.853910 0.324838
38.161453 -26.969851 0.978849
38.434105 -27.414780 -0.988901
38.311344 -27.327215 -0.328538
38.694904 -27.856346 0.332866
38.500740 -27.716566 0.993718
38.508850 -27.978319 -0.997069
38.953220 -28.301170 -0.336148
38.805168 -28.453127 0.335938
38.579910 -28.287962 1.002095
39.324089 -29.098295 -1.024713
39.090607 -28.925528 -0.339499
38.907936 -29.053934 0.339010
38.684059 -28.886759 1.011310
39.523788 -29.783310 -1.036650
39.228020 -29.560434 -0.342919
39.034988 -29.682894 0.342361
38.780670 -29.489508 1.020524
39.635170 -30.413137 -1.046493
39.309700 -30.163393 -0.345921
39.217247 -30.365236 0.346271
38.964542 -30.169571 1.032252
39.809452 -31.102552 -1.058221
39.454739 -30.825418 -0.349552
39.304153 -30.984898 0.349412
39.045246 -30.780790 1.041467
39.982506 -31.803522 -1.070158
39.692917 -31.573174 -0.354090
39.398804 -31.620884 0.352693
39.180599 -31.445757 1.052357
40.037548 -32.421768 -1.079163
39.788902 -32.220417 -0.357441
39.585987 -32.343109 0.356882
39.307293 -32.115406 1.063247
40.154251 -33.100609 -1.090053
39.930599 -32.916245 -0.361280
39.732777 -33.045403 0.360792
39.486744 -32.840778 1.075812
40.262123 -33.783936 -1.100943
40.009525 -33.571980 -0.364631
39.809235 -33.701004 0.364143
39.473358 -33.416664 1.083351
40.482738 -34.575523 -1.115184
40.209286 -34.341976 -0.369169
39.937851 -34.412655 0.368052
39.634682 -34.151424 1.095917
40.503925 -35.209526 -1.124189
40.323151 -35.052380 -0.373009
40.147266 -35.208210 0.372799
39.838772 -34.937664 1.109948
40.704304 -36.012127 -1.138430
40.375217 -35.720978 -0.376360
40.278656 -35.950073 0.376918
39.950069 -35.656799 1.121676
40.782272 -36.720524 -1.149529
40.492973 -36.460037 -0.380409
40.318699 -36.622929 0.380269
40.051819 -36.380512 1.133404
40.924660 -37.500542 -1.162723
40.659855 -37.257893 -0.385017
40.408783 -37.353497 0.384179
40.143948 -37.108685 1.145131
41.093063 -38.319901 -1.176964
40.793915 -38.040943 -0.389415
40.547424 -38.143208 0.388647
40.284645 -37.896011 1.158535
41.163219 -39.062435 -1.188692
40.866596 -38.780952 -0.393324
40.733112 -38.993469 0.393673
40.472397 -38.743893 1.173613
41.223515 -39.809086 -1.200420
40.879086 -39.476475 -0.396745
40.735100 -39.682377 0.397024
40.505154 -39.458374 1.184503
41.502071 -40.783974 -1.218849
41.125019 -40.413445 -0.402539
40.870171 -40.515060 0.401772
40.620796 -40.267849 1.198116
41.540482 -41.540482 -1.230577
41.308170 -41.308170 -0.407845
41.134579 -41.495121 0.407915
40.852055 -41.210117 1.215498
41.765030 -42.500404 -1.248168
41.478798 -42.209133 -0.413151
41.329121 -42.425529 0.413500
40.965271 -42.052025 1.229739
42.003723 -43.496128 -1.266598
41.664593 -43.144951 -0.418736
41.399879 -43.246876 0.417968
41.059952 -42.891788 1.243770
42.138706 -44.404930 -1.282304
41.782104 -44.029152 -0.423763
41.486820 -44.101788 0.422715
41.149914 -43.743649 1.258011
42.274624 -45.333984 -1.298430
41.941875 -44.977158 -0.429348
41.724865 -45.137703 0.429138
41.397766 -44.783848 1.277488
42.525829 -46.408802 -1.318535
42.142292 -45.990238 -0.435491
41.921047 -46.151474 0.435282
41.543156 -45.735447 1.294242
42.728001 -47.454250 -1.337592
42.321480 -47.002766 -0.441565
41.996132 -47.052692 0.440308
41.648422 -46.663113 1.310158
42.948235 -48.544151 -1.357697
42.519291 -48.059319 -0.447987
42.137764 -48.048912 0.446172
41.734028 -47.588539 1.325865
42.995239 -49.460361 -1.372776
42.649357 -49.062473 -0.453852
42.369602 -49.172344 0.453154
41.891460 -48.617432 1.344294
43.133373 -50.502689 -1.391205
42.758617 -50.063908 -0.459646
42.481617 -50.181313 0.459018
42.008228 -49.622124 1.361886
42.572811 -51.188240 0.464812
42.187325 -50.724747 1.381990
42.731876 -52.301205 0.471514
42.344006 -51.826473 1.401886
42.490883 -52.942543 1.421990
42.819527 -54.316311 1.448797
42.876415 -55.375656 1.467016
0.128507 -0.178507 0.004607
0.182395 -0.262921 0.002234
0.153865 -0.221796 0.005654
0.155556 -0.232806 0.001955
0.144417 -0.216135 0.005445
0.153518 -0.234154 0.001955
0.148007 -0.225748 0.005654
0.151469 -0.235485 0.001955
0.162257 -0.252256 0.006283
0.128064 -0.202970 0.001676
0.117369 -0.186019 0.004607
0.147336 -0.238093 0.001955
0.157830 -0.255050 0.006283
0.129690 -0.213723 0.001745
0.119292 -0.196587 0.004817
0.138046 -0.232034 0.001885
0.127795 -0.214804 0.005236
0.135989 -0.233184 0.005654