# This PCD file was generated using the MATLAB® pcwrite function
# from Computer Vision System Toolbox®.
# .PCD v.7 - Point Cloud Data file format
VERSION .7
FIELDS x y z
SIZE 4 4 4
TYPE F F F
COUNT 1 1 1
WIDTH 751
HEIGHT 1
VIEWPOINT 0 0 0 1 0 0 0
POINTS 751
DATA ascii
30.831522 32.489643 -0.938220
30.975201 32.641052 -0.314157
30.822178 31.917299 -0.929425
30.960169 32.060192 -0.311155
30.819229 31.361876 -0.921048
30.958408 31.503504 -0.308362
30.808954 30.808954 -0.912671
30.977592 30.977592 -0.305849
30.770006 30.237602 -0.903665
30.932919 30.397694 -0.302777
30.745031 29.690132 -0.895288
30.938051 29.876528 -0.300264
30.749128 29.179832 -0.887959
30.878435 29.302540 -0.297192
30.783237 28.705833 -0.881676
30.898941 28.813728 -0.294958
30.804062 28.226723 -0.875184
30.913286 28.326807 -0.292724
30.781738 27.716002 -0.867644
30.832327 27.761553 -0.289652
30.812769 27.260836 -0.861781
30.863712 27.305906 -0.287698
30.808035 26.781015 -0.855079
30.859324 26.825600 -0.285464
30.789688 26.296877 -0.848168
30.818502 26.321487 -0.282950
30.749939 25.802263 -0.840838
30.832537 25.871571 -0.280996
30.788784 25.380314 -0.835812
30.817934 25.404345 -0.278832
30.729382 24.884163 -0.828273
30.719831 24.876429 -0.275969
30.663687 24.390999 -0.820733
30.716621 24.433104 -0.274014
30.757193 24.030153 -0.817592
30.747431 24.022526 -0.272409
30.775358 23.614763 -0.812566
30.757559 23.601105 -0.270663
30.724754 23.152763 -0.805864
30.706787 23.139223 -0.268429
30.732744 22.741035 -0.800838
30.722660 22.733572 -0.266824
30.735903 22.330940 -0.795812
30.725718 22.323540 -0.265148
30.701702 21.899311 -0.789948
30.683266 21.886162 -0.263124
30.695086 21.492929 -0.784922
30.643732 21.456972 -0.261169
30.675489 21.082680 -0.779686
30.673229 21.081127 -0.259843
30.667664 20.685600 -0.774870
30.690224 20.700817 -0.258446
30.638582 20.279236 -0.769634
30.627880 20.272152 -0.256422
30.655071 19.907637 -0.765655
30.644276 19.900625 -0.255095
30.646715 19.712629 0.254397
30.632332 19.703379 0.762932
30.591532 19.488955 -0.759791
30.614363 19.503500 -0.253420
30.606144 19.311039 0.252652
30.600178 19.307274 0.757906
30.590864 19.115294 -0.755603
30.579868 19.108423 -0.251744
30.637444 18.959026 0.251535
30.631472 18.955330 0.754555
30.577496 18.737913 -0.751205
30.574932 18.736341 -0.250348
30.596550 18.566442 0.249859
30.564943 18.547262 0.748901
30.577023 18.372528 -0.747226
30.565842 18.365810 -0.248952
30.585529 18.196478 0.248463
30.588158 18.198042 0.745550
30.598356 18.023809 -0.743875
30.587090 18.017172 -0.247835
30.535841 17.807976 0.246788
30.538525 17.809542 0.740524
30.581308 17.656126 -0.739686
30.569952 17.649570 -0.246438
30.525126 17.446547 0.245461
30.553896 17.462990 0.737173
30.560188 17.290123 -0.735498
30.548740 17.283646 -0.245042
30.562790 17.115986 0.244554
30.574278 17.122419 0.734032
30.526278 16.920992 -0.731100
30.523483 16.919443 -0.243646
30.535648 16.752430 0.243157
30.573523 16.773209 0.730472
30.470694 16.544237 -0.726283
30.459059 16.537920 -0.241970
30.513311 16.395393 0.241831
30.516171 16.396929 0.725655
30.543287 16.240154 -0.724608
30.522755 16.229237 -0.241342
30.504780 16.049341 0.240644
30.507681 16.050867 0.722095
30.506481 15.880669 -0.720419
30.503559 15.879148 -0.240086
30.465876 15.690957 0.239248
30.468824 15.692475 0.717906
30.439016 15.509453 -0.715603
30.498409 15.539716 -0.238969
30.503418 15.374988 0.238480
30.506399 15.376491 0.715603
30.501621 15.207547 -0.713927
30.489670 15.201589 -0.237852
30.528805 15.055140 0.237642
30.531818 15.056627 0.713089
30.408520 14.831226 -0.708691
30.432425 14.842885 -0.236385
30.469879 14.696925 0.236176
30.481949 14.702746 0.708901
30.428501 14.513650 -0.706178
30.452486 14.525090 -0.235548
30.461308 14.366485 0.235129
30.428240 14.350890 0.704712
30.481508 14.213760 -0.704503
30.469326 14.208079 -0.234710
30.440218 14.033133 0.234012
30.443363 14.034582 0.702199
30.422432 13.864301 -0.700315
30.446562 13.875298 -0.233593
30.415640 13.701247 0.232895
30.455290 13.719108 0.699686
30.432659 13.549493 -0.697801
30.420322 13.544000 -0.232476
30.460823 13.403083 0.232336
30.427431 13.388391 0.696335
30.439716 13.235566 -0.695288
30.463993 13.246121 -0.231917
30.429623 13.073598 0.231219
30.432877 13.074996 0.693822
30.489637 12.942083 -0.693822
30.477173 12.936792 -0.231150
30.431890 12.761150 0.230382
30.435177 12.762529 0.691309
30.379734 12.583697 -0.688796
30.404135 12.593805 -0.229753
30.431030 12.449663 0.229544
30.434351 12.451022 0.688796
30.414230 12.288147 -0.687121
30.392345 12.279305 -0.228846
30.389908 12.124344 0.228427
30.393269 12.125685 0.685445
30.371471 11.963640 -0.683770
30.386698 11.969639 -0.228008
30.419996 11.829689 0.227868
30.423384 11.831007 0.683770
30.390713 11.665901 -0.681885
30.377966 11.661009 -0.227170
30.372452 11.507092 0.226751
30.413277 11.522560 0.681257
30.378983 11.358236 -0.679372
30.403639 11.367455 -0.226612
30.396658 11.213920 0.226193
30.437632 11.229035 0.679582
30.364204 11.051666 -0.676859
30.398315 11.064082 -0.225844
30.380421 10.907686 0.225355
30.383909 10.908937 0.676231
30.346399 10.746223 -0.674346
30.408873 10.768347 -0.225215
30.361162 10.602592 0.224517
30.402437 10.617006 0.674555
30.363396 10.454956 -0.672671
30.397682 10.466761 -0.224448
30.376778 10.311526 0.223959
30.380323 10.312730 0.672042
30.387108 10.167384 -0.671205
30.364584 10.159847 -0.223540
30.389631 10.020998 0.223400
30.393202 10.022175 0.670367
30.360575 9.864749 -0.668691
30.347473 9.860492 -0.222772
30.323544 9.706643 0.222283
30.365240 9.719991 0.667854
30.369223 9.575379 -0.667016
30.356071 9.571233 -0.222214
30.330694 9.417931 0.221725
30.343878 9.422025 0.665550
30.346457 9.277843 -0.664712
30.361937 9.282576 -0.221655
30.296820 9.118308 0.220887
30.338781 9.130937 0.663665
30.349575 8.989954 -0.663037
30.326729 8.983187 -0.220817
30.336836 8.842381 0.220608
30.350119 8.846252 0.662199
30.301933 8.688940 -0.660315
30.327068 8.696147 -0.220259
30.297352 8.544737 0.219770
30.301069 8.545785 0.659477
30.299532 8.402803 -0.658639
30.334347 8.412459 -0.219770
30.254993 8.248458 0.218932
30.297323 8.259998 0.657801
30.342733 8.130311 -0.658011
30.329332 8.126720 -0.219212
30.296810 7.976485 0.218723
30.300573 7.977475 0.656335
30.286695 7.832672 -0.655288
30.311964 7.839207 -0.218583
30.316805 7.699487 0.218374
30.281824 7.690603 0.654451
30.324793 7.560820 -0.654660
30.301598 7.555037 -0.218025
30.314848 7.417996 0.217885
30.347782 7.426055 0.654451
30.311844 7.277230 -0.652985
30.337202 7.283318 -0.217815
30.251890 7.123374 0.216978
30.304382 7.135735 0.652147
30.335230 7.003439 -0.652147
30.360632 7.009304 -0.217536
30.283642 6.852489 0.216768
30.326494 6.862185 0.651309
30.278061 6.712484 -0.649634
30.264439 6.709465 -0.216419
30.303198 6.579469 0.216489
30.297291 6.578187 0.649424
30.286587 6.437613 -0.648587
30.321836 6.445106 -0.216419
30.281139 6.298486 0.215930
30.324177 6.307438 0.648796
30.263235 6.157125 -0.646911
30.249538 6.154338 -0.215512
30.246681 6.016439 0.215302
30.260395 6.019167 0.646283
30.207859 5.871813 -0.644608
30.223564 5.874866 -0.214953
30.258736 5.744800 0.215023
30.272480 5.747410 0.645445
30.257948 5.607979 -0.644608
30.263849 5.609073 -0.214883
30.228994 5.466292 0.214464
30.232939 5.467006 0.643561
30.217121 5.328094 -0.642723
30.242708 5.332605 -0.214395
30.245979 5.197210 0.214255
30.289349 5.204662 0.643770
30.223024 5.057600 -0.641885
30.258505 5.063537 -0.214185
30.240831 4.925032 0.213906
30.254671 4.927286 0.642095
30.226509 4.787409 -0.641047
30.212650 4.785213 -0.213557
30.253008 4.656384 0.213696
30.247110 4.655476 0.641047
30.217695 4.516065 -0.640000
30.203808 4.513989 -0.213208
30.163839 4.373549 0.212789
30.217325 4.381304 0.639582
30.186651 4.242457 -0.638534
30.172733 4.240501 -0.212719
30.121590 4.099369 0.212230
30.125624 4.099917 0.636859
30.182875 3.973651 -0.637697
30.208590 3.977036 -0.212719
30.156216 3.836355 0.212230
30.170172 3.838131 0.637068
30.176708 3.705234 -0.636859
30.162743 3.703519 -0.212160
30.158754 3.569524 0.212021
30.152874 3.568828 0.636021
30.168159 3.437227 -0.636021
30.193913 3.440162 -0.212160
30.139053 3.300763 0.211672
30.143116 3.301208 0.635184
30.117462 3.165473 -0.634346
30.143225 3.168180 -0.211602
30.126913 3.033621 0.211393
30.180725 3.039039 0.635393
30.153891 2.903489 -0.634555
30.169724 2.905014 -0.211602
30.152239 2.770602 0.211393
30.206095 2.775550 0.635393
30.178080 2.640240 -0.634555
30.164040 2.639012 -0.211393
30.185234 2.508199 0.211462
30.179348 2.507710 0.634346
30.199970 2.376789 -0.634555
30.185921 2.375684 -0.211393
30.126194 2.238763 0.210904
30.160202 2.241290 0.633508
30.059986 2.101999 -0.631205
30.085798 2.103804 -0.210555
30.144583 1.975780 0.210904
30.148684 1.976049 0.632880
30.157019 1.844482 -0.632880
30.142937 1.843621 -0.210834
30.070824 1.707545 0.210276
30.124853 1.710613 0.632042
30.132029 1.579153 -0.632042
30.157877 1.580507 -0.210834
30.094568 1.445546 0.210345
30.138634 1.447662 0.632042
30.054768 1.312220 -0.630157
30.080608 1.313348 -0.210206
30.096045 1.182477 0.210276
30.150118 1.184601 0.632042
30.115034 1.051640 -0.631205
30.100918 1.051147 -0.210276
30.075233 0.918881 0.210066
30.119335 0.920229 0.631205
30.073092 0.787492 -0.630157
30.058964 0.787122 -0.209927
30.082106 0.656394 0.210066
30.086237 0.656484 0.630367
30.078819 0.525028 -0.630157
30.064688 0.524781 -0.209927
30.086689 0.393856 0.210066
30.090820 0.393910 0.630367
30.082254 0.262524 -0.630157
30.078121 0.262488 -0.209996
30.058981 0.131158 0.209857
30.093113 0.131307 0.630367
30.083401 0.000000 -0.630157
30.069267 0.000000 -0.209927
30.058981 -0.131158 0.209857
30.093113 -0.131307 0.630367
30.052263 -0.262262 -0.629529
30.068123 -0.262401 -0.209927
30.086689 -0.393856 0.210066
30.090820 -0.393910 0.630367
30.048830 -0.524504 -0.629529
30.064688 -0.524781 -0.209927
30.002127 -0.654649 0.209508
30.036261 -0.655394 0.629320
29.963154 -0.784613 -0.627854
29.978992 -0.785028 -0.209368
29.995272 -0.916438 0.209508
30.029398 -0.917481 0.629320
30.035099 -1.048849 -0.629529
30.050949 -1.049402 -0.209927
29.986132 -1.178158 0.209508
30.030237 -1.179891 0.629529
30.054768 -1.312220 -0.630157
30.040648 -1.311603 -0.209927
30.014662 -1.441708 0.209787
30.058743 -1.443825 0.630367
30.012220 -1.572874 -0.629529
30.028059 -1.573704 -0.209927
30.040873 -1.705844 0.210066
30.035017 -1.705512 0.630157
29.997353 -1.834717 -0.629529
30.013182 -1.835685 -0.209927
30.024843 -1.967932 0.210066
30.028967 -1.968202 0.630367
29.930332 -2.092933 -0.628482
29.926191 -2.092643 -0.209438
30.006527 -2.229870 0.210066
30.010647 -2.230176 0.630367
29.990664 -2.360317 -0.630157
30.016449 -2.362346 -0.210206
30.015821 -2.494123 0.210276
30.029898 -2.495292 0.631205
30.008764 -2.625427 -0.630995
30.044500 -2.628553 -0.210555
29.992914 -2.755962 0.210276
30.006979 -2.757254 0.631205
29.994661 -2.888157 -0.631205
30.020418 -2.890637 -0.210555
29.967722 -3.017591 0.210276
30.021564 -3.023013 0.632042
30.008087 -3.153977 -0.632042
29.994049 -3.152502 -0.210555
30.029711 -3.288788 0.210904
30.023855 -3.288147 0.632671
29.979422 -3.415724 -0.632042
30.005138 -3.418654 -0.210834
29.999866 -3.550718 0.210904
30.033733 -3.554727 0.633508
29.988167 -3.682084 -0.632880
29.974163 -3.680364 -0.210834
29.967739 -3.812378 0.210904
30.011486 -3.817943 0.633718
29.905331 -3.937112 -0.631833
29.901249 -3.936574 -0.210555
29.972963 -4.079141 0.211183
29.967119 -4.078346 0.633508
29.949039 -4.209063 -0.633508
29.984587 -4.214059 -0.211393
29.926329 -4.339111 0.211113
29.930389 -4.339700 0.633508
29.960608 -4.477643 -0.634555
29.946671 -4.475560 -0.211393
29.926857 -4.606184 0.211393
29.930904 -4.606807 0.634346
29.910519 -4.737361 -0.634346
29.896597 -4.735156 -0.211323
29.925001 -4.873596 0.211672
29.889563 -4.867825 0.634346
29.946924 -5.011396 -0.636021
29.933039 -5.009073 -0.211881
29.930609 -5.143019 0.212021
29.924772 -5.142016 0.636021
29.951283 -5.281219 -0.637068
29.976818 -5.285722 -0.212510
29.923948 -5.411131 0.212300
29.927954 -5.411856 0.637068
29.904055 -5.542389 -0.637068
29.929550 -5.547114 -0.212510
29.914886 -5.679519 0.212579
29.918877 -5.680276 0.637906
29.883993 -5.808860 -0.637697
29.919268 -5.815716 -0.212789
29.864183 -5.940356 0.212579
29.819139 -5.931396 0.636859
29.920338 -6.087361 -0.639582
29.906572 -6.084561 -0.213068
29.928690 -6.225177 0.213417
29.932644 -6.225999 0.640419
29.866076 -6.348230 -0.639582
29.891462 -6.353626 -0.213347
29.912315 -6.494600 0.213696
29.916254 -6.495455 0.641257
29.838823 -6.615108 -0.640210
29.912981 -6.631548 -0.213906
29.854502 -6.755384 0.213696
29.858433 -6.756273 0.641257
29.906601 -6.904483 -0.642932
29.931919 -6.910328 -0.214464
29.872282 -7.033988 0.214255
29.876190 -7.034909 0.642932
29.835487 -7.162867 -0.642723
29.860752 -7.168932 -0.214395
29.887466 -7.313416 0.214813
29.881641 -7.311991 0.644398
29.888254 -7.451979 -0.645236
29.923191 -7.460690 -0.215302
29.861277 -7.583798 0.215093
29.865145 -7.584781 0.645445
29.870483 -7.725032 -0.646283
29.847265 -7.719028 -0.215232
29.832640 -7.854279 0.215372
29.836493 -7.855293 0.646283
29.840563 -7.995755 -0.647121
29.865698 -8.002490 -0.215861
29.840145 -8.135357 0.215930
29.843973 -8.136401 0.647958
29.769651 -8.255855 -0.647121
29.785091 -8.260137 -0.215791
29.806513 -8.406306 0.216210
29.800701 -8.404667 0.648587
29.840630 -8.556663 -0.650262
29.827223 -8.552818 -0.216629
29.808821 -8.688479 0.216768
29.803011 -8.686786 0.650262
29.841513 -8.839458 -0.651938
29.876095 -8.849703 -0.217536
29.808470 -8.971332 0.217327
29.812233 -8.972464 0.652147
29.839725 -9.122920 -0.653613
29.835981 -9.121775 -0.217815
29.795897 -9.251872 0.217815
29.837828 -9.264892 0.654451
29.806654 -9.398002 -0.654660
29.822002 -9.402842 -0.218304
29.790215 -9.535923 0.218374
29.755842 -9.524920 0.654451
29.799574 -9.682468 -0.656335
29.776854 -9.675086 -0.218583
29.781839 -9.820578 0.218932
29.747547 -9.809270 0.656126
29.742388 -9.951664 -0.656964
29.776638 -9.963123 -0.219212
29.770758 -10.105810 0.219491
29.774422 -10.107054 0.658639
29.692225 -10.223853 -0.657801
29.764200 -10.248635 -0.219770
29.766401 -10.394893 0.220119
29.760599 -10.392866 0.660315
29.762089 -10.539309 -0.661362
29.739614 -10.531350 -0.220259
29.740437 -10.677908 0.220608
29.753458 -10.682583 0.662199
29.734749 -10.822563 -0.662828
29.768736 -10.834934 -0.221166
29.768085 -10.982027 0.221515
29.762281 -10.979886 0.664503
29.723455 -11.113145 -0.664712
29.710518 -11.108308 -0.221446
29.745926 -11.269723 0.222074
29.702730 -11.253358 0.665341
29.690680 -11.397184 -0.666178
29.715141 -11.406574 -0.222214
29.674408 -11.539746 0.222283
29.752485 -11.570108 0.668691
29.664509 -11.685161 -0.667854
29.735420 -11.713094 -0.223121
29.730469 -11.861255 0.223470
29.724672 -11.858942 0.670367
29.718994 -12.007254 -0.671414
29.743334 -12.017087 -0.223959
29.690617 -12.146751 0.223959
29.703335 -12.151955 0.672252
29.677738 -12.292922 -0.672880
29.665049 -12.287665 -0.224168
29.694147 -12.451790 0.224797
29.697578 -12.453228 0.674555
29.606146 -12.567063 -0.673718
29.630329 -12.577329 -0.224727
29.667046 -12.745969 0.225425
29.661261 -12.743484 0.676231
29.642050 -12.888730 -0.677068
29.629488 -12.883268 -0.225565
29.655369 -13.048675 0.226193
29.695343 -13.066264 0.679582
29.601515 -13.179443 -0.678744
29.625557 -13.190148 -0.226402
29.649778 -13.356252 0.227031
29.653114 -13.357754 0.681257
29.630939 -13.503596 -0.682095
29.618517 -13.497936 -0.227240
29.677395 -13.681467 0.228148
29.680689 -13.682985 0.684608
29.611643 -13.808136 -0.684398
29.644606 -13.823506 -0.228357
29.638273 -13.978317 0.228776
29.632494 -13.975592 0.686283
29.607328 -14.121971 -0.687121
29.631153 -14.133335 -0.229195
29.650263 -14.301589 0.229823
29.653488 -14.303144 0.689634
29.599783 -14.436779 -0.689843
29.650494 -14.461512 -0.230312
29.631954 -14.612863 0.230661
29.635143 -14.614435 0.692147
29.606884 -14.761448 -0.692985
29.630554 -14.773250 -0.231150
29.646179 -14.942904 0.231778
29.613615 -14.926491 0.694660
29.619469 -15.091873 -0.696335
29.643064 -15.103896 -0.232267
29.585770 -15.237673 0.232336
29.624443 -15.257590 0.698011
29.593060 -15.405172 -0.698849
29.581091 -15.398941 -0.232825
29.593266 -15.569770 0.233453
29.596344 -15.571390 0.700524
29.598740 -15.737929 -0.702199
29.586853 -15.731608 -0.233942
29.570782 -15.888954 0.234361
29.600245 -15.904785 0.703875
29.530565 -16.033789 -0.703875
29.597839 -16.070316 -0.235129
29.527437 -16.199306 0.235129
29.565508 -16.220194 0.706388
29.529430 -16.368431 -0.707226
29.552679 -16.381317 -0.235897
29.524546 -16.534540 0.236246
29.562405 -16.555742 0.709739
29.498587 -16.689497 -0.709948
29.547855 -16.717373 -0.237014
29.518040 -16.870951 0.237363
29.555687 -16.892466 0.713089
29.516331 -17.041262 -0.713927
29.504766 -17.034584 -0.237852
29.507902 -17.208500 0.238480
29.476240 -17.190035 0.714765
29.504326 -17.379377 -0.717278
29.492847 -17.372614 -0.238969
29.494110 -17.547152 0.239597
29.531321 -17.569290 0.719791
29.445808 -17.692827 -0.719582
29.502979 -17.727179 -0.240295
29.510839 -17.907616 0.240993
29.547821 -17.930058 0.723979
29.494879 -18.074486 -0.724608
29.526209 -18.093685 -0.241761
29.489496 -18.248653 0.242110
29.492249 -18.250357 0.726493
29.412336 -18.378868 -0.726493
29.435032 -18.393049 -0.242320
29.464439 -18.590677 0.243227
29.467150 -18.592388 0.729843
29.453201 -18.763760 -0.731519
29.475813 -18.778164 -0.243995
29.502930 -18.976921 0.244903
29.505587 -18.978630 0.734870
29.456036 -19.128973 -0.735707
29.436619 -19.116364 -0.245042
29.470005 -19.321383 0.246020
29.506065 -19.345024 0.739058
29.421377 -19.473585 -0.739058
29.435452 -19.482901 -0.246438
29.433308 -19.666706 0.247137
29.469133 -19.690645 0.742409
29.449245 -19.863766 -0.744084
29.438406 -19.856457 -0.247905
29.425879 -20.035368 0.248533
29.428406 -20.037088 0.745760
29.406612 -20.210606 -0.747435
29.395864 -20.203218 -0.249022
29.414244 -20.405386 0.249929
29.449583 -20.429903 0.750786
29.384729 -20.575409 -0.751414
29.415033 -20.596628 -0.250697
29.390213 -20.770948 0.251256
29.433472 -20.801521 0.754974
29.399403 -20.970390 -0.756440
29.388853 -20.962866 -0.252023
29.378262 -21.149323 0.252722
29.404991 -21.168564 0.758953
29.344700 -21.320171 -0.759791
29.366602 -21.336084 -0.253420
29.345804 -21.517233 0.254048
29.388458 -21.548510 0.763351
29.286119 -21.670589 -0.763142
29.307907 -21.686710 -0.254537
29.325174 -21.898148 0.255514
29.383545 -21.941732 0.768168
29.327450 -22.099817 -0.769215
29.341154 -22.110146 -0.256492
29.355839 -22.322699 0.257469
29.381948 -22.342552 0.773194
29.347635 -22.519234 -0.774870
29.305758 -22.487099 -0.257888
29.318054 -22.700464 0.258865
29.343960 -22.720522 0.777383
29.276058 -22.872963 -0.778220
29.266006 -22.865110 -0.259284
29.307314 -23.104023 0.260541
29.333006 -23.124277 0.782409
29.325720 -23.326731 -0.784922
29.315786 -23.318830 -0.261518
29.315144 -23.527889 0.262426
29.348413 -23.554592 0.788273
29.245359 -23.682425 -0.788273
29.274374 -23.705921 -0.262984
29.294559 -23.934660 0.264101
29.327560 -23.961622 0.793299
29.284445 -24.140234 -0.794974
29.274723 -24.132219 -0.264869
29.269094 -24.342850 0.265777
29.240330 -24.318926 0.796650
29.256479 -24.549101 -0.800000
29.277506 -24.566744 -0.266824
29.238724 -24.752407 0.267452
29.271177 -24.779881 0.803351
29.223595 -24.959309 -0.805027
29.214085 -24.951185 -0.268220
29.233721 -25.189384 0.269407
29.265892 -25.217106 0.809215
29.185764 -25.370798 -0.810053
29.244284 -25.421667 -0.270524
29.223301 -25.628147 0.271362
29.225121 -25.629744 0.814241
29.202868 -25.836514 -0.816754
29.223539 -25.854805 -0.272409
29.207434 -26.068632 0.273316
29.239035 -26.096836 0.820943
29.184326 -26.277685 -0.822618
29.175156 -26.269428 -0.274084
29.156481 -26.483883 0.274992
29.210001 -26.532497 0.826597
29.189779 -26.747505 -0.829320
29.180725 -26.739208 -0.276318
29.159237 -26.954521 0.277226
29.190260 -26.983198 0.832671
29.189238 -27.219404 -0.836021
29.180302 -27.211071 -0.278552
29.126844 -27.399799 0.279181
29.150295 -27.421860 0.838325
29.146402 -27.658903 -0.841676
29.108564 -27.622995 -0.280158
29.117783 -27.874212 0.281415
29.119328 -27.875692 0.844398
29.112490 -28.113604 -0.847749
29.103779 -28.105192 -0.282462
29.131290 -28.378447 0.283928
29.161419 -28.407795 0.852775
29.087105 -28.583818 -0.854241
29.114174 -28.610418 -0.284975
29.081383 -28.828701 0.285883
29.082813 -28.830118 0.857801
29.034506 -29.034506 -0.860105
29.026026 -29.026026 -0.286581
29.082140 -29.337044 0.288396
29.083509 -29.338425 0.865341
29.004272 -29.514961 -0.866807
29.030954 -29.542114 -0.289164
29.048309 -29.818924 0.290630
29.077528 -29.848917 0.872880
28.995626 -30.025850 -0.874346
29.015173 -30.046091 -0.291607
29.035925 -30.331324 0.293143
29.037178 -30.332632 0.879582
29.007782 -30.567823 -0.882723
28.972137 -30.530264 -0.293841
28.989386 -30.816626 0.295377
29.011135 -30.839745 0.886912
28.985392 -31.083027 -0.890262
28.977404 -31.074461 -0.296634
28.990873 -31.362150 0.298170
29.019154 -31.392744 0.895498
28.929182 -31.570663 -0.896964
28.975357 -31.621054 -0.299426
28.958132 -31.880419 0.300683
28.979376 -31.903805 0.902828
28.920172 -32.119106 -0.905341
28.912430 -32.110504 -0.301660
28.938513 -32.422863 0.303406
28.966158 -32.453838 0.911205
28.903772 -32.669773 -0.913718
28.922661 -32.691120 -0.304732
28.911610 -32.967373 0.306128
28.945524 -33.006046 0.919582
28.899622 -33.245213 -0.922723
28.872454 -33.213959 -0.307245
28.916552 -33.559311 0.309270
28.943546 -33.590637 0.928796
28.816183 -33.739414 -0.929425
28.828297 -33.753597 -0.309898
28.887499 -34.123291 0.312132
28.907707 -34.147163 0.937173
28.854033 -34.386898 -0.313389
28.863573 -34.704674 0.315134
28.889912 -34.736343 0.946388
28.844334 -35.303699 0.318276
28.882990 -35.351013 0.956231
28.816814 -35.905006 0.321417
24.224184 -30.182707 0.810681
23.549761 -29.872728 0.265567
23.458515 -29.756985 0.793718
23.502449 -30.353832 0.268011
23.173462 -29.928942 0.792880
23.902485 -32.009308 0.278901
22.486090 -30.112526 0.787226
22.246101 -30.339855 0.788063
22.411270 -31.131220 0.267801
0.151872 -0.210963 0.005445
22.401060 -31.117037 0.803142
0.153865 -0.221796 0.005654
0.135044 -0.198338 0.005026
0.155556 -0.232806 0.001955
0.166635 -0.249386 0.006283
0.148007 -0.225748 0.005654
0.151469 -0.235485 0.001955
0.162257 -0.252256 0.006283
0.149408 -0.236798 0.001955
0.117369 -0.186019 0.004607
0.147336 -0.238093 0.001955
0.157830 -0.255050 0.006283
0.129690 -0.213723 0.001745
0.119292 -0.196587 0.004817
0.117595 -0.197659 0.001606
0.102236 -0.171844 0.004188
0.110806 -0.190002 0.004607