# This PCD file was generated using the MATLAB® pcwrite function
# from Computer Vision System Toolbox®.
# .PCD v.7 - Point Cloud Data file format
VERSION .7
FIELDS x y z
SIZE 4 4 4
TYPE F F F
COUNT 1 1 1
WIDTH 757
HEIGHT 1
VIEWPOINT 0 0 0 1 0 0 0
POINTS 757
DATA ascii
21.922367 23.924067 -0.226542
21.880527 23.463993 -0.672042
21.898434 23.483194 -0.224168
21.864229 23.040089 -0.665341
21.916676 23.095358 -0.222283
21.856104 22.632658 -0.659058
21.902044 22.680231 -0.220119
21.800505 22.184355 -0.651519
21.846809 22.231474 -0.217606
21.795321 21.795321 -0.645655
21.870279 21.870279 -0.215930
21.756498 21.380053 -0.638953
21.775005 21.398239 -0.213138
21.769640 21.022697 -0.633927
21.824238 21.075422 -0.211811
21.727449 20.618580 -0.627435
21.796968 20.684551 -0.209787
21.665258 20.203180 -0.620524
21.749929 20.282137 -0.207623
21.722797 19.905277 -0.617173
21.771269 19.949692 -0.206157
21.687639 19.527639 -0.611309
21.736456 19.571592 -0.204202
21.685001 19.185268 -0.606492
21.756634 19.248644 -0.202806
21.670506 18.837883 -0.601466
21.750200 18.907160 -0.201200
21.651613 18.492224 -0.596440
21.731873 18.560774 -0.199524
21.658985 18.174047 -0.592252
21.709171 18.216156 -0.197849
21.631609 17.831722 -0.587225
21.651258 17.847919 -0.195894
21.630999 17.516438 -0.583037
21.681845 17.557611 -0.194777
21.587423 17.171412 -0.577801
21.646414 17.218336 -0.193102
21.618273 16.890045 -0.574660
21.677647 16.936434 -0.192054
21.598274 16.572939 -0.570262
21.626286 16.594433 -0.190309
21.558430 16.245441 -0.565445
21.610550 16.284718 -0.188913
21.602934 15.985330 -0.562932
21.655376 16.024136 -0.188075
21.515133 15.631659 -0.557068
21.600227 15.693483 -0.186400
21.520493 15.350419 -0.553718
21.540972 15.365026 -0.184724
21.489836 15.047345 -0.549529
21.575939 15.107635 -0.183886
21.521456 14.791286 -0.547016
21.542133 14.805498 -0.182490
21.614796 14.716990 0.182560
21.483940 14.491101 -0.542828
21.537870 14.527477 -0.181373
21.609369 14.438918 0.181443
21.630095 14.452767 0.544922
21.509535 14.236851 -0.540314
21.538746 14.256185 -0.180326
21.600744 14.162069 0.180326
21.638338 14.186717 0.541990
21.465258 13.939701 -0.536126
21.528149 13.980543 -0.179209
21.555305 13.864838 0.178930
21.593145 13.889177 0.537801
21.484901 13.687391 -0.533613
21.539692 13.722298 -0.178301
21.573992 13.612175 0.178092
21.620518 13.641531 0.535498
21.467869 13.414613 -0.530262
21.531416 13.454322 -0.177254
21.564407 13.344460 0.177045
21.602711 13.368163 0.532147
21.490345 13.169300 -0.527958
21.537167 13.197992 -0.176347
21.500509 13.046829 0.175579
21.581791 13.096152 0.528796
21.424482 12.873128 -0.523561
21.522947 12.932291 -0.175299
21.553387 12.822918 0.175090
21.557777 12.825530 0.525445
21.441246 12.629859 -0.521257
21.497124 12.662773 -0.174182
21.526257 12.553741 0.173973
21.565243 12.576477 0.522932
21.412111 12.362288 -0.517906
21.494226 12.409698 -0.173275
21.496078 12.286021 0.172856
21.500568 12.288588 0.518744
21.449562 12.135579 -0.516231
21.471151 12.147793 -0.172228
21.497778 12.039334 0.172018
21.502310 12.041872 0.516231
21.414740 11.870383 -0.512880
21.462645 11.896938 -0.171320
21.531885 11.812797 0.171460
21.536451 11.815302 0.514555
21.447222 11.644891 -0.511204
21.468979 11.656705 -0.170552
21.493210 11.548718 0.170343
21.568283 11.589056 0.512880
21.406784 11.382189 -0.507854
21.428616 11.393797 -0.169435
21.486977 11.304845 0.169505
21.527027 11.325917 0.509529
21.398878 11.139550 -0.505341
21.420790 11.150957 -0.168597
21.451462 11.048228 0.168458
21.527273 11.087274 0.507225
21.388374 10.897922 -0.502828
21.419275 10.913666 -0.167829
21.430973 10.802099 0.167550
21.471434 10.822494 0.503665
21.330557 10.635023 -0.499267
21.397360 10.668330 -0.166922
21.425768 10.566019 0.166782
21.466425 10.586069 0.501362
21.359650 10.417797 -0.497801
21.381790 10.428596 -0.166084
21.445103 10.343889 0.166224
21.521967 10.380964 0.500524
21.377556 10.196571 -0.496126
21.408802 10.211474 -0.165596
21.426020 10.105167 0.165386
21.467056 10.124521 0.497173
21.366051 9.963153 -0.493822
21.415531 9.986226 -0.164967
21.440739 9.884315 0.164828
21.436558 9.882388 0.494451
21.379400 9.743154 -0.492147
21.401768 9.753347 -0.164199
21.416769 9.647551 0.163990
21.485518 9.678520 0.493613
21.299208 9.483018 -0.488377
21.412983 9.533674 -0.163641
21.390308 9.411961 0.163152
21.431894 9.430259 0.490471
21.326139 9.272869 -0.487121
21.385321 9.298602 -0.162803
21.398127 9.193360 0.162594
21.430698 9.207355 0.488587
21.323420 9.051254 -0.485236
21.345987 9.060834 -0.161895
21.366877 8.959875 0.161756
21.408810 8.977459 0.486283
21.290752 8.818918 -0.482723
21.359573 8.847425 -0.161407
21.360954 8.738997 0.161127
21.449324 8.775150 0.485445
21.339090 8.621552 -0.482094
21.352524 8.626980 -0.160778
21.371387 8.526319 0.160639
21.413651 8.543180 0.482932
21.264681 8.376381 -0.478744
21.352562 8.410998 -0.160220
21.333139 8.296004 0.159801
21.422161 8.330623 0.481466
21.262299 8.161832 -0.477068
21.285114 8.170590 -0.159173
21.292509 8.067010 0.158963
21.325756 8.079606 0.477697
21.248430 7.944463 -0.475184
21.318140 7.970526 -0.158893
21.324570 7.867049 0.158684
21.414211 7.900119 0.478115
21.251184 7.734799 -0.473718
21.274122 7.743147 -0.158056
21.354763 7.667143 0.158405
21.360010 7.669027 0.475393
21.317875 7.549055 -0.473718
21.331457 7.553865 -0.157986
21.307570 7.440937 0.157567
21.388365 7.469151 0.474555
21.212784 7.304147 -0.469948
21.292559 7.331616 -0.157218
21.333817 7.241855 0.157288
21.339125 7.243657 0.472042
21.247272 7.109238 -0.469320
21.289347 7.123316 -0.156729
21.358213 7.042882 0.157009
21.401524 7.057164 0.472042
21.232435 6.898836 -0.467644
21.293636 6.918722 -0.156310
21.266479 6.807454 0.155892
21.348030 6.833559 0.469529
21.263224 6.704268 -0.467016
21.315054 6.720611 -0.156031
21.286877 6.609751 0.155612
21.340015 6.626251 0.468063
21.273115 6.503844 -0.465969
21.305950 6.513883 -0.155542
21.305443 6.412210 0.155333
21.349157 6.425367 0.467016
21.175682 6.272523 -0.462618
21.237339 6.290787 -0.154635
21.283787 6.203658 0.154775
21.327629 6.216437 0.465341
21.229614 6.087494 -0.462618
21.291428 6.105218 -0.154635
21.308239 6.009545 0.154565
21.390688 6.032798 0.465550
21.243391 5.891314 -0.461780
21.295713 5.905824 -0.154286
21.311632 5.810218 0.154216
21.317123 5.811715 0.462827
21.207079 5.682420 -0.459896
21.240191 5.691292 -0.153518
21.284163 5.603652 0.153658
21.328354 5.615287 0.461990
21.188105 5.479616 -0.458430
21.240643 5.493204 -0.153169
21.254715 5.398010 0.153099
21.299023 5.409263 0.460314
21.196312 5.284834 -0.457592
21.219851 5.290703 -0.152680
21.223307 5.193310 0.152541
21.267725 5.204179 0.458639
21.202736 5.090327 -0.456754
21.226318 5.095988 -0.152401
21.228884 4.998739 0.152261
21.234478 5.000056 0.456964
21.129452 4.878119 -0.454241
21.231007 4.901564 -0.152122
21.193672 4.795639 0.151703
21.238297 4.805736 0.456126
21.171217 4.693546 -0.454241
21.155819 4.690132 -0.151284
21.195625 4.602022 0.151424
21.240345 4.611731 0.455288
21.162472 4.498222 -0.453194
21.195942 4.505337 -0.151284
21.234980 4.416882 0.151424
21.240627 4.418057 0.454451
21.171528 4.307396 -0.452566
21.195255 4.312223 -0.151005
21.155024 4.207996 0.150586
21.199926 4.216928 0.452775
21.178869 4.116755 -0.451937
21.192814 4.119466 -0.150725
21.190939 4.023225 0.150586
21.245741 4.033630 0.452985
21.086193 3.908095 -0.449215
21.149298 3.919791 -0.150167
21.185881 3.831031 0.150307
21.191587 3.832063 0.451100
21.119493 3.723937 -0.449215
21.143307 3.728136 -0.149888
21.179083 3.639232 0.150027
21.224222 3.646988 0.451100
21.072300 3.526294 -0.447540
21.125723 3.535233 -0.149539
21.140947 3.443022 0.149539
21.265106 3.463243 0.451309
21.052896 3.334451 -0.446492
21.076756 3.338230 -0.148980
21.170187 3.258404 0.149539
21.205585 3.263852 0.449424
21.100969 3.153561 -0.446911
21.144644 3.160088 -0.149259
21.158232 3.067797 0.149259
21.154106 3.067199 0.447749
21.078184 2.962346 -0.445864
21.141708 2.971273 -0.149050
21.144564 2.877649 0.148980
21.189974 2.883829 0.447958
21.053671 2.771768 -0.444817
21.127174 2.781445 -0.148771
21.129190 2.687973 0.148701
21.164743 2.692495 0.446911
21.047287 2.584282 -0.444189
21.110943 2.592098 -0.148491
21.141912 2.502310 0.148631
21.197361 2.508873 0.447121
21.069036 2.400514 -0.444189
21.122824 2.406642 -0.148422
21.162943 2.317719 0.148631
21.178694 2.319444 0.446283
21.059355 2.213427 -0.443560
21.073406 2.214904 -0.147933
21.102768 2.124937 0.148073
21.198130 2.134539 0.446283
21.067917 2.028610 -0.443351
21.091932 2.030922 -0.147933
21.090635 1.937957 0.147863
21.166170 1.944898 0.445236
21.044977 1.841197 -0.442513
21.108850 1.846785 -0.147933
21.106743 1.753835 0.147863
21.142483 1.756805 0.444398
21.020376 1.654339 -0.441676
21.084288 1.659369 -0.147654
21.071383 1.565874 0.147514
21.117126 1.569274 0.443560
20.994118 1.468052 -0.440838
21.048088 1.471826 -0.147305
21.084246 1.381934 0.147514
21.130016 1.384934 0.443560
21.006130 1.284790 -0.440838
21.040169 1.286872 -0.147165
21.065552 1.196189 0.147305
21.061443 1.195956 0.441885
20.936668 1.097244 -0.439163
21.000668 1.100598 -0.146816
21.065199 1.011834 0.147235
21.121010 1.014515 0.442932
20.975410 0.915806 -0.439791
21.049433 0.919038 -0.147095
21.083220 0.828362 0.147305
21.079109 0.828200 0.441885
20.902670 0.729937 -0.438115
20.956715 0.731825 -0.146397
21.049664 0.643125 0.147025
21.045561 0.643000 0.441047
20.988199 0.549595 -0.439791
21.002289 0.549964 -0.146676
21.054476 0.459410 0.147025
21.090353 0.460193 0.441885
20.992197 0.366420 -0.439791
20.976294 0.366143 -0.146467
21.057682 0.275660 0.147025
21.063574 0.275737 0.441257
20.954605 0.182868 -0.438953
20.978689 0.183078 -0.146467
21.049286 0.091845 0.146956
21.055182 0.091871 0.441047
20.925409 0.000000 -0.438325
20.979488 0.000000 -0.146467
21.009289 -0.091671 0.146676
21.055182 -0.091871 0.441047
20.964603 -0.182955 -0.439163
20.978689 -0.183078 -0.146467
21.017687 -0.275137 0.146746
21.063574 -0.275737 0.441257
20.912226 -0.365024 -0.438115
20.936300 -0.365444 -0.146188
21.014486 -0.458538 0.146746
21.060366 -0.459539 0.441257
20.908245 -0.547502 -0.438115
20.972300 -0.549179 -0.146467
21.049664 -0.643125 0.147025
21.055553 -0.643305 0.441257
20.902670 -0.729937 -0.438115
20.966709 -0.732174 -0.146467
20.953321 -0.823258 0.146397
21.049139 -0.827023 0.441257
20.905493 -0.912754 -0.438325
20.959520 -0.915112 -0.146467
20.995281 -1.008476 0.146746
21.041121 -1.010677 0.441257
20.906715 -1.095675 -0.438534
20.950737 -1.097982 -0.146467
20.975698 -1.191086 0.146676
21.031500 -1.194255 0.441257
20.856441 -1.275635 -0.437697
20.940357 -1.280767 -0.146467
20.924591 -1.371470 0.146397
21.020277 -1.377742 0.441257
20.874437 -1.459683 -0.438325
20.928383 -1.463455 -0.146467
20.911827 -1.554017 0.146397
21.007454 -1.561123 0.441257
20.900772 -1.644926 -0.439163
20.914816 -1.646032 -0.146467
20.987158 -1.743898 0.147025
20.993031 -1.744386 0.441257
20.835823 -1.822898 -0.438115
20.899656 -1.828483 -0.146467
20.961184 -1.926062 0.146956
20.967052 -1.926601 0.441047
20.829073 -2.005612 -0.438325
20.882904 -2.010795 -0.146467
20.943577 -2.108907 0.146956
20.999180 -2.114506 0.442094
20.850550 -2.191481 -0.439163
20.954065 -2.202361 -0.147095
20.934317 -2.292681 0.147025
20.979927 -2.297676 0.442094
20.860434 -2.376746 -0.439791
20.934050 -2.385134 -0.147095
20.913511 -2.475277 0.147025
20.909435 -2.474795 0.441047
20.838898 -2.558695 -0.439791
20.912437 -2.567724 -0.147095
20.930794 -2.662733 0.147305
20.926714 -2.662214 0.441885
20.865337 -2.746974 -0.440838
20.958633 -2.759256 -0.147584
20.896852 -2.843937 0.147235
20.902685 -2.844731 0.441885
20.791069 -2.921994 -0.439791
20.904049 -2.937873 -0.147374
20.910824 -3.031925 0.147514
20.966114 -3.039942 0.443770
20.853769 -3.116617 -0.441676
20.907286 -3.124615 -0.147584
20.883570 -3.214289 0.147514
20.928905 -3.221267 0.443560
20.835653 -3.300043 -0.441885
20.879223 -3.306944 -0.147584
20.854725 -3.396408 0.147514
20.939470 -3.410209 0.444398
20.796202 -3.480091 -0.441676
20.859432 -3.490672 -0.147654
20.863714 -3.585042 0.147793
20.948326 -3.599581 0.445236
20.804424 -3.668381 -0.442513
20.857719 -3.677779 -0.147863
20.870995 -3.774091 0.148073
20.925955 -3.784029 0.445445
20.850264 -3.864368 -0.444189
20.834663 -3.861477 -0.147933
20.837265 -3.956078 0.148073
20.931427 -3.973955 0.446283
20.776489 -4.038540 -0.443351
20.800173 -4.043144 -0.147933
20.801949 -4.137765 0.148073
20.895950 -4.156463 0.446283
20.779644 -4.227666 -0.444189
20.813093 -4.234472 -0.148282
20.765049 -4.319136 0.148073
20.858883 -4.338654 0.446283
20.771299 -4.415076 -0.444817
20.804693 -4.422174 -0.148491
20.804743 -4.517153 0.148631
20.859308 -4.529000 0.447121
20.731979 -4.596169 -0.444817
20.804361 -4.612216 -0.148771
20.813297 -4.709569 0.148980
20.857996 -4.719683 0.447958
20.739790 -4.788157 -0.445864
20.802294 -4.802588 -0.149050
20.810341 -4.900185 0.149259
20.845211 -4.908396 0.448587
20.726379 -4.975964 -0.446492
20.788763 -4.990940 -0.149259
20.805639 -5.091108 0.149539
20.811295 -5.092492 0.448796
20.682167 -5.156643 -0.446492
20.705606 -5.162488 -0.148980
20.760420 -5.272475 0.149539
20.833895 -5.291135 0.450262
20.636381 -5.336931 -0.446492
20.698492 -5.352994 -0.149259
20.829662 -5.483992 0.150376
20.825602 -5.482923 0.451100
20.714565 -5.550451 -0.449215
20.728264 -5.554121 -0.149818
20.781012 -5.665555 0.150376
20.776960 -5.664450 0.451100
20.694242 -5.739021 -0.449843
20.727186 -5.748158 -0.150167
20.759653 -5.854828 0.150586
20.765228 -5.856400 0.451937
20.643373 -5.919392 -0.449843
20.714685 -5.939840 -0.150446
20.746172 -6.046957 0.150865
20.799717 -6.062565 0.453822
20.715549 -6.136226 -0.452566
20.729177 -6.140262 -0.150935
20.692614 -6.227769 0.150865
20.774742 -6.252488 0.454451
20.613409 -6.302152 -0.451519
20.646116 -6.312151 -0.150725
20.713879 -6.431830 0.151424
20.805321 -6.460224 0.456335
20.681583 -6.520878 -0.454241
20.704691 -6.528164 -0.151563
20.733150 -6.636734 0.151982
20.786240 -6.653728 0.457173
20.576349 -6.685661 -0.453194
20.646935 -6.708595 -0.151563
20.721930 -6.833068 0.152331
20.727385 -6.834867 0.457173
20.678402 -6.918897 -0.456754
20.729851 -6.936111 -0.152610
20.737265 -7.039353 0.152890
20.742689 -7.041194 0.458848
20.626690 -7.102339 -0.456964
20.640167 -7.106980 -0.152401
20.675045 -7.220049 0.152890
20.755964 -7.248307 0.460524
20.620472 -7.302092 -0.458220
20.652771 -7.313530 -0.152959
20.677134 -7.423850 0.153378
20.720150 -7.439294 0.461152
20.631124 -7.509115 -0.459896
20.653940 -7.517419 -0.153448
20.695997 -7.635156 0.154007
20.691961 -7.633668 0.461990
20.574175 -7.692369 -0.460105
20.671852 -7.728889 -0.154076
20.656633 -7.826098 0.154216
20.708702 -7.845825 0.463875
20.618269 -7.914612 -0.462618
20.640961 -7.923322 -0.154356
20.634151 -8.024182 0.154565
20.667400 -8.037112 0.464503
20.622833 -8.123550 -0.464293
20.608248 -8.117805 -0.154635
20.628357 -8.229880 0.155054
20.680052 -8.250504 0.466388
20.551157 -8.303206 -0.464293
20.620066 -8.331048 -0.155263
20.639050 -8.443659 0.155682
20.681293 -8.460940 0.468063
20.561049 -8.516665 -0.466178
20.611250 -8.537459 -0.155752
20.638355 -8.654381 0.156241
20.671211 -8.668159 0.469529
20.550365 -8.723112 -0.467644
20.572783 -8.732628 -0.156031
20.626360 -8.861784 0.156729
20.677454 -8.883736 0.471414
20.546808 -8.934007 -0.469320
20.569157 -8.943724 -0.156590
20.658077 -9.089771 0.157567
20.663200 -9.092026 0.472880
20.495464 -9.125169 -0.469948
20.599949 -9.171688 -0.157427
20.614437 -9.286127 0.157846
20.655996 -9.304848 0.474555
20.533321 -9.357574 -0.472670
20.591921 -9.384279 -0.157986
20.568941 -9.482412 0.158126
20.610329 -9.501492 0.475393
20.523369 -9.570205 -0.474346
20.590811 -9.601653 -0.158614
20.593943 -9.712733 0.158963
20.598970 -9.715105 0.477068
20.484192 -9.770458 -0.475393
20.470135 -9.763754 -0.158335
20.544426 -9.909455 0.159243
20.621466 -9.946614 0.479581
20.541925 -10.018967 -0.478744
20.554918 -10.025304 -0.159661
20.528917 -10.123741 0.159801
20.605616 -10.161565 0.481257
20.480555 -10.211228 -0.479372
20.502447 -10.222143 -0.159941
20.582663 -10.374516 0.160918
20.623289 -10.394994 0.483770
20.506472 -10.448569 -0.482094
20.519381 -10.455147 -0.160778
20.562466 -10.590365 0.161477
20.567345 -10.592878 0.484608
20.512060 -10.677903 -0.484398
20.507191 -10.675367 -0.161407
20.584311 -10.829929 0.162384
20.624538 -10.851094 0.488168
20.497547 -10.898739 -0.486283
20.519201 -10.910254 -0.162244
20.515446 -11.023346 0.162594
20.590708 -11.063787 0.489634
20.392872 -11.072426 -0.486074
20.449575 -11.103213 -0.162454
20.523674 -11.259673 0.163431
20.598560 -11.300757 0.492147
20.435379 -11.327516 -0.489424
20.526825 -11.378204 -0.163850
20.529331 -11.496978 0.164269
20.568943 -11.519162 0.493822
20.448874 -11.569416 -0.492147
20.505081 -11.601216 -0.164478
20.497675 -11.715386 0.164828
20.537079 -11.737907 0.495498
20.442375 -11.802411 -0.494451
20.506981 -11.839711 -0.165316
20.463764 -11.934114 0.165386
20.502956 -11.956971 0.497173
20.450590 -12.046318 -0.497173
20.471809 -12.058818 -0.165875
20.496344 -12.194043 0.166503
20.569677 -12.237672 0.501362
20.438957 -12.280964 -0.499477
20.451513 -12.288509 -0.166573
20.491737 -12.434692 0.167341
20.496290 -12.437454 0.502199
20.407728 -12.505873 -0.501362
20.454340 -12.534435 -0.167480
20.484486 -12.676185 0.168179
20.523001 -12.700018 0.505550
20.424997 -12.762956 -0.504503
20.479862 -12.797238 -0.168597
20.440742 -12.897148 0.168737
20.479036 -12.921309 0.507225
20.422461 -13.010543 -0.507225
20.434877 -13.018453 -0.169156
20.461981 -13.161588 0.169854
20.533669 -13.207699 0.511414
20.400379 -13.248161 -0.509529
20.421131 -13.261638 -0.169994
20.446699 -13.405443 0.170692
20.484518 -13.430238 0.513089
20.359026 -13.475346 -0.511414
20.413027 -13.511088 -0.170901
20.461969 -13.672250 0.171809
20.466291 -13.675139 0.515602
20.340120 -13.719584 -0.513927
20.385536 -13.750218 -0.171669
20.441067 -13.917827 0.172647
20.478401 -13.943248 0.518953
20.351452 -13.987165 -0.517278
20.404867 -14.023876 -0.172856
20.417429 -14.164074 0.173484
20.487381 -14.212602 0.522304
20.318705 -14.227310 -0.519581
20.380007 -14.270234 -0.173694
20.423708 -14.434050 0.174601
20.460548 -14.460087 0.524817
20.324007 -14.496973 -0.522932
20.417521 -14.563675 -0.175090
20.361895 -14.658467 0.175160
20.430950 -14.708180 0.527330
20.334227 -14.773681 -0.526492
20.354372 -14.788317 -0.175649
20.394487 -14.953856 0.176556
20.430824 -14.980500 0.530681
20.300970 -15.021929 -0.529006
20.345121 -15.054598 -0.176696
20.359364 -15.203057 0.177394
20.387438 -15.224022 0.532985
20.320816 -15.312833 -0.532985
20.372696 -15.351927 -0.178092
20.345316 -15.470938 0.178441
20.389099 -15.504230 0.536545
20.321255 -15.593047 -0.536545
20.341084 -15.608263 -0.179000
20.343946 -15.751966 0.179628
20.379507 -15.779500 0.539896
20.278948 -15.843651 -0.539058
20.298662 -15.859053 -0.179837
20.331360 -16.027952 0.180745
20.398060 -16.080534 0.544084
20.257282 -16.113369 -0.542199
20.316013 -16.160086 -0.181234
20.315496 -16.304909 0.181862
20.319332 -16.307989 0.545759
20.240211 -16.390202 -0.545550
20.298557 -16.437449 -0.182351
20.288593 -16.576475 0.182909
20.362061 -16.636501 0.550786
20.227560 -16.674313 -0.549110
20.270084 -16.709368 -0.183398
20.296930 -16.880777 0.184305
20.331406 -16.909452 0.553927
20.226797 -16.972298 -0.553089
20.253721 -16.994890 -0.184585
20.270960 -17.160635 0.185422
20.312792 -17.196049 0.557487
20.199556 -17.252050 -0.556440
20.218702 -17.268402 -0.185632
20.302246 -17.493536 0.187098
20.336159 -17.522755 0.562304
20.168962 -17.532612 -0.559791
20.218178 -17.575394 -0.187028
20.269108 -17.775530 0.188215
20.272673 -17.778656 0.564817
20.157467 -17.833820 -0.563770
20.243780 -17.910183 -0.188703
20.232582 -18.058271 0.189332
20.295769 -18.114666 0.569843
20.157097 -18.149532 -0.568168
20.175890 -18.166452 -0.189541
20.222267 -18.368614 0.190728
20.284929 -18.425531 0.574032
20.145370 -18.459831 -0.572356
20.200907 -18.510721 -0.191287
20.208063 -18.680141 0.192124
20.270199 -18.737577 0.578220
20.129751 -18.771297 -0.576545
20.177557 -18.815876 -0.192613
20.189951 -18.992809 0.193521
20.251554 -19.050760 0.582409
20.073959 -19.049477 -0.579686
20.121395 -19.094490 -0.193660
20.167910 -19.306574 0.194917
20.200089 -19.337378 0.585759
20.079563 -19.390608 -0.584712
20.133831 -19.443014 -0.195405
20.170570 -19.649300 0.196592
20.202446 -19.680351 0.590786
20.052204 -19.705246 -0.588901
20.134569 -19.786186 -0.197081
20.168774 -19.993530 0.198268
20.200342 -20.024826 0.595812
20.077429 -20.077429 -0.594765
20.130840 -20.130840 -0.198756
20.134331 -20.310806 0.199664
20.158560 -20.335249 0.599791
19.985548 -20.337442 -0.597278
20.059534 -20.412731 -0.199804
20.095875 -20.628994 0.201060
20.126841 -20.660778 0.604189
20.029554 -20.741209 -0.603979
20.075138 -20.788414 -0.201758
20.108709 -21.005833 0.203015
20.167011 -21.066736 0.610890
19.957905 -21.031242 -0.607330
20.030630 -21.107880 -0.203155
20.089075 -21.355316 0.204691
20.119411 -21.387564 0.615079
19.991806 -21.438587 -0.614032
20.036623 -21.486649 -0.205109
20.058073 -21.698702 0.206296
20.122028 -21.767887 0.620943
19.966066 -21.789139 -0.619058
20.010494 -21.837622 -0.206785
20.036043 -22.057962 0.208042
20.092636 -22.120268 0.625969
19.935719 -22.140860 -0.624084
19.979753 -22.189764 -0.208460
20.049208 -22.463240 0.210206
20.105215 -22.525991 0.632461
19.894115 -22.486208 -0.628901
19.970882 -22.572975 -0.210415
20.017252 -22.825300 0.211951
20.066084 -22.880985 0.637487
19.913584 -22.907957 -0.635812
19.956829 -22.957706 -0.212370
19.993544 -23.203650 0.213836
20.022278 -23.236996 0.642513
19.888231 -23.286127 -0.641466
19.931074 -23.336290 -0.214255
19.945362 -23.560411 0.215512
19.999611 -23.624495 0.648377
19.925930 -23.746799 -0.216419
19.943617 -23.979593 0.217746
19.997265 -24.044098 0.655079
19.910751 -24.369543 0.219700
19.989103 -24.465441 0.661780
19.897623 -24.791924 0.221934
19.943806 -24.849468 0.667435
19.903385 -25.247324 0.224448
19.949022 -25.305214 0.674974
19.923302 -25.731300 0.681676
19.915855 -26.190681 0.689215
19.877966 -26.619825 0.695917
0.181078 -0.251533 0.006492
0.176695 -0.254704 0.002164
0.136769 -0.197152 0.005026
0.174431 -0.256187 0.006492
0.133334 -0.199548 0.001676
0.166635 -0.249386 0.006283
0.148036 -0.225792 0.001885
0.148007 -0.225748 0.005654
0.173108 -0.269126 0.002234
0.183891 -0.285891 0.007120
0.128064 -0.202970 0.001676
0.117369 -0.186019 0.004607
0.126288 -0.204080 0.001676
0.115742 -0.187036 0.004607
0.140065 -0.230821 0.001885
0.140038 -0.230776 0.005654
0.138046 -0.232034 0.001885
0.127795 -0.214804 0.005236
0.115843 -0.198639 0.004817