# This PCD file was generated using the MATLAB® pcwrite function
# from Computer Vision System Toolbox®.
# .PCD v.7 - Point Cloud Data file format
VERSION .7
FIELDS x y z
SIZE 4 4 4
TYPE F F F
COUNT 1 1 1
WIDTH 987
HEIGHT 1
VIEWPOINT 0 0 0 1 0 0 0
POINTS 987
DATA ascii
27.207573 30.217072 -0.851728
26.664896 29.099627 -0.275550
27.028486 28.984503 -0.830158
27.149693 29.114481 -0.277924
27.500616 28.979603 -0.836859
27.657413 29.144833 -0.280507
28.058043 29.054955 -0.846074
28.216335 29.218870 -0.283579
28.674917 29.179808 -0.856964
28.806669 29.313879 -0.286930
29.211245 29.211245 -0.865341
29.351288 29.351288 -0.289792
29.807329 29.291582 -0.875393
29.912994 29.395418 -0.292794
26.976519 26.050920 -0.785550
26.909845 25.986536 -0.261169
27.057783 25.676876 -0.781362
26.961508 25.585516 -0.259493
27.076088 25.248861 -0.775498
27.008234 25.185585 -0.257818
27.147968 24.876530 -0.771309
27.079536 24.813824 -0.256422
27.185705 24.478119 -0.766283
27.116693 24.415981 -0.254746
27.278473 24.133955 -0.762932
27.208899 24.072399 -0.253629
27.246586 23.685097 -0.756231
27.206617 23.650352 -0.251674
27.361010 23.368509 -0.753718
27.259890 23.282145 -0.250278
27.410717 23.000322 -0.749529
27.347120 22.946959 -0.249231
27.463810 22.639418 -0.745550
27.392006 22.580227 -0.247835
27.497164 22.266764 -0.741152
27.432585 22.214468 -0.246438
27.573063 21.932604 -0.738011
27.500181 21.874632 -0.245321
27.637354 21.592669 -0.734660
27.563944 21.535313 -0.244204
27.634369 21.204597 -0.729634
27.560423 21.147856 -0.242529
27.650682 20.836283 -0.725236
27.616142 20.810257 -0.241412
27.710905 20.504992 -0.722095
27.627888 20.443562 -0.239946
27.848347 20.233007 -0.721048
27.853777 20.236954 -0.240365
27.836645 19.855686 -0.716231
27.793226 19.824717 -0.238340
27.877821 19.520260 -0.712880
27.768578 19.443768 -0.236665
27.849356 19.140331 -0.707854
27.813581 19.115746 -0.235618
27.756207 18.898529 0.234431
27.915861 18.829487 -0.705341
27.846693 18.782831 -0.234501
27.820295 18.588926 0.233593
27.582111 18.429777 0.694870
27.954060 18.502388 -0.702199
27.742704 18.362495 -0.232267
27.722210 18.175478 0.231429
27.708445 18.166452 0.694032
27.737139 18.012709 -0.692775
27.792866 18.048899 -0.231359
27.879765 17.932867 0.231429
27.849104 17.913145 0.693613
27.926998 17.791460 -0.693613
27.983046 17.827168 -0.231638
27.933710 17.624859 0.230591
27.835255 17.562737 0.689424
28.115107 17.568270 -0.694451
28.035788 17.518703 -0.230800
27.950396 17.296230 0.229474
27.859930 17.240248 0.686283
28.130955 17.238670 -0.691100
28.025599 17.174109 -0.229474
27.972034 16.973846 0.228427
27.906752 16.934233 0.683770
28.143200 16.910141 -0.687749
28.062973 16.861937 -0.228566
28.015966 16.667747 0.227589
27.915991 16.608269 0.680419
28.151865 16.582716 -0.684398
28.071194 16.535196 -0.227449
27.978951 16.316841 0.226123
27.956223 16.303587 0.677906
28.156969 16.256433 -0.681047
28.110500 16.229605 -0.226612
28.024775 16.017479 0.225355
27.958551 15.979629 0.674555
28.228146 15.970716 -0.679372
28.120508 15.909818 -0.225565
28.128586 15.752765 0.225076
27.922472 15.637336 0.670367
28.226532 15.646222 -0.676021
28.179560 15.620185 -0.224936
28.168545 15.453793 0.224308
27.987745 15.354603 0.668691
28.291704 15.361142 -0.674346
28.253283 15.340281 -0.224448
28.187817 15.145861 0.223400
28.014988 15.052997 0.666178
28.398195 15.099587 -0.673718
28.306610 15.050892 -0.223819
28.177320 14.824805 0.222283
28.074499 14.770708 0.664503
28.342649 14.754250 -0.669320
28.303825 14.734039 -0.222772
28.198936 14.523407 0.221446
28.095669 14.470221 0.661990
28.399057 14.470043 -0.667644
28.360046 14.450166 -0.222214
28.217447 14.222764 0.220608
28.149450 14.188492 0.660315
28.425829 14.172596 -0.665341
28.341881 14.130740 -0.221097
28.582638 14.095397 0.222493
30.959293 15.267433 0.240993
28.765368 14.185510 0.671833
30.738054 15.158331 0.717906
28.395662 13.849490 -0.661780
31.133467 15.184807 -0.241831
31.856920 15.365954 0.246927
29.005127 13.990413 0.674555
31.121304 15.011135 0.723770
31.700867 15.120538 -0.735707
32.022945 15.274161 -0.247695
32.460106 15.309179 0.250557
32.281967 15.225164 0.747644
32.302788 15.063037 -0.746597
32.617222 15.209661 -0.251256
32.946632 15.188605 0.253280
32.804016 15.122859 0.756650
33.197205 15.128838 -0.764189
33.112682 15.090320 -0.254048
33.014099 14.871767 0.252791
32.898277 14.819592 0.755812
33.254894 14.806033 -0.762514
33.160892 14.764180 -0.253420
33.069397 14.550883 0.252233
32.989742 14.515834 0.754974
33.236137 14.451484 -0.759163
33.187595 14.430377 -0.252652
33.149178 14.242011 0.251884
33.041672 14.195823 0.753299
33.360981 14.160897 -0.759163
33.275440 14.124586 -0.252373
33.198425 13.921255 0.251325
33.090534 13.876013 0.751623
33.409393 13.838624 -0.757487
33.323524 13.803055 -0.251814
33.244606 13.600727 0.250767
33.136337 13.556433 0.749948
33.454727 13.516587 -0.755812
33.368534 13.481763 -0.251256
33.287724 13.280455 0.250208
33.188374 13.240818 0.748482
33.496990 13.194815 -0.754137
33.410480 13.160738 -0.250697
33.337109 12.964092 0.249720
33.228111 12.921706 0.746807
33.573524 12.887668 -0.753299
33.496048 12.857928 -0.250488
33.448971 12.672682 0.249720
33.414402 12.659585 0.748482
33.609791 12.566186 -0.751623
33.485214 12.519608 -0.249580
33.520760 12.366461 0.249440
33.373528 12.312144 0.745131
33.596039 12.227958 -0.748901
33.630779 12.240602 -0.249859
33.514462 12.032921 0.248603
33.404419 11.993413 0.743456
33.456432 11.847545 -0.743456
33.670334 11.923290 -0.249371
33.618191 11.739998 0.248603
33.507809 11.701451 0.743456
33.464016 11.522585 -0.741362
33.697460 11.602966 -0.248812
33.672016 11.430109 0.248254
33.722252 11.447163 0.745969
33.847729 11.325292 -0.747644
33.835365 11.321155 -0.249091
33.855949 11.164018 0.248882
33.735409 11.124269 0.744084
34.021339 11.054203 -0.749320
33.970909 11.037818 -0.249371
33.866371 10.840711 0.248254
33.793114 10.817261 0.743246
34.068832 10.741862 -0.748273
34.027790 10.728922 -0.249091
33.921482 10.532900 0.247974
33.857578 10.513058 0.742618
31.129887 9.369032 0.226961
30.874903 9.292292 0.675393
31.237585 9.252995 -0.227449
30.912851 9.010275 0.224797
30.609276 8.921790 0.667854
31.253374 8.961761 -0.681047
31.009546 8.891845 -0.225215
30.566833 8.620739 0.221725
30.532007 8.610916 0.664503
31.022095 8.603189 -0.674346
30.787243 8.538058 -0.223051
30.486536 8.311584 0.220608
30.605988 8.344150 0.664503
30.757990 8.241579 -0.667016
30.512854 8.175895 -0.220538
30.557907 8.045225 0.220608
30.677637 8.076748 0.664503
30.596436 7.912776 -0.661990
30.505589 7.889282 -0.219980
30.626951 7.778255 0.220608
30.746952 7.808731 0.664503
30.557611 7.618868 -0.659686
30.612083 7.632450 -0.220259
30.693661 7.510691 0.220608
30.813925 7.540119 0.664503
30.622934 7.351916 -0.659686
30.677523 7.365022 -0.220259
30.758036 7.242556 0.220608
30.761770 7.243435 0.661990
30.715151 7.091151 -0.660315
30.740627 7.097033 -0.220259
30.742041 6.956213 0.220049
30.784803 6.965890 0.661152
30.697775 6.805533 -0.658639
30.684237 6.802531 -0.219421
30.645220 6.653729 0.218932
30.766258 6.680009 0.659477
30.755995 6.537389 -0.658639
30.703304 6.526189 -0.219142
30.780439 6.402340 0.219491
30.784227 6.403129 0.658639
30.968626 6.300638 -0.661990
30.955067 6.297880 -0.220538
30.992060 6.164704 0.220608
30.995823 6.165452 0.661990
31.179457 6.060672 -0.665341
31.205168 6.065670 -0.221934
31.280458 5.938781 0.222283
31.323471 5.946947 0.667854
31.457256 5.830258 -0.670157
31.483055 5.835039 -0.223540
31.606617 5.715407 0.224238
31.610294 5.716072 0.672880
31.743238 5.597189 -0.675184
31.729733 5.594808 -0.224936
34.611885 5.947410 0.245182
34.536163 5.934398 0.734032
31.909203 5.339769 -0.677697
34.676956 5.802932 -0.245461
34.662468 5.645141 0.245182
34.596504 5.634398 0.734241
34.847878 5.519361 -0.739058
34.755905 5.504795 -0.245671
34.710411 5.342443 0.245182
34.604828 5.326192 0.733404
34.894714 5.215050 -0.739058
34.802620 5.201286 -0.245671
34.716125 5.033598 0.244903
34.600517 5.016837 0.732356
34.938896 4.910342 -0.739058
34.846684 4.897382 -0.245671
34.798363 4.735849 0.245182
34.682606 4.720096 0.733194
34.980415 4.605259 -0.739058
34.888096 4.593105 -0.245671
34.838364 4.432000 0.245182
34.732395 4.418519 0.733404
35.068890 4.305918 -0.740105
34.976475 4.294571 -0.246020
34.835991 4.123111 0.244903
34.729916 4.110557 0.732566
35.065395 3.995197 -0.739267
35.012619 3.989184 -0.246020
34.910408 3.823312 0.245182
34.834034 3.814947 0.734032
35.059151 3.684865 -0.738430
34.966537 3.675131 -0.245461
34.902645 3.514512 0.244903
34.826210 3.506815 0.733194
35.169586 3.386446 -0.740105
35.076908 3.377522 -0.246020
34.971817 3.213459 0.245182
34.895309 3.206428 0.734032
35.147999 3.075052 -0.739058
35.065197 3.067807 -0.245740
35.048355 2.912294 0.245531
34.921959 2.901791 0.734032
35.253231 2.774490 -0.740733
35.170387 2.767969 -0.246299
35.072433 2.606332 0.245531
34.945953 2.596933 0.734032
35.246181 2.464653 -0.740105
35.193203 2.460948 -0.246299
35.083866 2.299518 0.245461
35.007191 2.294492 0.734870
35.266346 2.156982 -0.740105
35.213337 2.153740 -0.246299
35.102596 1.993270 0.245461
35.075790 1.991748 0.735917
35.313782 1.850717 -0.740733
35.230793 1.846368 -0.246299
35.158607 1.688789 0.245740
35.091835 1.685582 0.735917
35.378529 1.544660 -0.741781
35.315495 1.541908 -0.246788
35.221966 1.383875 0.246089
35.105209 1.379287 0.735917
35.470592 1.238660 -0.743456
35.327606 1.233667 -0.246788
35.232700 1.076456 0.246089
35.155880 1.074109 0.736754
35.480053 0.929078 -0.743456
35.387009 0.926641 -0.247137
35.280743 0.769829 0.246369
35.203896 0.768152 0.737592
35.476810 0.619250 -0.743246
35.433739 0.618498 -0.247416
35.406105 0.463491 0.247206
35.289234 0.461961 0.739267
35.570843 0.310422 -0.745131
35.477783 0.309610 -0.247695
32.198910 0.140495 0.224797
32.002674 0.139639 0.670367
35.572197 0.000000 -0.745131
32.309212 0.000000 -0.225565
32.038914 -0.139797 0.223680
31.802721 -0.138766 0.666178
32.271690 -0.281631 -0.676021
32.107994 -0.280202 -0.224168
31.756506 -0.415715 0.221725
31.690332 -0.414849 0.663875
32.068081 -0.559750 -0.671833
31.904362 -0.556893 -0.222772
31.591711 -0.689334 0.220608
31.715492 -0.692034 0.664503
31.912058 -0.835647 -0.668691
31.738346 -0.831098 -0.221655
31.664452 -0.967436 0.221166
31.788191 -0.971217 0.666178
31.783649 -1.109910 -0.666178
31.609962 -1.103844 -0.220817
31.734741 -1.246861 0.221725
31.858425 -1.251721 0.667854
31.612942 -1.380251 -0.662828
31.679047 -1.383137 -0.221376
31.802557 -1.527586 0.222283
31.886234 -1.531606 0.668691
31.639629 -1.658163 -0.663665
31.745659 -1.663720 -0.221934
31.758064 -1.803354 0.222074
31.811764 -1.806403 0.667435
31.743704 -1.941528 -0.666178
31.729933 -1.940686 -0.221934
31.820946 -2.085655 0.222632
31.705002 -2.078056 0.665550
29.451605 -2.059457 -0.618430
31.685659 -2.215677 -0.665341
31.721764 -2.218202 -0.222004
31.801533 -2.363262 0.222632
31.875095 -2.368729 0.669529
29.641819 -2.332862 -0.622828
31.695019 -2.494452 -0.665969
31.691229 -2.494154 -0.221934
31.699976 -2.634065 0.222074
31.783468 -2.641002 0.668063
29.590454 -2.588829 -0.622199
31.980797 -2.797957 -0.672461
29.416912 -2.573646 -0.206157
31.927261 -2.793273 -0.223749
31.944643 -2.935300 0.223959
31.838858 -2.925580 0.669739
29.696108 -2.859410 -0.624922
32.273621 -3.107596 -0.679163
29.443102 -2.835048 -0.206506
32.329681 -3.112994 -0.226751
32.554577 -3.278074 0.228427
32.558178 -3.278436 0.685445
29.868885 -3.139346 -0.629110
32.225384 -3.387024 -0.678744
29.536581 -3.104420 -0.207343
32.102383 -3.374097 -0.225355
32.494911 -3.558771 0.228217
35.884560 -3.929998 0.252023
29.695889 -3.252229 0.625759
32.597897 -3.570050 0.686911
35.827873 -3.923790 0.754974
29.949621 -3.412328 -0.631414
32.323738 -3.682825 -0.681466
29.617655 -3.374506 -0.208111
32.101524 -3.657507 -0.225565
36.055843 -4.108045 -0.253350
30.178616 -3.571874 0.212160
32.244148 -3.816346 0.226682
29.308952 -3.468943 0.618220
30.166786 -3.704015 -0.636650
32.280445 -3.963540 -0.681257
30.202444 -3.708394 -0.212440
31.979057 -3.926535 -0.224936
30.076857 -3.826260 0.211672
29.009781 -3.690510 0.612566
30.480244 -4.012800 -0.643979
32.383400 -4.263355 -0.684189
36.239273 -4.770991 -0.765655
30.317644 -3.991394 -0.213487
32.072460 -4.222419 -0.225844
36.087715 -4.751038 -0.254118
29.071297 -3.956430 0.204830
36.036915 -4.904409 0.253908
28.520773 -3.881507 0.602932
29.977026 -4.079694 0.633718
30.830185 -4.332900 -0.652147
32.483570 -4.565268 -0.687121
36.265564 -5.096793 -0.767121
28.271465 -3.973295 -0.199315
28.788258 -4.174098 0.203085
28.584759 -4.144593 0.605026
28.704834 -4.289966 -0.607958
32.660030 -4.881074 -0.691728
36.259258 -5.418983 -0.767959
28.482964 -4.256807 -0.201060
32.092781 -4.796299 -0.226542
36.197098 -5.409693 -0.255514
29.185604 -4.492094 0.206157
32.288982 -4.969750 0.228078
27.687817 -4.261562 0.586807
28.656429 -4.538733 -0.607749
36.329086 -5.753962 -0.770472
28.583004 -4.527103 -0.202038
29.076204 -4.735361 0.205668
36.231754 -5.900716 0.256282
28.004814 -4.560874 0.594346
28.822805 -4.823284 -0.612147
30.962576 -5.181358 -0.657592
36.405678 -6.092221 -0.773194
28.680487 -4.799468 -0.203015
36.304287 -6.075254 -0.256980
27.466778 -4.719656 0.194568
36.228157 -6.225136 0.256631
27.569811 -4.737360 0.585969
28.828848 -5.083303 -0.613194
31.093409 -5.482607 -0.661362
36.469280 -6.430518 -0.775707
28.588272 -5.040884 -0.202666
27.955915 -5.055253 0.198338
28.039009 -5.070279 0.596859
30.144394 -5.450994 0.641676
36.116211 -6.530875 0.768796
31.191835 -5.781065 -0.664503
36.510078 -6.766743 -0.777801
29.221624 -5.415908 -0.207483
36.428707 -6.751662 -0.258656
28.018803 -5.319536 0.199106
30.239086 -5.741070 0.214883
27.767782 -5.271878 0.592042
30.315813 -5.892797 -0.646911
36.508522 -7.096538 -0.779058
29.212513 -5.678337 -0.207762
36.427296 -7.080749 -0.259075
28.608809 -5.690646 0.203643
36.386246 -7.237675 0.259005
28.593426 -5.687586 0.610681
26.912628 -5.475436 -0.575288
29.988916 -6.101314 -0.641047
36.611755 -7.448746 -0.782618
26.859081 -5.464542 -0.191356
29.083456 -5.917096 -0.207204
36.569901 -7.440230 -0.260541
28.636383 -5.956376 0.204202
26.800386 -5.574488 0.573403
28.170750 -5.859524 0.602723
30.687540 -6.522838 -0.657173
36.623592 -7.784585 -0.784294
28.952463 -6.154036 -0.206645
36.552486 -7.769471 -0.260890
27.088186 -5.881422 0.193521
28.817842 -6.256967 0.205877
27.034054 -5.869668 0.579477
36.681156 -8.132017 -0.787016
29.024572 -6.434593 -0.207553
31.152847 -6.906420 -0.222772
36.580921 -8.109795 -0.261588
26.811506 -6.066824 0.191915
28.840170 -6.525864 0.206436
26.767275 -6.056816 0.574869
31.328869 -7.232839 -0.673508
36.715954 -8.476545 -0.789320
27.018623 -6.237741 -0.193590
28.928343 -6.678634 -0.207274
36.615936 -8.453455 -0.262356
26.835413 -6.318901 0.192473
36.559235 -8.608557 0.262216
26.372793 -6.209969 0.567540
28.319124 -6.668269 0.609424
29.038319 -6.971484 -0.625550
31.478434 -7.557303 -0.678116
36.796131 -8.833969 -0.792671
26.729797 -6.417257 -0.191915
36.667175 -8.803010 -0.263263
26.798676 -6.557594 0.192613
36.521572 -8.936771 0.262495
29.493189 -7.216938 0.636021
36.446472 -8.918395 0.785969
36.795246 -9.174085 -0.794346
26.828024 -6.688977 -0.193032
36.705391 -9.151682 -0.264101
36.636036 -9.304368 0.263892
25.901861 -6.578235 0.559791
29.341875 -7.451887 0.634136
29.018700 -7.504746 -0.627854
30.538359 -7.897757 -0.660733
36.858978 -9.532379 -0.797487
30.583038 -7.909312 -0.220538
36.769352 -9.509201 -0.265148
26.128944 -6.879177 0.188634
32.279205 -8.498405 0.233034
36.737179 -9.672092 0.265218
25.949821 -6.832017 0.562095
29.285397 -7.710202 0.634346
36.613998 -9.639661 0.793089
30.864220 -8.270042 -0.669320
36.890274 -9.884719 -0.800000
29.102636 -7.798028 -0.210345
30.580467 -8.194012 -0.221027
36.791218 -9.858177 -0.265916
26.299461 -7.170056 0.190309
26.062836 -7.105545 0.565864
29.342394 -7.999655 0.637068
36.624939 -9.985105 0.795184
29.124159 -8.076844 -0.633089
31.561609 -8.752810 -0.686074
36.918221 -10.238329 -0.802514
36.867603 -10.224291 -0.267103
26.053028 -7.347714 0.188983
31.375277 -8.848743 0.227589
26.307755 -7.419554 0.572566
37.038902 -10.620734 -0.807121
36.901936 -10.581460 -0.268011
25.882313 -7.544006 0.188215
31.556070 -9.197756 0.229474
26.011644 -7.581703 0.567540
37.021496 -10.966267 -0.808796
36.932835 -10.940004 -0.268918
26.313419 -7.919440 0.191845
31.924652 -9.608230 0.232755
36.942204 -11.118341 0.269337
27.227356 -8.194505 0.595602
26.235247 -8.020920 -0.574660
37.125168 -11.350304 -0.813194
26.536810 -8.113117 -0.193730
37.046345 -11.326203 -0.270454
25.746710 -7.994566 0.188215
36.948822 -11.472914 0.270105
26.266836 -8.156070 0.576126
27.909111 -8.666009 0.612147
31.632872 -9.822268 0.693822
26.202394 -8.261583 -0.575498
37.148663 -11.712929 -0.815917
26.064449 -8.218089 -0.190798
37.098686 -11.697170 -0.271571
26.171198 -8.377467 0.191845
36.971104 -11.834543 0.271013
27.965731 -8.951900 0.615079
36.868679 -11.801757 0.810890
37.254223 -12.104630 -0.820524
26.115376 -8.485400 -0.191705
37.261486 -12.106991 -0.273526
26.097095 -8.605532 0.191845
28.243364 -9.313265 0.207623
36.999374 -12.200564 0.271990
26.006554 -8.575675 0.573613
36.982670 -12.195055 0.815707
26.006813 -8.701757 -0.574451
37.289391 -12.476855 -0.823665
26.068783 -8.722492 -0.191915
27.984348 -9.363432 -0.206017
37.201832 -12.447558 -0.273875
28.056856 -9.524019 0.206855
37.118755 -12.600120 0.273665
26.640770 -9.043323 0.589320
37.035782 -12.571954 0.819267
27.933947 -9.618429 -0.618849
29.323553 -10.096910 -0.649634
37.235809 -12.821317 -0.824922
27.674654 -9.529148 -0.204341
37.148521 -12.791261 -0.274294
26.056223 -9.099240 0.192683
37.139557 -12.969714 0.274643
26.428696 -9.229314 0.586388
29.479359 -10.439189 -0.655079
37.329842 -13.219190 -0.829529
27.109709 -9.600051 -0.200781
37.271137 -13.198401 -0.276039
25.552305 -9.174215 0.189541
27.378143 -9.829758 0.203085
37.137901 -13.333869 0.275481
25.650831 -9.209589 0.570890
27.344576 -9.817706 0.608587
29.537457 -10.750755 -0.658430
37.363380 -13.599158 -0.832880
27.692066 -10.079088 -0.205738
37.267300 -13.564188 -0.276877
26.071701 -9.618359 0.194009
37.207760 -13.726668 0.276877
27.192202 -10.031733 0.607121
28.814917 -10.630384 0.643351
37.144230 -13.703230 0.829320
29.414421 -10.997602 -0.657801
37.383755 -13.977213 -0.836021
28.577171 -10.684566 -0.212998
37.325478 -13.955424 -0.278203
27.669977 -10.483216 0.206575
28.810814 -10.915441 0.215093
37.245529 -14.111068 0.278064
24.953285 -9.453954 0.558953
28.964134 -10.973529 0.648796
37.200871 -14.094149 0.833299
29.289330 -11.243120 -0.657173
31.790775 -12.203336 -0.713299
29.136335 -11.184391 -0.217885
37.332970 -14.330785 -0.279181
26.319262 -10.235001 0.197151
25.447552 -9.896012 0.571938
37.515511 -14.777753 -0.844608
29.549341 -11.639795 -0.221725
32.014889 -12.611000 -0.240225
26.479715 -10.564335 0.199036
37.318657 -14.888635 0.280507
26.446695 -10.551161 0.596440
37.218521 -14.848685 0.839372
37.524170 -15.160749 -0.847749
30.568506 -12.350478 -0.230172
37.475857 -15.141230 -0.282183
28.145000 -11.514424 0.212300
32.235790 -13.188010 0.243157
27.741619 -11.349396 0.627854
32.821720 -13.427721 0.742828
28.449249 -11.784064 -0.645027
30.989361 -12.836213 -0.702618
30.829109 -12.769835 -0.232965
37.480881 -15.525088 -0.283230
27.803682 -11.659051 0.210485
37.403561 -15.684614 0.283160
28.047201 -11.761168 0.637068
28.823889 -12.235015 -0.655917
31.483564 -13.363980 -0.716440
31.066282 -13.186854 -0.235618
37.528069 -15.929720 -0.284626
31.669962 -13.606489 0.240644
37.467392 -16.097261 0.284696
37.349857 -16.046764 0.851519
24.452629 -10.632305 -0.558534
37.701241 -16.392965 -0.861152
37.626057 -16.360275 -0.286441
37.490246 -16.496103 0.285952
27.718704 -12.196522 0.634346
32.394920 -14.254106 0.741362
24.358913 -10.845287 -0.558534
37.739418 -16.802671 -0.865341
30.465998 -13.564337 -0.232825
37.628021 -16.753075 -0.287558
37.563683 -16.921204 0.287628
32.451611 -14.618384 0.745550
37.492550 -16.889162 0.861362
24.135979 -10.999399 -0.555602
30.577091 -13.934783 -0.703875
37.827892 -17.239162 -0.870786
23.885900 -10.885432 -0.183258
37.698776 -17.180323 -0.289234
31.956779 -14.732277 0.245671
37.587132 -17.327904 0.288954
32.041344 -14.771262 0.739058
37.479927 -17.278484 0.864503
24.301844 -11.332136 -0.561676
23.817188 -11.106137 -0.183468
24.950045 -11.634398 -0.192194
37.746799 -17.601622 -0.290769
31.582804 -14.895417 0.243786
37.687729 -17.774687 0.290909
37.553783 -17.711515 0.869739
24.409576 -11.642771 -0.566492
37.936363 -18.094717 -0.880419
23.773518 -11.339386 -0.183886
25.524490 -12.174557 -0.197430
23.921963 -11.538585 0.185422
25.272976 -12.190237 0.195894
37.720322 -18.194124 0.292375
25.187004 -12.148768 0.585759
37.604908 -18.138454 0.874555
24.019495 -11.715091 -0.559791
24.230898 -11.818198 -0.188215
24.035604 -11.853048 0.187098
37.712582 -18.597786 0.293562
24.066786 -11.868425 0.562095
37.624527 -18.554363 0.878744
25.848984 -12.887828 -0.605026
30.644779 -15.278923 -0.717278
24.287928 -12.109513 -0.189471
25.871922 -12.899264 -0.201828
37.935345 -18.913864 -0.295936
24.618830 -12.408912 0.192473
37.852455 -19.079208 0.295936
24.015865 -12.104993 0.563351
25.676441 -12.941992 0.602304
25.940420 -13.217304 -0.609843
38.082176 -19.403837 -0.895288
23.824934 -12.139410 -0.186679
26.622625 -13.564905 -0.208600
37.938133 -19.330444 -0.297262
24.296246 -12.513390 0.190798
27.301050 -14.060966 0.214395
23.855988 -12.286640 0.562095
25.606966 -13.188455 0.603351
24.848593 -12.935359 -0.586807
38.159706 -19.864685 -0.901152
24.268024 -12.633134 -0.191007
26.875772 -13.990642 -0.211532
24.876396 -13.088105 0.196243
37.867699 -19.923161 0.298728
25.561686 -13.448653 0.605026
23.878494 -12.696421 -0.566492
26.641514 -14.165545 -0.632042
38.285038 -20.356516 -0.908273
24.333443 -12.938321 -0.192404
38.080601 -20.247814 -0.301102
24.726000 -13.285759 0.195964
37.956657 -20.394848 0.300822
25.601877 -13.756385 0.608796
27.944532 -15.015140 0.664503
30.613047 -16.448984 0.727959
24.285177 -13.185776 -0.578848
28.537720 -15.494718 -0.680210
24.606279 -13.360120 -0.195475
38.192459 -20.736814 -0.303406
23.767483 -13.039288 0.189262
38.066547 -20.884024 0.303126
25.761349 -14.133160 0.615498
28.259472 -15.503677 0.675184
37.875053 -20.778967 0.904922
24.204165 -13.416587 -0.579686
29.013517 -16.082455 -0.694870
38.352406 -21.259087 -0.918535
23.447983 -12.997429 -0.187168
38.219952 -21.185663 -0.305081
24.778282 -13.876505 0.198268
25.921225 -14.516583 0.207413
38.092247 -21.332684 0.304802
25.610865 -14.342773 0.614869
37.988869 -21.274788 0.912042
24.408123 -13.809451 -0.587435
38.426479 -21.740656 -0.924817
25.474689 -14.412887 -0.204341
38.268608 -21.651337 -0.306966
24.621519 -14.072357 0.197989
38.147728 -21.803223 0.306757
38.053490 -21.749361 0.918116
24.797527 -14.316859 -0.599791
26.373348 -15.226660 -0.637906
38.425777 -22.185133 -0.929425
26.222610 -15.139631 -0.211393
38.294708 -22.109461 -0.308711
38.215153 -22.286417 0.308851
38.078156 -22.206524 0.923351
26.239468 -15.456228 -0.637906
24.779850 -14.596448 -0.200781
29.656553 -17.469046 -0.240295
38.436340 -22.640734 -0.311434
38.259842 -22.762213 0.310806
38.123501 -22.681099 0.929215
26.240707 -15.767007 -0.641257
38.564068 -23.171631 -0.942409
24.788673 -14.894538 -0.201898
26.485825 -15.914289 -0.215721
29.477264 -17.711727 -0.240086
26.296448 -15.957076 0.214744
38.350410 -23.271601 0.313179
38.197632 -23.178892 0.935917
27.125059 -16.622257 -0.666388
38.658752 -23.690113 -0.949739
24.649227 -15.105065 -0.201828
26.448254 -16.207510 -0.216559
38.512817 -23.600685 -0.315344
26.190210 -16.206993 0.215023
38.349949 -23.731670 0.314855
38.231953 -23.658649 0.941781
26.173504 -16.355021 -0.646492
27.428339 -17.139128 -0.677487
38.704906 -24.185509 -0.956021
24.499512 -15.308994 -0.201689
26.246449 -16.400602 -0.216070
26.216923 -16.541647 0.216419
27.231771 -17.181969 0.224797
38.286156 -24.156767 0.948273
27.277729 -17.377831 -0.677487
27.460155 -17.494049 -0.227310
38.634819 -24.613094 -0.319812
38.476597 -24.748980 0.319393
27.168011 -17.475052 0.676650
38.376602 -24.684660 0.955812
27.418512 -17.805790 -0.684817
38.763237 -25.173140 -0.968168
27.390314 -17.787477 -0.228008
38.712090 -25.139925 -0.322255
26.911032 -17.643646 0.224657
38.560215 -25.281185 0.321906
38.460728 -25.215958 0.963351
28.754414 -19.032131 -0.722304
38.842220 -25.709105 -0.975707
27.584270 -18.257631 -0.230940
38.766407 -25.658926 -0.324559
27.703892 -18.511148 0.232616
38.695652 -25.855608 0.324908
26.867205 -17.952091 0.676859
38.488602 -25.717260 0.969634
28.380020 -19.142567 -0.717068
38.881622 -26.225986 -0.982409
38.748272 -26.136040 -0.326304
26.640339 -18.138762 0.225006
38.757851 -26.389280 0.327351
26.544239 -18.073330 0.672671
38.551956 -26.249092 0.976964
26.720551 -18.364525 -0.679163
28.566189 -19.632998 -0.726074
38.898464 -26.734175 -0.988692
38.815399 -26.677084 -0.328817
26.883633 -18.649839 0.228427
26.689455 -18.515133 0.680419
28.549377 -19.990490 -0.730053
38.876621 -27.221703 -0.994137
26.900297 -18.835791 -0.229265
26.483040 -18.716362 0.226402
38.830360 -27.442585 0.331959
26.649334 -18.833887 0.683561
38.724815 -27.367992 0.993299
27.722692 -19.774405 -0.713299
38.995720 -27.815376 -1.003351
26.979132 -19.244026 -0.231359
32.246330 -23.001083 -0.276528
38.978901 -27.803379 -0.334263
26.529707 -19.098656 0.228217
26.370369 -18.983950 0.680629
31.798609 -22.891724 0.820733
38.776615 -27.915169 1.000838
27.751286 -20.162489 -0.718534
39.107391 -28.413183 -1.012566
26.429941 -19.202477 -0.228078
39.001759 -28.336437 -0.336567
27.055557 -19.837955 0.234221
38.950325 -28.559561 0.337195
26.856779 -19.692205 0.697592
39.091022 -28.925835 -1.018639
31.542574 -23.340277 -0.273945
39.050415 -28.895786 -0.339150
28.598488 -21.355503 0.747644
39.156494 -29.506536 -1.027016
26.777596 -20.178366 -0.234082
31.601236 -23.813240 -0.276248
39.108227 -29.470163 -0.341872
31.544790 -23.987217 0.276667
39.019066 -29.670788 0.342221
30.153902 -22.929560 0.793508
39.183060 -30.066219 -1.034556
26.663956 -20.459972 -0.234640
39.143101 -30.035557 -0.344455
39.082832 -30.261162 0.345084
30.300484 -23.461142 0.802723
28.425192 -22.208195 -0.755603
39.265842 -30.677837 -1.043770
39.194698 -30.622255 -0.347248
39.162800 -30.873463 0.348155
31.657034 -24.956394 0.844398
39.021690 -30.762220 1.040838
26.524597 -21.098618 -0.709948
39.215717 -31.193590 -1.049634
39.239017 -31.212124 -0.350040
39.235031 -31.489443 0.351227
30.814276 -24.731070 0.827644
39.157207 -31.426983 1.051728
26.471556 -21.436243 -0.713508
27.567091 -22.323391 -0.743037
39.415970 -31.918421 -1.062409
39.338169 -31.855421 -0.353391
39.299469 -32.109013 0.354299
30.682449 -25.068613 0.829948
39.191158 -32.020519 1.060105
26.499491 -21.844496 -0.719372
39.521656 -32.579140 -1.072880
28.804043 -23.744221 -0.260610
39.429054 -32.502804 -0.356742
39.356052 -32.732086 0.357371
30.593193 -25.444090 0.833508
39.279202 -32.668167 1.070158
28.077030 -23.559425 -0.767749
39.549858 -33.186272 -1.081467
28.427216 -23.853268 -0.259075
39.503948 -33.147751 -0.360024
39.465790 -33.410255 0.361001
39.305481 -33.274548 1.078744
27.756332 -23.706148 -0.764608
39.585655 -33.809341 -1.090472
39.555355 -33.783463 -0.363165
39.506050 -34.040592 0.364073
39.407463 -33.955643 1.089634
39.651291 -34.468342 -1.100524
39.621288 -34.442261 -0.366516
39.568363 -34.700523 0.367424
39.462933 -34.608063 1.099477
39.738361 -35.157532 -1.111414
31.762438 -28.101032 -0.296075
39.611301 -35.045120 -0.369239
39.674366 -35.410725 0.371263
39.577122 -35.323933 1.111205
39.816399 -35.850845 -1.122304
39.668102 -35.717319 -0.372660
39.696930 -36.058151 0.374405
30.460695 -27.668549 0.861990
39.885326 -36.548168 -1.133194
29.519865 -27.049973 -0.279530
39.730907 -36.406670 -0.376220
40.032833 -37.331223 -1.146598
30.496706 -28.438639 -0.291119
39.850491 -37.161186 -0.380409
29.716812 -27.954784 0.284835
40.147919 -38.098953 -1.159372
39.894619 -37.858578 -0.383969
36.529156 -34.969059 1.059268
36.649517 -35.392025 -1.067226
36.663857 -35.405876 -0.355835
35.663803 -34.742142 0.347597
35.597652 -34.981716 -1.045446
36.610252 -35.976795 -0.358348
34.450253 -34.150921 0.338661
34.661842 -34.661842 -1.026807
34.739311 -34.739311 -0.342989
34.348042 -34.649101 0.340616
34.580658 -34.883755 1.028901
34.477173 -35.084225 -1.030367
34.441841 -35.048271 -0.343059
33.897835 -34.797100 0.339150
34.128422 -35.033806 1.024503
34.364159 -35.585129 -1.036231
33.961021 -35.167667 -0.341314
34.864311 -36.739315 -0.353601
35.272362 -37.495625 0.359395
35.667511 -38.248722 -1.095498
34.855568 -37.706543 0.358488
34.007244 -36.788830 1.049425
35.386410 -38.617489 -1.097173
34.873116 -38.057327 -0.360373
33.153599 -36.499268 0.344246
33.308468 -36.669765 1.037697
26.276585 -29.440426 0.826597
32.874363 -37.486027 1.044398
25.679077 -29.540400 -0.819896
25.730007 -29.598988 -0.273805
25.238510 -29.550497 -0.814032
25.399294 -29.738752 -0.273037
25.140072 -29.696651 0.271641
24.888130 -29.660519 -0.270314
24.675350 -29.668882 0.269407
23.827103 -29.162916 0.262914
24.790283 -30.341791 0.820733
23.484076 -29.260553 0.261937
23.817423 -29.675894 0.797068
23.425943 -29.715668 0.264171
23.254827 -30.581652 0.268220
0.128507 -0.178507 0.004607
0.153895 -0.221839 0.001885
0.136769 -0.197152 0.005026
0.146297 -0.214866 0.005445
0.155556 -0.232806 0.001955
0.166635 -0.249386 0.006283
0.126080 -0.192304 0.004817
0.151469 -0.235485 0.001955
0.140623 -0.218622 0.005445
0.128064 -0.202970 0.001676
0.117369 -0.186019 0.004607
0.126288 -0.204080 0.001676
0.115742 -0.187036 0.004607
0.134878 -0.222272 0.001815
0.140038 -0.230776 0.005654
0.117595 -0.197659 0.001606
0.127795 -0.214804 0.005236
0.110806 -0.190002 0.004607