# This PCD file was generated using the MATLAB® pcwrite function
# from Computer Vision System Toolbox®.
# .PCD v.7 - Point Cloud Data file format
VERSION .7
FIELDS x y z
SIZE 4 4 4
TYPE F F F
COUNT 1 1 1
WIDTH 770
HEIGHT 1
VIEWPOINT 0 0 0 1 0 0 0
POINTS 770
DATA ascii
22.965355 24.200434 -0.698849
23.045549 24.284943 -0.233733
22.967314 23.783350 -0.692566
23.013472 23.831146 -0.231289
22.942736 23.346699 -0.685655
23.017300 23.422573 -0.229265
22.926443 22.926443 -0.679163
22.994553 22.994553 -0.227031
22.954496 22.557322 -0.674137
23.001766 22.603773 -0.225146
22.949099 22.161688 -0.668273
22.996733 22.207687 -0.223191
22.909552 21.740353 -0.661571
22.986553 21.813425 -0.221236
22.930222 21.382778 -0.656754
22.971260 21.421047 -0.219281
22.902184 20.985985 -0.650681
22.980375 21.057634 -0.217606
22.876411 20.598013 -0.644817
22.962616 20.675632 -0.215721
22.905531 20.265102 -0.640629
22.924976 20.282305 -0.213696
22.900412 19.907024 -0.635602
22.919971 19.924026 -0.212021
22.860394 19.524620 -0.629739
22.971304 19.619347 -0.210904
22.815458 19.144444 -0.623875
22.873529 19.193171 -0.208460
22.858223 18.842865 -0.620524
22.947556 18.916506 -0.207623
22.874159 18.523129 -0.616545
22.917477 18.558207 -0.205877
22.909740 18.223230 -0.613194
22.929861 18.239235 -0.204551
22.878813 17.874887 -0.608168
22.962074 17.939938 -0.203434
22.867361 17.546743 -0.603770
22.895620 17.568426 -0.201479
22.859921 17.226185 -0.599581
22.920280 17.271669 -0.200362
22.816492 16.883316 -0.594555
22.941515 16.975828 -0.199245
22.906336 16.642427 -0.593089
22.959343 16.680939 -0.198128
22.822792 16.279339 -0.587225
22.908653 16.340584 -0.196453
22.832951 15.987803 -0.583875
22.886551 16.025335 -0.195056
22.806810 15.674686 -0.579686
22.860703 15.711726 -0.193660
22.978636 15.645596 0.194079
22.843264 15.407976 -0.577173
22.930620 15.466899 -0.193102
22.972946 15.350032 0.192892
23.034969 15.391475 0.580314
22.818449 15.103202 -0.573194
22.897947 15.155820 -0.191705
22.972221 15.061248 0.191775
23.009548 15.085720 0.576335
22.773296 14.789152 -0.568796
22.828056 14.824714 -0.190030
22.968216 14.773653 0.190658
23.039415 14.819449 0.573822
22.834032 14.546883 -0.567121
22.922821 14.603448 -0.189751
22.927122 14.465937 0.189262
23.007208 14.516466 0.569843
22.824448 14.262298 -0.563770
22.879780 14.296873 -0.188354
22.924938 14.186381 0.188215
22.962976 14.209921 0.565655
22.811647 13.978995 -0.560419
22.867252 14.013070 -0.187237
22.911079 13.902784 0.187098
22.983538 13.946754 0.563142
22.795650 13.697008 -0.557068
22.885809 13.751182 -0.186400
22.928404 13.640967 0.186260
22.966896 13.663867 0.559791
22.810936 13.436668 -0.554555
22.875696 13.474815 -0.185352
22.908360 13.359760 0.185143
22.981621 13.402486 0.557278
22.823423 13.177110 -0.552042
22.879833 13.209678 -0.184445
22.911209 13.094834 0.184235
22.958822 13.122048 0.553927
22.833124 12.918361 -0.549529
22.889797 12.950424 -0.183607
22.928637 12.840653 0.183468
22.967781 12.862576 0.551414
22.813824 12.645909 -0.546388
22.870749 12.677463 -0.182560
22.899546 12.563121 0.182351
22.973969 12.603951 0.548901
22.809090 12.384325 -0.543665
22.866264 12.415368 -0.181652
22.902601 12.306011 0.181513
22.906942 12.308345 0.544712
22.810362 12.128485 -0.541152
22.876616 12.163712 -0.180884
22.902922 12.049810 0.180675
22.978088 12.089357 0.543875
22.782310 11.859720 -0.538011
22.866583 11.903589 -0.179977
22.900524 11.794544 0.179837
22.940500 11.815134 0.540524
22.813673 11.624146 -0.536335
22.871580 11.653652 -0.179209
22.859703 11.522240 0.178720
22.935598 11.560493 0.538011
22.815821 11.375549 -0.534032
22.865015 11.400076 -0.178371
22.932478 11.309046 0.178511
22.963873 11.324529 0.536335
22.842335 11.140950 -0.532356
22.900715 11.169425 -0.177883
22.886185 11.038985 0.177394
22.917744 11.054207 0.532985
22.794304 10.872325 -0.529006
22.879980 10.913190 -0.176975
22.909290 10.804723 0.176835
22.950037 10.823940 0.531519
22.734276 10.601167 -0.525445
22.802149 10.632816 -0.175649
22.893732 10.554154 0.175998
22.925587 10.568840 0.528796
22.835018 10.406518 -0.525655
22.848570 10.412694 -0.175299
22.875553 10.304685 0.175160
22.916670 10.323208 0.526492
22.769693 10.137721 -0.522095
22.828945 10.164101 -0.174462
22.882229 10.068422 0.174532
22.932674 10.090618 0.524817
22.820620 9.922688 -0.521257
22.843410 9.932597 -0.173903
22.831406 9.809146 0.173484
22.946371 9.858539 0.523142
22.722281 9.645036 -0.517068
22.818760 9.685988 -0.173065
22.870028 9.590199 0.173135
22.920889 9.611526 0.520629
22.731689 9.415773 -0.515393
22.791553 9.440570 -0.172228
22.888060 9.363752 0.172647
22.966877 9.395998 0.519791
22.748102 9.190829 -0.513927
22.835981 9.226336 -0.171948
22.857447 9.119196 0.171809
22.936565 9.150762 0.517278
22.790232 8.977311 -0.513089
22.813282 8.986391 -0.171181
22.824316 8.875892 0.170971
22.903728 8.906774 0.514765
22.783701 8.745843 -0.511204
22.806814 8.754716 -0.170552
22.826094 8.648033 0.170413
22.868391 8.664058 0.512252
22.709318 8.490666 -0.507854
22.807411 8.527342 -0.169994
22.863165 8.434668 0.170133
22.943127 8.464167 0.512252
22.754364 8.281911 -0.507225
22.805784 8.300627 -0.169435
22.822962 8.194281 0.169296
22.903200 8.223089 0.509739
22.750376 8.056331 -0.505550
22.811369 8.077929 -0.168947
22.818075 7.968429 0.168737
22.898577 7.996541 0.508063
22.744188 7.831452 -0.503875
22.805353 7.852512 -0.168388
22.848867 7.756145 0.168458
22.929617 7.783556 0.507225
22.764257 7.616814 -0.502828
22.816111 7.634164 -0.167969
22.877695 7.543932 0.168179
22.920710 7.558116 0.505550
22.801334 7.408602 -0.502199
22.853331 7.425498 -0.167760
22.866467 7.319613 0.167620
22.909616 7.333426 0.503875
22.741161 7.170260 -0.499477
22.812353 7.192708 -0.166992
22.814871 7.084206 0.166782
22.896355 7.109508 0.502199
22.774183 6.962767 -0.498848
22.826439 6.978743 -0.166643
22.837521 6.873313 0.166503
22.919231 6.897905 0.501362
22.747803 6.738206 -0.496964
22.848118 6.767920 -0.166363
22.896631 6.673759 0.166503
22.940159 6.686447 0.500524
22.776905 6.531173 -0.496335
22.829409 6.546227 -0.165805
22.848131 6.443839 0.165735
22.843676 6.442583 0.497173
22.746325 6.308114 -0.494451
22.856758 6.338740 -0.165596
22.816664 6.220537 0.165107
22.860445 6.232472 0.496335
22.771536 6.101614 -0.493822
22.785635 6.105392 -0.164688
22.870079 6.021189 0.165107
22.836615 6.012379 0.494660
22.746479 5.882640 -0.492147
22.809002 5.898809 -0.164478
22.805447 5.791846 0.164269
22.849453 5.803022 0.493822
22.699940 5.659731 -0.490053
22.811096 5.687445 -0.164129
22.816269 5.583106 0.163990
22.821533 5.584394 0.492147
22.719301 5.454422 -0.489424
22.772348 5.467157 -0.163501
22.786253 5.365450 0.163431
22.830469 5.375862 0.491309
22.688103 5.237961 -0.487749
22.702269 5.241232 -0.162663
22.793194 5.157573 0.163152
22.886263 5.178633 0.491519
22.732946 5.039773 -0.487749
22.795956 5.053742 -0.163012
22.759157 4.941497 0.162594
22.842653 4.959626 0.489634
22.707605 4.826651 -0.486283
22.760941 4.837987 -0.162454
22.811203 4.744737 0.162663
22.885063 4.760100 0.489634
22.709673 4.620335 -0.485445
22.763096 4.631204 -0.162175
22.812510 4.537690 0.162384
22.857090 4.546558 0.488168
22.670614 4.406721 -0.483770
22.724115 4.417120 -0.161616
22.762821 4.321657 0.161756
22.846785 4.337597 0.487121
22.708206 4.208717 -0.483770
22.771629 4.220472 -0.161686
22.760307 4.115734 0.161477
22.854252 4.132722 0.486492
22.734224 4.008657 -0.483560
22.758352 4.012912 -0.161337
22.755936 3.910185 0.161197
22.800766 3.917888 0.484608
22.659872 3.791962 -0.481257
22.713604 3.800954 -0.160778
22.749712 3.705026 0.160918
22.794615 3.712339 0.483770
22.642727 3.586256 -0.480210
22.716278 3.597905 -0.160569
22.781178 3.506359 0.160918
22.786617 3.507196 0.482932
22.722601 3.395915 -0.481257
22.776480 3.403968 -0.160778
22.771324 3.301685 0.160639
22.776779 3.302476 0.482094
22.662264 3.184974 -0.479372
22.765709 3.199512 -0.160499
22.759636 3.097450 0.160360
22.804729 3.103588 0.482094
22.639635 2.980564 -0.478325
22.713448 2.990282 -0.159941
22.746119 2.893672 0.160080
22.791275 2.899416 0.481257
22.635012 2.779230 -0.477697
22.698977 2.787084 -0.159661
22.730783 2.690366 0.159801
22.825636 2.701592 0.481466
22.628603 2.578204 -0.477068
22.682693 2.584366 -0.159382
22.723574 2.488636 0.159592
22.798651 2.496858 0.480419
22.570696 2.372276 -0.475393
22.664602 2.382146 -0.159103
22.744427 2.290243 0.159592
22.819572 2.297810 0.480419
22.630344 2.179054 -0.476231
22.714388 2.187147 -0.159312
22.763546 2.091676 0.159592
22.838755 2.098587 0.480419
22.648499 1.981487 -0.476231
22.712687 1.987103 -0.159173
22.731106 1.888809 0.159243
22.776491 1.892581 0.478744
22.664928 1.783769 -0.476231
22.719193 1.788039 -0.159103
22.716806 1.688150 0.159033
22.762228 1.691526 0.478115
22.619791 1.581730 -0.474974
22.694029 1.586921 -0.158824
22.720694 1.489193 0.158963
17.189339 1.126649 0.360838
22.766146 1.492172 0.477906
22.632732 1.384277 -0.474974
22.707014 1.388820 -0.158824
22.692890 1.288596 0.158684
16.948973 0.962432 0.355602
22.768320 1.292879 0.477697
22.643951 1.186719 -0.474974
22.718267 1.190614 -0.158824
22.753212 1.092915 0.159033
16.966713 0.814970 0.355812
22.818680 1.096060 0.478534
22.573538 0.985582 -0.473299
22.647871 0.988827 -0.158265
17.016457 0.668578 0.118891
22.671955 0.890783 0.158405
22.717485 0.892572 0.476231
22.631237 0.790300 -0.474346
22.655638 0.791152 -0.158265
22.678865 0.692902 0.158405
22.764381 0.695515 0.477068
22.607290 0.591993 -0.473718
22.671675 0.593679 -0.158335
22.684048 0.494968 0.158405
22.739597 0.496180 0.476440
22.641584 0.395210 -0.474346
22.705988 0.396334 -0.158544
22.727499 0.297519 0.158684
18.084482 0.236739 0.378848
22.773052 0.298116 0.477068
22.644171 0.197613 -0.474346
22.668585 0.197826 -0.158265
22.689232 0.099001 0.158405
22.744795 0.099244 0.476440
22.645033 0.000000 -0.474346
22.669447 0.000000 -0.158265
22.689232 -0.099001 0.158405
16.016335 -0.069885 0.335498
17.046099 -0.074378 0.357068
22.774788 -0.099374 0.477068
22.594183 -0.197176 -0.473299
22.658585 -0.197738 -0.158195
22.687504 -0.296996 0.158405
22.743061 -0.297723 0.476440
22.601599 -0.394512 -0.473508
18.026815 -0.314659 -0.125872
22.655996 -0.395462 -0.158195
18.035267 -0.393531 0.125942
22.684048 -0.494968 0.158405
18.001764 -0.392800 0.377173
22.769585 -0.496834 0.477068
22.597296 -0.591731 -0.473508
22.631691 -0.592632 -0.158056
22.688860 -0.693207 0.158475
18.007645 -0.550183 0.377382
22.734402 -0.694599 0.476440
22.601263 -0.789253 -0.473718
22.615664 -0.789756 -0.157986
22.711922 -0.892354 0.158684
18.002159 -0.707307 0.377382
22.757444 -0.894142 0.477068
22.543573 -0.984274 -0.472670
22.567949 -0.985338 -0.157707
22.663317 -1.088597 0.158405
22.718817 -1.091263 0.476440
22.574062 -1.183056 -0.473508
22.598436 -1.184334 -0.157986
22.692890 -1.288596 0.158684
22.698448 -1.288911 0.476231
22.602795 -1.382446 -0.474346
22.627165 -1.383937 -0.158265
22.680780 -1.486577 0.158684
22.736217 -1.490210 0.477278
22.589870 -1.579638 -0.474346
22.664103 -1.584828 -0.158614
22.627056 -1.681481 0.158405
22.672495 -1.684857 0.476231
22.575226 -1.776709 -0.474346
22.639441 -1.781763 -0.158544
22.651382 -1.882185 0.158684
22.696783 -1.885957 0.477068
22.558861 -1.973645 -0.474346
22.662878 -1.982745 -0.158824
22.683884 -2.084356 0.159033
22.729240 -2.088524 0.478115
22.540779 -2.170430 -0.474346
22.644712 -2.180438 -0.158824
22.615084 -2.277219 0.158684
22.660412 -2.281784 0.477068
22.600525 -2.375411 -0.476021
22.664602 -2.382146 -0.159103
22.634111 -2.478838 0.158963
22.689329 -2.484886 0.478115
22.588869 -2.573677 -0.476231
22.642950 -2.579838 -0.159103
22.700993 -2.686839 0.159592
22.736280 -2.691016 0.479581
22.486162 -2.760954 -0.474555
22.540174 -2.767585 -0.158544
22.676680 -2.884838 0.159592
22.751602 -2.894369 0.480419
22.580160 -2.972734 -0.477068
22.624220 -2.978535 -0.159312
22.650642 -3.082617 0.159592
22.725479 -3.092802 0.480419
22.553360 -3.169668 -0.477068
22.607269 -3.177244 -0.159382
22.622879 -3.280161 0.159592
22.658047 -3.285260 0.479581
22.475401 -3.358971 -0.476021
22.539122 -3.368494 -0.159103
22.623043 -3.482019 0.159801
22.707567 -3.495029 0.481257
22.524231 -3.567487 -0.477697
22.587881 -3.577569 -0.159661
22.591797 -3.679308 0.159801
22.676203 -3.693054 0.481257
22.502102 -3.765560 -0.477906
22.555801 -3.774547 -0.159661
22.647526 -3.891557 0.160429
22.643110 -3.890798 0.481257
22.458538 -3.960046 -0.477697
22.472765 -3.962555 -0.159312
22.602863 -4.087264 0.160360
22.647648 -4.095362 0.482094
22.501768 -4.170456 -0.479372
22.604479 -4.189493 -0.160499
22.605633 -4.291813 0.160639
22.650337 -4.300301 0.482932
22.415447 -4.357121 -0.478325
22.527796 -4.378960 -0.160220
22.606550 -4.496722 0.160918
22.651171 -4.505598 0.483770
22.513731 -4.580471 -0.481257
22.606312 -4.599306 -0.161058
22.566448 -4.693828 0.160918
22.610991 -4.703093 0.483770
22.502239 -4.782999 -0.481885
22.565315 -4.796406 -0.161058
22.602804 -4.907550 0.161477
22.696100 -4.927806 0.486492
22.537731 -4.996495 -0.483560
22.561651 -5.001798 -0.161337
22.559118 -5.104607 0.161477
22.652233 -5.125677 0.486492
22.493271 -5.192981 -0.483560
22.526886 -5.200742 -0.161407
22.591581 -5.319612 0.162035
22.635836 -5.330032 0.487121
22.485983 -5.398407 -0.484398
22.558432 -5.415801 -0.161965
22.583153 -5.526062 0.162314
22.637018 -5.539243 0.488168
22.515625 -5.613776 -0.486074
22.549124 -5.622128 -0.162244
22.621298 -5.745078 0.162943
22.665339 -5.756263 0.489843
22.475458 -5.812549 -0.486283
22.528246 -5.826200 -0.162454
22.570303 -5.942265 0.162943
22.643250 -5.961470 0.490471
22.462507 -6.018811 -0.487121
22.515182 -6.032925 -0.162733
22.517588 -6.138999 0.162943
22.638592 -6.171988 0.491519
22.476568 -6.233304 -0.488587
22.500223 -6.239864 -0.163012
22.569025 -6.365123 0.163711
22.612738 -6.377451 0.492147
22.459759 -6.440232 -0.489424
22.473751 -6.444244 -0.163222
22.551022 -6.573023 0.163990
22.604216 -6.588528 0.493194
22.431461 -6.644502 -0.490053
22.541302 -6.677038 -0.164129
22.531105 -6.781093 0.164269
22.612875 -6.805703 0.494660
22.496916 -6.877997 -0.492775
22.520428 -6.885186 -0.164409
22.547472 -7.001176 0.164828
22.638557 -7.029459 0.496545
22.397898 -7.062030 -0.491937
22.421339 -7.069421 -0.164129
22.523611 -7.209865 0.165107
22.566830 -7.223699 0.496335
22.449520 -7.294291 -0.494451
22.520470 -7.317344 -0.165316
22.535810 -7.431196 0.165665
22.588387 -7.448533 0.498220
22.385012 -7.489920 -0.494451
22.484205 -7.523110 -0.165526
22.555326 -7.656501 0.166294
22.560396 -7.658223 0.499058
22.441689 -7.727293 -0.497173
22.455519 -7.732055 -0.165805
22.515974 -7.862930 0.166503
22.605972 -7.894359 0.501571
22.411098 -7.936186 -0.498011
22.490877 -7.964437 -0.166573
22.521793 -8.086150 0.167062
22.573860 -8.104844 0.502409
22.406754 -8.155392 -0.499477
22.458107 -8.174082 -0.166852
22.525425 -8.310068 0.167620
22.567932 -8.325750 0.503875
22.409649 -8.378625 -0.501152
22.470219 -8.401270 -0.167480
22.526857 -8.534663 0.168179
22.569214 -8.550710 0.505550
22.410351 -8.602528 -0.502828
22.470734 -8.625707 -0.168039
22.488802 -8.745417 0.168458
22.531008 -8.761829 0.506388
22.408844 -8.827078 -0.504503
22.469036 -8.850789 -0.168597
22.523083 -8.985799 0.169296
22.527977 -8.987752 0.508063
22.405119 -9.052256 -0.506178
22.465117 -9.076496 -0.169156
22.490086 -9.200937 0.169645
22.559729 -9.229428 0.510576
22.399164 -9.278038 -0.507854
22.458963 -9.302808 -0.169714
22.510378 -9.439384 0.170413
22.552088 -9.456876 0.512252
22.390972 -9.504403 -0.509529
22.459770 -9.533607 -0.170343
22.463898 -9.651252 0.170692
22.505447 -9.669104 0.513089
22.380527 -9.731330 -0.511204
22.439913 -9.757152 -0.170831
22.488655 -9.895245 0.171530
22.530025 -9.913449 0.515602
22.413488 -9.979128 -0.513927
22.426994 -9.985141 -0.171390
22.437918 -10.107545 0.171809
22.515583 -10.142530 0.517278
22.398333 -10.207508 -0.515602
22.457296 -10.234380 -0.172298
22.457834 -10.353203 0.172647
22.535170 -10.388856 0.519791
22.380894 -10.436381 -0.517278
22.403383 -10.446869 -0.172577
22.475163 -10.599975 0.173484
22.515993 -10.619232 0.521466
22.361158 -10.665726 -0.518953
22.455774 -10.710855 -0.173694
22.489887 -10.847834 0.174322
22.521523 -10.863093 0.523770
22.375063 -10.913048 -0.521466
22.424364 -10.937094 -0.174182
22.501989 -11.096753 0.175160
22.542437 -11.116699 0.526492
22.386347 -11.161421 -0.523979
22.444407 -11.190369 -0.175090
22.440014 -11.310699 0.175439
22.480278 -11.330993 0.527330
22.394991 -11.410818 -0.526492
22.417177 -11.422123 -0.175649
22.456026 -11.565613 0.176347
22.522753 -11.599980 0.530681
22.392111 -11.656595 -0.528796
22.414217 -11.668103 -0.176416
22.451590 -11.812352 0.177115
22.491451 -11.833325 0.532356
22.333675 -11.875026 -0.529843
22.391005 -11.905509 -0.177045
22.453358 -12.064624 0.177952
22.493015 -12.085933 0.534869
22.360991 -12.141027 -0.532985
22.418077 -12.172024 -0.178092
22.417356 -12.298583 0.178511
22.491875 -12.339465 0.537382
22.394098 -12.413251 -0.536335
22.424704 -12.430216 -0.179000
22.413876 -12.552374 0.179349
22.522905 -12.613434 0.540733
22.328428 -12.632817 -0.537382
22.341486 -12.640204 -0.179209
22.442392 -12.826884 0.180466
22.481419 -12.849189 0.542409
22.312580 -12.882174 -0.539686
22.377552 -12.919685 -0.180396
22.467813 -13.102841 0.181583
22.472071 -13.105324 0.544922
22.311300 -13.142361 -0.542409
22.393196 -13.190600 -0.181443
22.386992 -13.318860 0.181862
22.459957 -13.362270 0.547435
22.332880 -13.418948 -0.545759
22.388664 -13.452467 -0.182351
22.372498 -13.575965 0.182700
22.479252 -13.640744 0.550786
22.308699 -13.670789 -0.548063
22.364206 -13.704803 -0.183118
22.423243 -13.875923 0.184096
22.452877 -13.894261 0.553089
22.332687 -13.955012 -0.551623
22.387924 -13.989528 -0.184305
22.402784 -14.135104 0.184934
22.440693 -14.159023 0.555812
22.311243 -14.213830 -0.554136
22.399931 -14.270329 -0.185422
22.413143 -14.416618 0.186051
22.484451 -14.462484 0.560000
22.320515 -14.495111 -0.557487
22.375185 -14.530616 -0.186260
22.386835 -14.677452 0.186888
22.457720 -14.723927 0.562513
22.293217 -14.755558 -0.560000
22.380951 -14.813627 -0.187377
22.390930 -14.961142 0.188005
22.428131 -14.985997 0.565026
22.287931 -15.033400 -0.563142
22.350307 -15.075473 -0.188215
22.391771 -15.246014 0.189122
22.461782 -15.293683 0.569215
22.287724 -15.317928 -0.566492
22.349758 -15.360563 -0.189332
22.389334 -15.532033 0.190239
22.458900 -15.580294 0.572566
22.259670 -15.586389 -0.569215
22.345922 -15.646784 -0.190449
22.375433 -15.813393 0.191287
22.452717 -15.868011 0.575917
22.212339 -15.843908 -0.571519
22.265516 -15.881839 -0.190937
22.333971 -16.078159 0.192124
22.443213 -16.156801 0.579267
22.243088 -16.160549 -0.575917
22.263605 -16.175455 -0.192124
22.362164 -16.396618 0.193590
22.430368 -16.446627 0.582618
22.245878 -16.461084 -0.579686
22.346676 -16.535671 -0.194079
22.378473 -16.710798 0.194987
22.406155 -16.731468 0.585759
22.277044 -16.786957 -0.584294
22.329306 -16.826338 -0.195196
22.327312 -16.978083 0.195824
22.426416 -17.053444 0.590157
22.216953 -17.047668 -0.586597
22.276819 -17.093605 -0.196034
22.328529 -17.288595 0.197151
22.395323 -17.340311 0.593299
22.224909 -17.364000 -0.590786
22.276522 -17.404325 -0.197360
22.333870 -17.606604 0.198547
22.376623 -17.640308 0.596859
22.229021 -17.681763 -0.594974
22.280312 -17.722559 -0.198756
22.335348 -17.926012 0.199943
22.369978 -17.953806 0.600838
22.198191 -17.975740 -0.598325
22.241375 -18.010710 -0.199804
22.332939 -18.246777 0.201340
22.367296 -18.274849 0.605026
22.225628 -18.321394 -0.603351
22.283976 -18.369492 -0.201619
22.326622 -18.568855 0.202736
22.391451 -18.622772 0.610053
22.187441 -18.617474 -0.606702
22.237728 -18.659670 -0.202666
22.285845 -18.866360 0.203853
22.380699 -18.946661 0.614241
22.206587 -18.966217 -0.611728
22.256540 -19.008881 -0.204341
22.302170 -19.216780 0.205528
22.335691 -19.245663 0.617592
22.221323 -19.316702 -0.616754
22.240749 -19.333588 -0.205738
22.283989 -19.542534 0.206925
22.347296 -19.598051 0.622618
22.164227 -19.609251 -0.619896
22.220974 -19.659458 -0.207134
22.261810 -19.869425 0.208321
22.354435 -19.952097 0.627644
22.178007 -19.969168 -0.625131
22.226919 -20.013208 -0.208809
22.294827 -20.251194 0.210276
22.386688 -20.334635 0.633508
22.120840 -20.270016 -0.628482
22.198879 -20.341526 -0.210206
22.234743 -20.553585 0.211393
22.296484 -20.610657 0.636021
22.169781 -20.673655 -0.634974
22.225298 -20.725426 -0.212160
22.287609 -20.966089 0.213627
22.348803 -21.023655 0.642723
22.111814 -20.983328 -0.638534
22.210423 -21.076904 -0.213766
22.219374 -21.270424 0.214744
22.280041 -21.328499 0.646074
22.093271 -21.335224 -0.643351
22.147932 -21.388010 -0.214953
22.262121 -21.686798 0.216978
22.286428 -21.710476 0.651728
22.105915 -21.723421 -0.649215
22.181549 -21.797747 -0.217117
22.242464 -22.049204 0.218653
22.294930 -22.101213 0.657592
22.113449 -22.113449 -0.655079
22.160187 -22.160187 -0.218793
22.218163 -22.412905 0.220329
22.270140 -22.465338 0.662618
22.059784 -22.448200 -0.659267
22.134174 -22.523901 -0.220468
22.210129 -22.799335 0.222214
22.268587 -22.859343 0.668482
22.029732 -22.812454 -0.664294
22.103491 -22.888834 -0.222144
22.203943 -23.194542 0.224168
22.261837 -23.255018 0.674346
22.077572 -23.264906 -0.671833
22.150711 -23.341978 -0.224657
22.192535 -23.591360 0.226123
22.249863 -23.652300 0.680210
22.091900 -23.690662 -0.678534
22.130308 -23.731850 -0.226542
22.175880 -23.989731 0.228078
22.205490 -24.021763 0.685236
22.039673 -24.052084 -0.683351
22.118284 -24.137873 -0.228566
22.180840 -24.419201 0.230312
22.237017 -24.481045 0.692775
22.016258 -24.451532 -0.689215
22.094154 -24.538044 -0.230521
22.179977 -24.850565 0.232546
22.235569 -24.912851 0.699477
22.014034 -24.882339 -0.695917
22.084587 -24.962086 -0.232685
22.146887 -25.253683 0.234501
22.175529 -25.286345 0.704503
22.032190 -25.345135 -0.703456
22.082409 -25.402905 -0.234989
22.134544 -25.688402 0.236735
22.208542 -25.774282 0.712671
22.017954 -25.779711 -0.710157
22.087191 -25.860777 -0.237433
22.116285 -26.124811 0.238969
22.170111 -26.188393 0.718744
22.059933 -26.290005 -0.239597
22.117657 -26.593592 0.241482
22.164488 -26.649900 0.726074
22.087204 -27.033388 0.243716
22.184109 -27.151995 0.734451
22.100819 -27.537050 0.246508
22.177862 -27.633045 0.742199
22.051590 -27.972307 0.248672
22.152514 -28.100328 0.749529
22.057652 -28.487850 0.251535
22.151283 -28.608780 0.757906
22.136799 -29.111368 0.766074
22.065674 -29.549520 0.257469
22.151100 -29.663921 0.775498
22.098307 -30.138288 0.782828
21.973095 -30.522554 0.262565
0.151872 -0.210963 0.005445
22.044746 -30.622086 0.790367
0.153895 -0.221839 0.001885
0.153865 -0.221796 0.005654
0.146297 -0.214866 0.005445
0.155556 -0.232806 0.001955
0.144417 -0.216135 0.005445
0.148007 -0.225748 0.005654
0.129831 -0.201844 0.001676
0.140623 -0.218622 0.005445
0.149408 -0.236798 0.001955
0.117369 -0.186019 0.004607
0.147336 -0.238093 0.001955
0.136786 -0.221043 0.005445
0.114127 -0.188076 0.001536
0.140038 -0.230776 0.005654
0.138046 -0.232034 0.001885
0.127795 -0.214804 0.005236
0.115843 -0.198639 0.004817