# This PCD file was generated using the MATLAB® pcwrite function
# from Computer Vision System Toolbox®.
# .PCD v.7 - Point Cloud Data file format
VERSION .7
FIELDS x y z
SIZE 4 4 4
TYPE F F F
COUNT 1 1 1
WIDTH 746
HEIGHT 1
VIEWPOINT 0 0 0 1 0 0 0
POINTS 746
DATA ascii
30.837233 30.837233 -0.913508
30.829103 30.829103 -0.304383
30.827055 30.293663 -0.905341
30.818800 30.285551 -0.301660
30.723457 29.669296 -0.894660
30.722254 29.668137 -0.298170
30.712868 29.145422 -0.886912
30.747869 29.178638 -0.295936
30.738047 28.663692 -0.293422
30.619783 28.057863 -0.869948
30.633127 28.070089 -0.290071
30.618282 27.568825 -0.863037
30.713427 27.654493 -0.288535
30.573156 27.048843 -0.855079
30.624054 27.093874 -0.285464
30.626944 26.623596 -0.850053
30.640463 26.635347 -0.283439
30.554014 26.095592 -0.841676
30.567575 26.107176 -0.280647
30.566128 25.648027 -0.835812
30.556768 25.640173 -0.278482
30.511059 25.151377 -0.828273
30.563305 25.194445 -0.276528
30.449671 24.657658 -0.820733
30.471151 24.675051 -0.273735
30.475903 24.241627 -0.815707
30.497498 24.258804 -0.272060
30.465693 23.802408 -0.809843
30.455873 23.794737 -0.269826
30.418428 23.340881 -0.803142
30.440226 23.357607 -0.267871
30.365448 22.882006 -0.796440
30.419285 22.922575 -0.265916
30.306793 22.425848 -0.789739
30.393087 22.489702 -0.263961
30.371925 22.066496 -0.786388
30.394028 22.082554 -0.262286
30.335430 21.638052 -0.780524
30.357628 21.653885 -0.260331
30.293789 21.211939 -0.774660
30.357035 21.256226 -0.258725
30.247038 20.788212 -0.768796
30.269417 20.803595 -0.256422
30.228369 20.389292 -0.763770
30.250843 20.404451 -0.254746
30.238405 20.014364 -0.759582
30.227625 20.007229 -0.253071
30.297909 19.864180 0.252931
30.367252 19.909643 0.760629
30.244213 19.640821 -0.755393
30.266884 19.655544 -0.251954
30.301897 19.490835 0.251535
30.287580 19.481627 0.754346
30.245817 19.268709 -0.751205
30.243280 19.267094 -0.250348
30.293232 19.113605 0.250069
30.295782 19.115215 0.750367
30.183891 18.860989 -0.745550
30.240658 18.896460 -0.248952
30.263298 18.727497 0.248463
30.291405 18.744890 0.746178
30.168318 18.487169 -0.741152
30.225357 18.522123 -0.247486
30.220398 18.338188 0.246788
30.257242 18.360546 0.741362
30.122822 18.099617 -0.736126
30.188696 18.139198 -0.245880
30.173023 17.951063 0.245112
30.244471 17.993570 0.737173
30.072878 17.714279 -0.731100
30.139053 17.753260 -0.244204
30.190315 17.606472 0.243995
30.227612 17.628222 0.732985
30.096441 17.376188 -0.727959
30.145609 17.404575 -0.243018
30.134447 17.223255 0.242320
30.206692 17.264547 0.728796
30.107702 17.034119 -0.724608
30.130980 17.047289 -0.241691
30.144003 16.881453 0.241203
30.181742 16.902588 0.724608
30.001621 16.630171 -0.718534
30.103676 16.686741 -0.240295
30.114830 16.521561 0.239806
30.187847 16.561621 0.721257
30.040167 16.310480 -0.716021
30.072390 16.327974 -0.238899
30.081686 16.163473 0.238410
30.155085 16.202911 0.717068
30.040117 15.972613 -0.712671
30.107779 16.008591 -0.238061
30.115395 15.844476 0.237572
30.162611 15.869318 0.713927
30.000996 15.617530 -0.708482
30.068935 15.652897 -0.236665
30.074717 15.489497 0.236176
30.113295 15.509366 0.709529
30.002518 15.287046 -0.705341
30.026188 15.299107 -0.235268
30.039080 15.140943 0.234850
30.042150 15.142490 0.704712
29.920042 14.917583 -0.700315
30.015368 14.965110 -0.234151
30.026567 14.807465 0.233733
30.056581 14.822266 0.701990
29.941250 14.603323 -0.697801
29.965063 14.614938 -0.232755
30.001528 14.471019 0.232546
30.049709 14.494259 0.698849
29.959259 14.289834 -0.695288
30.019255 14.318450 -0.232197
30.027180 14.161737 0.231778
30.066538 14.180300 0.696335
29.937841 13.960245 -0.691938
29.961805 13.971419 -0.230800
30.004320 13.832181 0.230661
30.043867 13.850412 0.692985
29.831087 13.594810 -0.686702
29.900599 13.626488 -0.229404
29.978006 13.504107 0.229544
30.017738 13.522006 0.689634
29.921186 13.321770 -0.686074
29.945290 13.332502 -0.228846
29.948261 13.177550 0.228427
29.988178 13.195114 0.686283
29.889601 12.996368 -0.682723
29.950453 13.022827 -0.228008
29.951864 12.868336 0.227589
29.991953 12.885560 0.683770
29.854628 12.672538 -0.679372
29.915678 12.698452 -0.226891
29.869362 12.525263 0.226123
29.955738 12.561483 0.680419
29.816290 12.350312 -0.676021
29.877537 12.375681 -0.225774
29.875719 12.222480 0.225355
29.943922 12.250382 0.677697
29.820963 12.048451 -0.673718
29.873137 12.069530 -0.224936
29.906939 11.931659 0.224797
29.947538 11.947856 0.675393
29.841249 11.754781 -0.671833
29.912195 11.782727 -0.224448
29.898085 11.626729 0.223959
29.938845 11.642580 0.672880
29.802685 11.440179 -0.668691
29.855175 11.460328 -0.223261
29.848789 11.308694 0.222842
29.889715 11.324201 0.669529
29.751549 11.123649 -0.665341
29.766716 11.129319 -0.221864
29.796230 10.992410 0.221725
29.837320 11.007569 0.666178
29.772327 10.836242 -0.663665
29.825117 10.855454 -0.221585
29.815729 10.704941 0.221166
29.856966 10.719746 0.664503
29.780939 10.545983 -0.661780
29.805597 10.554716 -0.220747
29.832485 10.417971 0.220608
29.873865 10.432421 0.662828
29.730038 10.236873 -0.658639
29.783110 10.255147 -0.219910
29.770758 10.105810 0.219491
29.850159 10.132764 0.660315
29.732908 9.948492 -0.656754
29.757671 9.956778 -0.219072
29.781839 9.820578 0.218932
29.833002 9.837449 0.658011
29.742523 9.663932 -0.655079
29.814896 9.687447 -0.218863
29.790215 9.535923 0.218374
29.793928 9.537112 0.655288
29.758978 9.382970 -0.653613
29.745707 9.378785 -0.217746
29.719496 9.228148 0.217257
29.799635 9.253033 0.653613
29.677189 9.073227 -0.650053
29.749916 9.095462 -0.217187
29.770168 8.959804 0.217047
29.802658 8.969583 0.651938
29.688135 8.794026 -0.648587
29.722687 8.804261 -0.216419
29.693619 8.654901 0.215930
29.774216 8.678392 0.649634
29.609978 8.490524 -0.645236
29.634975 8.497693 -0.215232
29.719893 8.381877 0.215581
29.771833 8.396525 0.647958
29.654039 8.223793 -0.644608
29.708002 8.238758 -0.215232
29.685783 8.093273 0.214813
29.718578 8.102215 0.645236
29.570162 7.923301 -0.641257
29.595245 7.930022 -0.213906
29.706926 7.821181 0.214464
29.749477 7.832384 0.644398
29.618820 7.659948 -0.640838
29.653639 7.668952 -0.213836
29.657743 7.532107 0.213627
29.748863 7.555249 0.642932
29.577827 7.374581 -0.638534
29.603001 7.380857 -0.212998
29.605785 7.244490 0.212789
29.697126 7.266840 0.640419
29.602171 7.106853 -0.637697
29.627390 7.112907 -0.212719
29.590008 6.967522 0.212230
29.720484 6.998245 0.639582
29.585129 6.830265 -0.636021
29.610384 6.836096 -0.212160
29.620424 6.702418 0.212021
29.653654 6.709937 0.636859
29.604563 6.563174 -0.635184
29.629862 6.568782 -0.211881
29.628925 6.433070 0.211672
29.681770 6.444544 0.636231
29.582476 6.287949 -0.633508
29.607807 6.293334 -0.211323
29.654564 6.168159 0.211462
29.648783 6.166956 0.634346
29.557844 6.013611 -0.631833
29.583206 6.018771 -0.210764
29.628801 5.893535 0.210904
29.662249 5.900188 0.633508
29.530684 5.740183 -0.630157
29.605154 5.754659 -0.210555
29.590685 5.617967 0.210276
29.643850 5.628061 0.632042
29.550159 5.476799 -0.629529
29.565754 5.479689 -0.209927
29.599222 5.352411 0.209996
29.642643 5.360263 0.630995
29.518061 5.204831 -0.627854
29.543512 5.209318 -0.209438
29.575817 5.082055 0.209508
29.609465 5.087836 0.629320
29.473612 4.932191 -0.625969
29.548397 4.944706 -0.209159
29.500603 4.804478 0.208670
29.544189 4.811577 0.627016
29.525404 4.676365 -0.626178
29.550915 4.680405 -0.208879
29.541405 4.546857 0.208670
29.545528 4.547492 0.626178
29.446432 4.400799 -0.623665
29.501625 4.409047 -0.208251
29.490892 4.275976 0.208042
29.544510 4.283750 0.625341
29.444113 4.138100 -0.622828
29.459757 4.140299 -0.207692
29.487450 4.013066 0.207762
29.541142 4.020373 0.624503
29.479103 3.880998 -0.622828
29.504681 3.884365 -0.207762
29.491589 3.751804 0.207553
29.535429 3.757381 0.623665
29.382847 3.607760 -0.620105
29.458052 3.616994 -0.207204
29.433832 3.483724 0.206925
29.487665 3.490095 0.621990
29.383410 3.347817 -0.619477
29.448751 3.355262 -0.206925
29.473053 3.227824 0.206994
29.516998 3.232637 0.621990
29.331961 3.082913 -0.617801
29.397350 3.089786 -0.206366
29.410553 2.961487 0.206366
29.454557 2.965918 0.620105
29.357748 2.826830 -0.617801
29.423195 2.833131 -0.206366
29.405403 2.701977 0.206157
29.489273 2.709683 0.620314
29.331499 2.566174 -0.616754
29.367104 2.569289 -0.205808
29.388000 2.441955 0.205877
29.471943 2.448930 0.619477
29.402611 2.314036 -0.617801
29.388407 2.312918 -0.205808
29.368301 2.182442 0.205598
29.412428 2.185721 0.617801
29.331924 2.051088 -0.615917
29.407471 2.056371 -0.205808
29.346315 1.923459 0.205319
29.430382 1.928969 0.617801
29.278852 1.790771 -0.614451
29.334467 1.794173 -0.205179
29.361984 1.667294 0.205319
29.366241 1.667536 0.616126
29.293365 1.535200 -0.614451
29.358994 1.538640 -0.205249
29.285521 1.406684 0.204691
29.339729 1.409288 0.615288
29.255705 1.277332 -0.613403
29.291380 1.278889 -0.204691
29.346642 1.153033 0.205040
29.350910 1.153200 0.615288
29.265738 1.021982 -0.613403
29.301424 1.023228 -0.204691
29.315605 0.895673 0.204760
29.359856 0.897025 0.615288
29.243559 0.765770 -0.612775
29.309238 0.767489 -0.204691
29.242327 0.638070 0.204202
29.326584 0.639908 0.614451
29.159161 0.508975 -0.610890
29.234835 0.510296 -0.204132
29.286777 0.383385 0.204481
29.331053 0.383965 0.614451
29.212479 0.254933 -0.611938
29.278172 0.255507 -0.204411
29.289007 0.127798 0.204481
29.333286 0.127991 0.614451
29.213591 0.000000 -0.611938
29.239288 0.000000 -0.204132
29.249008 -0.127624 0.204202
29.253304 -0.127642 0.612775
29.212479 -0.254933 -0.611938
29.268171 -0.255419 -0.204341
29.246780 -0.382861 0.204202
29.281067 -0.383310 0.613403
29.169157 -0.509150 -0.611100
29.194841 -0.509598 -0.203853
29.242327 -0.638070 0.204202
29.246622 -0.638164 0.612775
29.163603 -0.763676 -0.611100
29.229267 -0.765395 -0.204132
29.195665 -0.892008 0.203923
29.239939 -0.893361 0.612775
29.135845 -1.017446 -0.610681
29.181501 -1.019040 -0.203853
29.226738 -1.148322 0.204202
29.231030 -1.148490 0.612775
29.095892 -1.270354 -0.610053
29.171497 -1.273655 -0.203853
29.175650 -1.401407 0.203923
29.219894 -1.403532 0.612775
29.133619 -1.526828 -0.611100
29.159271 -1.528173 -0.203853
29.202244 -1.658224 0.204202
29.206533 -1.658467 0.612775
29.069290 -1.777954 -0.610053
29.184750 -1.785016 -0.204132
29.186663 -1.912995 0.204202
29.190948 -1.913276 0.612775
29.102535 -2.035048 -0.611100
29.168062 -2.039630 -0.204132
29.128967 -2.164656 0.203923
29.173141 -2.167939 0.612775
29.033833 -2.285012 -0.610053
29.109276 -2.290950 -0.203853
29.148830 -2.422081 0.204202
29.153111 -2.422437 0.612775
29.052626 -2.541775 -0.610890
29.118061 -2.547500 -0.204062
29.126585 -2.676357 0.204202
29.130861 -2.676750 0.612775
29.029339 -2.795208 -0.610890
29.104675 -2.802462 -0.204132
29.141918 -2.934437 0.204481
29.146183 -2.934866 0.613613
28.964069 -3.044246 -0.610053
29.039331 -3.052157 -0.203853
29.115200 -3.188633 0.204481
29.159216 -3.193454 0.614451
28.986069 -3.302545 -0.611100
29.011591 -3.305453 -0.203853
29.046545 -3.437885 0.204202
29.080595 -3.441915 0.613403
29.025608 -3.563896 -0.612566
29.100744 -3.573122 -0.204691
29.055117 -3.696278 0.204481
29.089125 -3.700604 0.614241
29.003315 -3.818359 -0.612775
29.028799 -3.821714 -0.204411
29.061388 -3.955081 0.204760
29.105255 -3.961051 0.615288
28.998590 -4.075486 -0.613403
29.033953 -4.080456 -0.204691
29.015871 -4.207101 0.204691
29.069580 -4.214889 0.615288
28.961922 -4.328388 -0.613403
28.997238 -4.333666 -0.204691
28.978054 -4.460149 0.204691
29.031693 -4.468405 0.615288
28.972420 -4.588780 -0.614451
29.037329 -4.599061 -0.205249
28.977507 -4.719287 0.204970
29.031065 -4.728009 0.616126
28.931273 -4.841434 -0.614451
28.956640 -4.845680 -0.204970
28.984497 -4.980448 0.205319
28.988701 -4.981170 0.616126
28.887922 -5.093720 -0.614451
28.952642 -5.105132 -0.205249
28.939932 -5.233192 0.205319
28.983480 -5.241067 0.616964
28.832542 -5.343796 -0.614241
28.857828 -5.348482 -0.204900
28.883337 -5.483673 0.205249
28.936642 -5.493793 0.616964
28.912394 -5.620000 -0.616964
28.937664 -5.624912 -0.205808
28.922653 -5.753073 0.205877
29.005266 -5.769506 0.619477
28.901440 -5.880064 -0.617801
28.877678 -5.875230 -0.205738
28.910509 -6.013394 0.206157
28.944025 -6.020366 0.619267
28.849026 -6.132050 -0.617801
28.913338 -6.145720 -0.206366
28.886248 -6.271819 0.206366
28.929466 -6.281203 0.620105
28.823698 -6.390060 -0.618430
28.858606 -6.397799 -0.206366
28.879183 -6.534692 0.206715
28.883303 -6.535625 0.620314
28.844770 -6.659340 -0.620105
28.879625 -6.667387 -0.206925
28.859991 -6.795626 0.206994
28.903023 -6.805758 0.621990
28.785559 -6.910801 -0.620105
28.859236 -6.928490 -0.207204
28.789877 -7.044838 0.206925
28.881378 -7.067228 0.622828
28.762959 -7.171411 -0.620943
28.836487 -7.189744 -0.207483
28.814533 -7.317959 0.207553
28.847675 -7.326376 0.623456
28.786396 -7.444668 -0.622828
28.801691 -7.448624 -0.207692
28.826937 -7.589499 0.208111
28.830986 -7.590565 0.624503
28.758963 -7.705941 -0.623665
28.783888 -7.712620 -0.208042
28.788551 -7.848660 0.208321
28.802231 -7.852389 0.625341
28.758060 -7.975316 -0.625131
28.792576 -7.984888 -0.208600
28.767086 -8.113157 0.208670
28.809589 -8.125145 0.627016
28.735420 -8.239749 -0.626178
28.750637 -8.244112 -0.208809
28.723991 -8.372280 0.208879
28.775982 -8.387434 0.627854
28.700768 -8.501554 -0.627016
28.725540 -8.508892 -0.209159
28.736015 -8.648560 0.209508
28.778282 -8.661280 0.629529
28.654167 -8.760458 -0.627644
28.726694 -8.782632 -0.209717
28.774050 -8.934580 0.210345
28.777988 -8.935802 0.631205
28.662443 -9.037234 -0.629529
28.725254 -9.057038 -0.210276
28.733082 -9.197532 0.210625
28.737001 -9.198787 0.632042
28.649048 -9.308640 -0.630995
28.721207 -9.332086 -0.210834
28.689711 -9.460448 0.210904
28.722097 -9.471128 0.633508
28.604650 -9.570982 -0.631833
28.638676 -9.582367 -0.210834
28.672346 -9.732950 0.211393
28.723558 -9.750335 0.635393
28.595665 -9.846276 -0.633508
28.629604 -9.857964 -0.211393
28.661844 -10.009164 0.211951
28.712889 -10.026990 0.637068
28.546349 -10.108792 -0.634346
28.570766 -10.117439 -0.211602
28.611053 -10.272418 0.212230
28.652525 -10.287308 0.637697
28.532206 -10.384873 -0.636021
28.556562 -10.393739 -0.212160
28.632902 -10.563235 0.213068
28.683599 -10.581939 0.640419
28.515413 -10.661476 -0.637697
28.586538 -10.688068 -0.213068
28.651844 -10.855213 0.213906
28.655607 -10.856639 0.641885
28.579964 -10.970820 -0.641257
28.594872 -10.976542 -0.213836
28.593304 -11.119328 0.214185
28.634321 -11.135279 0.643561
28.557554 -11.249120 -0.642932
28.581732 -11.258643 -0.214464
28.606638 -11.412891 0.215023
28.619633 -11.418076 0.645445
28.532459 -11.527863 -0.644608
28.584381 -11.548840 -0.215232
28.542974 -11.677238 0.215302
28.592930 -11.697677 0.647121
28.495432 -11.803195 -0.646074
28.556421 -11.828457 -0.215791
28.522982 -11.960678 0.215930
28.591181 -11.989277 0.649424
28.501783 -12.098289 -0.648587
28.534956 -12.112370 -0.216419
28.564522 -12.272287 0.217047
28.604883 -12.289628 0.652147
28.468470 -12.378443 -0.650262
28.538214 -12.408769 -0.217257
28.529564 -12.553308 0.217606
28.597210 -12.583074 0.654451
28.478100 -12.679267 -0.652985
28.538465 -12.706143 -0.218095
28.519222 -12.846972 0.218374
28.559240 -12.865000 0.656126
28.393663 -12.939737 -0.653613
28.453796 -12.967142 -0.218304
28.478676 -13.128849 0.218932
28.482203 -13.130476 0.656964
28.469946 -13.275754 -0.658011
28.448309 -13.265664 -0.219142
28.507732 -13.445119 0.220049
28.511217 -13.446763 0.660315
28.380081 -13.536605 -0.658639
28.448795 -13.569379 -0.220049
28.506405 -13.749857 0.220957
28.536867 -13.764551 0.663665
28.368706 -13.836342 -0.661152
28.428164 -13.865341 -0.220817
28.483984 -14.046746 0.221725
28.532232 -14.070539 0.666388
28.398987 -14.159212 -0.664712
28.458220 -14.188745 -0.222004
28.431757 -14.330785 0.222283
28.479780 -14.354991 0.668063
28.372334 -14.456427 -0.667016
28.404596 -14.472864 -0.222563
28.412296 -14.633294 0.223121
28.451197 -14.653330 0.670367
28.316044 -14.740399 -0.668691
28.410265 -14.789448 -0.223610
28.389711 -14.936550 0.223959
28.463808 -14.975534 0.673718
28.371712 -15.085506 -0.673089
28.386074 -15.093143 -0.224448
28.399225 -15.259454 0.225076
28.402496 -15.261211 0.675393
28.335636 -15.384995 -0.675393
28.393888 -15.416624 -0.225565
28.378954 -15.569227 0.225983
28.443544 -15.604663 0.679582
28.270254 -15.670458 -0.677068
28.293259 -15.683209 -0.225844
28.372879 -15.889576 0.227031
28.376070 -15.891363 0.681257
28.193340 -15.951024 -0.678534
28.294575 -16.008299 -0.226961
28.337318 -16.196112 0.227868
28.375195 -16.217760 0.684608
28.200262 -16.281429 -0.682095
28.249060 -16.309603 -0.227729
28.333115 -16.523384 0.228985
28.336227 -16.525200 0.687121
28.220781 -16.623310 -0.686074
28.252132 -16.641777 -0.228916
28.325344 -16.851809 0.230102
28.362783 -16.874083 0.691309
28.186050 -16.935886 -0.688796
28.277260 -16.990692 -0.230312
28.245600 -17.139851 0.230661
28.317019 -17.183189 0.693822
28.207676 -17.285686 -0.692985
28.230228 -17.299505 -0.231150
28.231007 -17.469877 0.231778
28.268011 -17.492775 0.696335
28.191416 -17.615952 -0.696335
28.213873 -17.629984 -0.232267
28.246620 -17.822290 0.233174
28.283392 -17.845491 0.700524
28.137800 -17.925756 -0.698849
28.168589 -17.945370 -0.233174
28.190941 -18.133022 0.234012
28.261122 -18.178164 0.703875
28.114456 -18.257742 -0.702199
28.170258 -18.293980 -0.234501
28.165432 -18.466066 0.235129
28.201746 -18.489874 0.706388
28.087452 -18.590679 -0.705550
28.142962 -18.627419 -0.235618
28.202763 -18.844482 0.236804
28.238829 -18.868582 0.711414
28.056767 -18.924528 -0.708901
28.145140 -18.984137 -0.237014
28.169493 -19.179924 0.237921
28.205320 -19.204319 0.714765
28.047102 -19.276239 -0.712880
28.102018 -19.313982 -0.238061
28.132505 -19.516214 0.239038
28.200953 -19.563698 0.718953
28.008856 -19.612013 -0.716231
28.063465 -19.650249 -0.239178
28.157114 -19.899481 0.240714
28.192448 -19.924452 0.723142
27.999432 -19.971800 -0.720419
28.061878 -20.016342 -0.240644
28.079775 -20.214546 0.241552
28.114872 -20.239811 0.725655
27.985849 -20.332909 -0.724608
28.039846 -20.372141 -0.241970
28.031332 -20.553423 0.242669
28.098431 -20.602621 0.729843
27.911825 -20.653666 -0.727330
27.997652 -20.717173 -0.243157
28.043200 -20.940851 0.244344
28.109831 -20.990606 0.734870
27.946112 -21.058907 -0.732985
28.007465 -21.105139 -0.244833
27.986748 -21.281618 0.245461
28.084749 -21.356140 0.739058
27.927845 -21.429789 -0.737383
27.941223 -21.440056 -0.245880
27.989729 -21.671963 0.247137
28.087040 -21.747309 0.744084
27.889463 -21.789637 -0.741362
27.942181 -21.830824 -0.247555
27.956602 -22.039207 0.248533
27.990408 -22.065859 0.746597
27.886038 -22.181557 -0.746388
27.907127 -22.198332 -0.248952
27.950378 -22.432550 0.250208
28.007307 -22.478241 0.752252
27.784645 -22.499561 -0.748901
27.867775 -22.566879 -0.250348
27.908430 -22.802145 0.251605
27.933958 -22.823002 0.755603
27.834108 -22.944670 -0.755603
27.885834 -22.987307 -0.252303
27.885214 -23.191887 0.253210
27.948957 -23.244904 0.761466
27.785997 -23.315220 -0.759791
27.837378 -23.358332 -0.253699
27.872570 -23.595873 0.254956
27.905291 -23.623571 0.765864
27.733526 -23.686668 -0.763979
27.754141 -23.704277 -0.254816
27.839834 -23.988337 0.256561
27.902573 -24.042395 0.771519
27.737040 -24.111441 -0.769843
27.787729 -24.155504 -0.257050
27.839951 -24.414980 0.258516
27.872107 -24.443180 0.776545
27.735235 -24.538063 -0.775707
27.785580 -24.582605 -0.259005
27.775040 -24.790171 0.259912
27.836756 -24.845253 0.781571
27.638924 -24.886200 -0.779058
27.659176 -24.904434 -0.259843
27.764906 -25.219864 0.261867
27.826097 -25.275448 0.787435
27.656578 -25.342585 -0.785760
27.706207 -25.388062 -0.262356
27.778744 -25.678406 0.264101
27.810036 -25.707333 0.793299
27.631796 -25.767065 -0.791414
27.688375 -25.819828 -0.264311
27.728407 -26.084280 0.265777
27.781258 -26.133999 0.798953
27.616198 -26.206793 -0.797487
27.636089 -26.225670 -0.265986
27.701982 -26.518879 0.267731
27.732693 -26.548277 0.804189
27.551865 -26.606525 -0.802304
27.600395 -26.653393 -0.267871
27.641418 -26.927078 0.269407
27.671837 -26.956711 0.809215
27.546822 -27.070187 -0.809006
27.602119 -27.124527 -0.270175
27.632639 -27.392546 0.271641
27.691154 -27.450552 0.816754
27.542839 -27.542839 -0.815917
27.590633 -27.590633 -0.272409
27.589664 -27.831486 0.273596
27.647633 -27.889963 0.822618
27.490641 -27.974678 -0.821571
27.510017 -27.994398 -0.274014
27.596941 -28.329052 0.276109
27.647371 -28.380819 0.829948
27.446878 -28.422073 -0.827644
27.549480 -28.528320 -0.276877
27.569954 -28.799950 0.278343
27.619888 -28.852112 0.836650
27.438679 -28.914333 -0.834974
27.492212 -28.970747 -0.278832
27.536833 -29.272516 0.280577
27.593119 -29.332348 0.843561
27.403503 -29.386660 -0.841676
27.449764 -29.436270 -0.280996
27.497547 -29.746679 0.282811
27.546480 -29.799614 0.850053
27.362158 -29.860554 -0.848377
27.408028 -29.910612 -0.283230
27.452068 -30.222370 0.285045
27.534105 -30.312685 0.857801
27.287851 -30.306229 -0.854241
27.366776 -30.393883 -0.285534
27.400362 -30.699512 0.287279
27.448280 -30.753199 0.863456
27.287334 -30.842720 -0.862618
27.358915 -30.923628 -0.288256
27.395151 -31.238182 0.290071
27.475506 -31.329811 0.872880
27.253275 -31.351305 -0.870158
27.297951 -31.402700 -0.290490
27.356495 -31.748775 0.292585
27.409897 -31.810751 0.879582
27.238371 -31.892035 -0.878534
27.256670 -31.913460 -0.293003
27.285151 -32.230522 0.294819
27.357349 -32.315807 0.886912
27.227819 -32.448853 -0.295726
27.284197 -32.805683 0.297890
27.355595 -32.891525 0.896126
27.243628 -33.344536 0.300613
27.295248 -33.407715 0.903665
27.227007 -33.924149 0.303685
27.246731 -33.948723 0.911833
27.183752 -34.482426 0.306547
27.221781 -34.530663 0.921048
27.151175 -35.066227 0.309619
27.225452 -35.162159 0.931519
22.311132 -30.428545 0.790367
21.400543 -29.727230 0.255724
0.157713 -0.219077 0.005654
22.120682 -30.727566 0.793089
21.759373 -30.788799 0.789739
0.188094 -0.271137 0.002304
0.153865 -0.221796 0.005654
0.133334 -0.199548 0.001676
0.144417 -0.216135 0.005445
0.137070 -0.209066 0.001745
0.126080 -0.192304 0.004817
0.151469 -0.235485 0.001955
0.135214 -0.210214 0.005236
0.128064 -0.202970 0.001676
0.117369 -0.186019 0.004607
0.147336 -0.238093 0.001955
0.157830 -0.255050 0.006283
0.129690 -0.213723 0.001745
0.119292 -0.196587 0.004817
0.138046 -0.232034 0.001885
0.127795 -0.214804 0.005236
0.130953 -0.224548 0.005445