# This PCD file was generated using the MATLAB® pcwrite function
# from Computer Vision System Toolbox®.
# .PCD v.7 - Point Cloud Data file format
VERSION .7
FIELDS x y z
SIZE 4 4 4
TYPE F F F
COUNT 1 1 1
WIDTH 921
HEIGHT 1
VIEWPOINT 0 0 0 1 0 0 0
POINTS 921
DATA ascii
30.377308 32.011002 -0.924398
30.534664 32.176823 -0.309689
30.238792 31.313187 -0.911833
30.404455 31.484735 -0.305570
30.489874 31.026720 -0.911205
30.481802 31.018507 -0.303615
30.186838 30.186838 -0.894241
30.496773 30.496773 -0.301102
29.857246 29.340635 -0.876859
30.405127 29.879034 -0.297611
30.054617 29.023407 -0.875184
29.909420 28.883192 -0.290281
30.459042 28.904552 -0.879582
29.986246 28.455885 -0.288605
30.388393 28.337635 -0.870367
30.321186 28.274963 -0.289443
30.634525 28.071371 -0.870367
30.389832 27.847149 -0.287768
30.677721 27.622343 -0.864713
30.453333 27.420303 -0.286092
30.640547 27.108465 -0.856964
30.511713 26.994482 -0.284417
30.755217 26.735102 -0.853613
30.353680 26.386051 -0.280786
30.744074 26.257919 -0.846911
30.400290 25.964300 -0.279111
30.665693 25.731571 -0.838534
30.595070 25.672312 -0.278832
30.765640 25.361237 -0.835184
30.632750 25.251690 -0.277156
30.706072 24.865288 -0.827644
30.735374 24.889015 -0.276109
30.765404 24.471907 -0.823456
30.763577 24.470453 -0.274433
30.883247 24.128637 -0.820943
30.723791 24.004055 -0.272199
30.846745 23.669540 -0.814451
30.583027 23.467180 -0.269128
30.796616 23.206915 -0.807749
30.443243 22.940630 -0.266126
30.644341 22.675619 -0.798534
30.513662 22.578922 -0.265009
30.703550 22.307434 -0.794974
30.474928 22.141331 -0.262984
30.091249 21.463881 -0.774241
30.284359 21.601624 -0.259703
30.514912 21.366772 -0.780315
29.767260 20.843260 -0.253699
30.881475 21.224251 -0.784922
29.816158 20.492079 -0.252582
29.871962 20.148891 -0.754765
30.060169 20.275841 -0.253141
30.105013 19.926073 -0.756231
30.719604 20.332863 -0.257190
30.732767 20.149284 0.256561
30.701693 20.128912 0.769006
30.822769 20.016541 -0.769843
30.820393 20.014997 -0.256561
30.781279 19.799183 0.255514
30.716417 19.757463 0.765027
30.844492 19.650108 -0.766074
30.791471 19.616331 -0.254886
30.716085 19.380407 0.253559
30.650909 19.339283 0.759163
30.870659 19.290129 -0.762514
30.766436 19.225002 -0.253280
30.747988 19.027431 0.252442
30.682482 18.986895 0.755812
30.807657 18.878956 -0.756859
30.753981 18.846064 -0.251814
30.844469 18.716883 0.251884
30.778625 18.676928 0.754137
30.825546 18.521856 -0.753299
30.857271 18.540918 -0.251325
30.843344 18.349861 0.250557
30.837332 18.346285 0.751623
30.787872 18.135443 -0.748482
30.776644 18.128828 -0.249371
30.864090 17.999405 0.249440
30.866711 18.000933 0.748482
30.867035 17.821091 -0.746597
30.890373 17.834566 -0.249022
30.915806 17.669840 0.248603
30.840338 17.626705 0.744084
30.960464 17.516588 -0.745131
30.914282 17.490459 -0.247974
30.920506 17.316315 0.247416
30.897032 17.303169 0.741781
30.963491 17.163343 -0.741571
30.952038 17.156994 -0.247067
30.903866 16.954441 0.246089
30.871544 16.936708 0.737592
31.006655 16.835239 -0.739058
30.968760 16.814665 -0.246020
30.936129 16.622581 0.245182
30.903677 16.605145 0.734870
30.984663 16.474838 -0.735079
31.008364 16.487440 -0.245182
30.911865 16.263519 0.243855
30.879295 16.246384 0.730890
30.941021 16.106876 -0.730681
31.009144 16.142338 -0.244065
30.874813 15.901573 0.242459
30.806576 15.866429 0.725864
30.946777 15.768171 -0.727540
30.863714 15.725847 -0.241831
30.833811 15.541520 0.241063
30.836729 15.542991 0.723351
30.975832 15.443980 -0.725027
30.892382 15.402373 -0.240993
30.833733 15.205515 0.240016
30.755989 15.167175 0.718325
31.001595 15.120487 -0.722513
30.908773 15.075216 -0.240086
30.848164 14.879388 0.239108
30.815134 14.863456 0.716650
30.870670 14.724555 -0.716440
30.939869 14.757561 -0.239318
30.904480 14.575499 0.238550
30.871326 14.559863 0.714974
30.771461 14.348969 -0.711205
30.949657 14.432062 -0.238410
30.885197 14.238271 0.237433
30.851936 14.222938 0.711623
30.895508 14.079894 -0.711205
30.965227 14.111667 -0.237572
30.825924 13.886066 0.236036
29.124409 13.119590 0.669110
30.889332 13.752816 -0.708273
30.877085 13.747363 -0.235967
29.115349 12.811060 0.222074
29.045614 12.780376 0.664712
30.888977 13.430910 -0.705550
30.876659 13.425554 -0.235059
29.079033 12.493339 0.220957
29.468357 12.660605 0.671833
30.977398 13.149125 -0.704922
29.188498 12.389782 -0.221376
29.509712 12.374449 0.223400
30.047937 12.600146 0.682513
29.169716 12.082492 -0.661362
29.286268 12.130769 -0.221306
30.190395 12.351217 0.227729
30.147497 12.333667 0.682304
29.190617 11.793775 -0.659477
29.771149 12.028324 -0.224168
30.213438 12.053940 0.227100
30.142546 12.025657 0.679791
29.711020 11.703482 -0.668901
30.200619 11.896340 -0.226612
30.354757 11.804319 0.227380
30.171797 11.733170 0.678116
30.325377 11.640821 -0.680419
30.396639 11.668176 -0.227310
29.951651 11.347666 0.223610
30.095400 11.402127 0.674137
30.285336 11.323223 -0.677278
30.338074 11.342940 -0.226123
30.255934 11.162004 0.225146
30.221895 11.149446 0.674765
30.101149 10.955922 -0.670995
30.285555 11.023041 -0.225006
30.239248 10.856999 0.224308
30.167486 10.831234 0.671414
30.091942 10.656116 -0.668691
30.182646 10.688235 -0.223540
30.219553 10.553141 0.223470
30.034325 10.488456 0.666388
30.117615 10.370326 -0.667225
30.236948 10.411416 -0.223261
30.083237 10.211883 0.221795
30.200447 10.251670 0.668063
30.235409 10.116627 -0.667854
30.222338 10.112253 -0.222493
30.171206 9.948972 0.221795
30.174818 9.950163 0.665550
30.284506 9.840033 -0.667016
30.119226 9.786329 -0.221097
30.171164 9.657866 0.221166
30.146238 9.649887 0.663037
30.140381 9.503225 -0.661990
30.279776 9.547176 -0.221655
30.177895 9.370485 0.220608
30.143368 9.359764 0.661152
30.269968 9.254458 -0.663037
30.256744 9.250415 -0.220887
30.181913 9.083725 0.220049
30.156883 9.076192 0.659686
30.234543 8.955879 -0.660524
30.182909 8.940585 -0.219770
30.106430 8.775224 0.218932
30.071766 8.765121 0.656126
30.273102 8.680673 -0.659686
30.173269 8.652046 -0.219142
30.152988 8.504022 0.218723
30.118242 8.494223 0.655498
30.222458 8.381430 -0.656964
30.209078 8.377719 -0.218863
30.139221 8.216895 0.218095
30.142992 8.217923 0.654451
30.217190 8.096672 -0.655288
30.174788 8.085310 -0.218095
30.142088 7.935750 0.217606
30.145880 7.936748 0.652985
30.257658 7.825162 -0.654660
30.205471 7.811666 -0.217815
30.132654 7.652719 0.217047
30.097710 7.643845 0.650472
30.247185 7.541471 -0.652985
30.194868 7.528426 -0.217257
30.159437 7.379967 0.216768
30.075867 7.359518 0.648587
30.234072 7.258559 -0.651309
30.171904 7.243633 -0.216629
30.105886 7.088995 0.215930
30.109749 7.089905 0.647958
30.130657 6.956210 -0.647749
30.126789 6.955317 -0.215861
30.078825 6.806143 0.215302
30.082712 6.807023 0.646074
30.199974 6.695173 -0.647958
30.186337 6.692150 -0.215861
30.097984 6.534913 0.215023
30.062807 6.527275 0.644398
30.169235 6.412669 -0.646074
30.155556 6.409761 -0.215232
30.114704 6.263867 0.214744
30.079470 6.256538 0.643561
30.184858 6.141179 -0.645236
30.171146 6.138389 -0.214953
30.099567 5.987176 0.214255
30.093699 5.986009 0.642723
30.207859 5.871813 -0.644608
30.194117 5.869142 -0.214744
30.101547 5.714957 0.213906
30.105501 5.715708 0.641885
30.169476 5.591582 -0.642723
30.155693 5.589027 -0.214115
30.150272 5.452057 0.213906
30.164070 5.454553 0.642095
30.177738 5.321149 -0.641885
30.163927 5.318714 -0.213836
30.157280 5.181969 0.213627
30.161255 5.182652 0.641047
30.183580 5.050999 -0.641047
30.209192 5.055285 -0.213836
30.171743 4.913781 0.213417
30.175730 4.914430 0.640419
30.187010 4.781153 -0.640210
30.163267 4.777392 -0.213208
30.124525 4.636608 0.212789
30.177940 4.644829 0.639582
30.148479 4.505721 -0.638534
30.184029 4.511033 -0.213068
30.173735 4.374983 0.212859
30.138170 4.369827 0.637906
30.186651 4.242457 -0.638534
30.222244 4.247459 -0.213068
30.171131 4.106111 0.212579
30.175156 4.106658 0.637906
30.222525 3.978871 -0.638534
30.218502 3.978341 -0.212789
30.116537 3.831307 0.211951
30.170172 3.838131 0.637068
30.226326 3.711326 -0.637906
30.212368 3.709612 -0.212510
30.158754 3.569524 0.212021
30.123089 3.565303 0.635393
30.207893 3.441755 -0.636859
30.203848 3.441294 -0.212230
30.188755 3.306206 0.212021
30.192808 3.306650 0.636231
30.197006 3.173833 -0.636021
30.232729 3.177588 -0.212230
30.216457 3.042637 0.212021
30.180725 3.039039 0.635393
30.233505 2.911155 -0.636231
30.209538 2.908848 -0.211881
30.202028 2.775177 0.211742
30.166271 2.771891 0.634555
30.168119 2.639369 -0.634346
30.154079 2.638140 -0.211323
30.175268 2.507371 0.211393
30.179348 2.507710 0.634346
30.199970 2.376789 -0.634555
30.215828 2.378037 -0.211602
30.205973 2.244691 0.211462
30.160202 2.241290 0.633508
30.219563 2.113158 -0.634555
30.235430 2.114267 -0.211602
30.184496 1.978396 0.211183
30.148684 1.976049 0.632880
30.236851 1.849365 -0.634555
30.252729 1.850336 -0.211602
30.200611 1.714915 0.211183
30.204706 1.715147 0.633718
30.251839 1.585432 -0.634555
30.237766 1.584694 -0.211393
30.214428 1.451303 0.211183
30.178577 1.449581 0.632880
30.264523 1.321378 -0.634555
30.250443 1.320763 -0.211393
30.265909 1.189151 0.211462
30.220049 1.187349 0.633508
30.304876 1.058270 -0.635184
30.290798 1.057778 -0.211602
30.275135 0.924989 0.211462
30.279226 0.925114 0.634555
30.312958 0.793773 -0.635184
30.298876 0.793404 -0.211602
30.282053 0.660757 0.211462
30.176195 0.658447 0.632252
30.318729 0.529215 -0.635184
30.304646 0.528970 -0.211602
30.206676 0.395427 0.210904
30.130808 0.394434 0.631205
30.322193 0.264618 -0.635184
30.348104 0.264844 -0.211881
30.178978 0.131681 0.210694
30.133102 0.131481 0.631205
30.243366 0.000000 -0.633508
30.139265 0.000000 -0.210415
30.168978 -0.131638 0.210625
30.133102 -0.131481 0.631205
30.152237 -0.263135 -0.631623
30.198114 -0.263535 -0.210834
30.116686 -0.394249 0.210276
30.130808 -0.394434 0.631205
30.128799 -0.525900 -0.631205
30.114679 -0.525654 -0.210276
30.122095 -0.657266 0.210345
30.086237 -0.656484 0.630367
30.203018 -0.790894 -0.632880
30.148930 -0.789478 -0.210555
30.115213 -0.920103 0.210345
30.119335 -0.920229 0.631205
30.155001 -1.053036 -0.632042
30.170874 -1.053590 -0.210764
30.106037 -1.182869 0.210345
30.110159 -1.183031 0.631205
30.184616 -1.317889 -0.632880
30.170521 -1.317273 -0.210834
30.054615 -1.443627 0.210066
30.058743 -1.443825 0.630367
30.171967 -1.581246 -0.632880
30.157877 -1.580507 -0.210834
30.120743 -1.710380 0.210625
30.084925 -1.708346 0.631205
30.107122 -1.841431 -0.631833
30.093031 -1.840569 -0.210485
30.094692 -1.972510 0.210555
29.430382 -1.928969 0.617801
30.099880 -2.104789 -0.632042
30.085798 -2.103804 -0.210555
30.036444 -2.232093 0.210276
29.203053 -2.170162 0.613403
30.120235 -2.370514 -0.632880
30.175953 -2.374899 -0.211323
30.623713 -2.544634 0.214534
30.508142 -2.535031 0.641257
30.207958 -2.642854 -0.635184
30.632240 -2.679974 -0.214674
30.520678 -2.804456 0.213976
30.524683 -2.804824 0.642095
30.661430 -2.952360 -0.645236
30.647503 -2.951019 -0.214953
30.574638 -3.078704 0.214534
30.538834 -3.075099 0.642932
30.634499 -3.219816 -0.645236
30.590748 -3.215217 -0.214744
30.546606 -3.345397 0.214534
30.510836 -3.341480 0.642932
30.575434 -3.483631 -0.644608
30.561525 -3.482046 -0.214744
30.516251 -3.611836 0.214534
30.520229 -3.612307 0.643770
30.573641 -3.753971 -0.645236
30.559752 -3.752266 -0.214953
30.523249 -3.883048 0.214813
30.527216 -3.883552 0.644608
30.579367 -4.025850 -0.646074
30.575415 -4.025330 -0.215302
30.527834 -4.154656 0.215093
30.531790 -4.155194 0.645445
30.592573 -4.299506 -0.647121
30.578733 -4.297561 -0.215581
30.530001 -4.426640 0.215372
30.533943 -4.427211 0.646283
30.593439 -4.572220 -0.647958
30.579626 -4.570156 -0.215861
30.569277 -4.705061 0.215930
30.533672 -4.699582 0.647121
30.581999 -4.843713 -0.648587
30.568209 -4.841529 -0.216070
30.527054 -4.971646 0.215930
30.530970 -4.972284 0.647958
30.617451 -5.123604 -0.650262
30.564245 -5.114701 -0.216349
30.571203 -5.253094 0.216559
30.575098 -5.253763 0.649843
30.601112 -5.395802 -0.650890
30.587383 -5.393381 -0.216838
30.553719 -5.525012 0.216768
30.557600 -5.525714 0.650472
30.611843 -5.673570 -0.652147
30.588314 -5.669209 -0.217187
30.582935 -5.806352 0.217327
30.586796 -5.807085 0.652147
30.639679 -5.955750 -0.653822
30.616205 -5.951188 -0.217746
30.570332 -6.080817 0.217606
30.574179 -6.081582 0.652985
30.625729 -6.230875 -0.654660
30.641499 -6.234083 -0.218304
30.555265 -6.355504 0.217885
30.549307 -6.354265 0.653613
30.570189 -6.497894 -0.654660
30.595711 -6.503319 -0.218374
30.615904 -6.647365 0.218723
30.580626 -6.639705 0.655498
30.629450 -6.790386 -0.657173
30.567083 -6.776559 -0.218583
30.556730 -6.914282 0.218723
30.521519 -6.906315 0.655498
30.607992 -7.066412 -0.658011
30.555500 -7.054293 -0.218932
30.573097 -7.199009 0.219281
30.576868 -7.199897 0.658011
30.622934 -7.351916 -0.659686
30.570566 -7.339344 -0.219491
30.547964 -7.475039 0.219561
30.512875 -7.466453 0.658011
30.674023 -7.647892 -0.662199
30.612083 -7.632450 -0.220259
30.597874 -7.770870 0.220398
30.562838 -7.761972 0.660524
30.644833 -7.925292 -0.663037
30.631445 -7.921830 -0.220887
30.606258 -8.057956 0.220957
30.609961 -8.058929 0.663037
30.651762 -8.213115 -0.664712
30.638420 -8.209540 -0.221446
30.611956 -8.345778 0.221515
30.577051 -8.336261 0.663875
30.655996 -8.501660 -0.666388
30.642702 -8.497973 -0.222004
30.614956 -8.634311 0.222074
30.580120 -8.624486 0.665550
30.657522 -8.790903 -0.668063
30.644276 -8.787105 -0.222563
30.576843 -8.912337 0.222353
30.542086 -8.902206 0.666388
30.617987 -9.069461 -0.668901
30.604780 -9.065549 -0.222842
30.574509 -9.201882 0.222912
30.539827 -9.191444 0.668063
30.652407 -9.371381 -0.671414
30.601006 -9.355666 -0.223400
30.569443 -9.492064 0.223470
30.573032 -9.493178 0.670576
30.645741 -9.662565 -0.673089
30.632643 -9.658435 -0.224238
30.599731 -9.795052 0.224308
30.565201 -9.783998 0.672252
30.636320 -9.954344 -0.674765
30.623274 -9.950105 -0.224797
30.579567 -10.083629 0.224797
30.583099 -10.084794 0.674555
30.662062 -10.259382 -0.677278
30.649075 -10.255036 -0.225634
30.575628 -10.379027 0.225425
30.531799 -10.364149 0.675393
30.646990 -10.552605 -0.678953
30.624599 -10.544895 -0.226123
30.634943 -10.698201 0.226542
30.591215 -10.682930 0.678744
30.572584 -10.826320 -0.679372
30.691660 -10.868486 -0.227310
30.615709 -10.992163 0.227100
28.097353 -10.087980 0.625341
30.637970 -11.000155 0.681885
30.138727 -10.969600 -0.671833
30.595646 -11.135904 -0.227310
28.191963 -10.400564 0.209787
30.612438 -11.293525 0.227799
27.736233 -10.232437 0.619267
30.625229 -11.298244 0.683770
29.096022 -10.878557 -0.650681
30.622463 -11.449270 -0.684817
28.239979 -10.558496 -0.210485
30.637800 -11.455005 -0.228357
27.679327 -10.486759 0.206645
30.596878 -11.592120 0.228427
30.572214 -11.582776 0.684817
28.430624 -10.913494 -0.637906
30.680059 -11.776971 -0.688377
27.698656 -10.632518 -0.207134
30.658033 -11.768517 -0.229265
27.987514 -10.883749 0.209647
30.615713 -11.905800 0.229334
27.851606 -10.830897 0.625969
27.692457 -10.908349 -0.623456
30.669140 -12.080895 -0.690472
30.656511 -12.075921 -0.230033
27.937910 -11.146096 0.209996
27.756029 -11.073533 0.625969
28.115318 -11.359326 -0.635184
28.000271 -11.312843 -0.210834
27.839581 -11.389473 0.209996
27.658339 -11.315325 0.625969
28.089014 -11.634851 -0.636859
27.928198 -11.568238 -0.211043
27.739130 -11.631982 0.209996
27.530882 -11.544657 0.625341
27.940397 -11.859996 -0.635812
27.586859 -11.709927 -0.209228
27.544689 -11.834132 0.209298
27.392345 -11.768681 0.624503
26.277178 -11.425642 -0.600210
27.318554 -11.878446 -0.207972
27.165783 -11.953231 0.207204
27.398415 -12.055592 0.627016
26.532675 -11.813108 -0.608377
30.679262 -13.659287 -0.703456
27.387424 -12.193667 -0.209298
27.425135 -12.354122 0.209996
27.292170 -12.294226 0.627016
26.246626 -11.961276 -0.604189
30.640774 -13.963805 -0.705341
27.198080 -12.394879 -0.208670
25.708906 -11.851969 0.197639
27.207306 -12.542740 0.209159
27.220161 -12.548666 0.627854
25.932840 -12.092682 -0.599372
27.355431 -12.756047 -0.632252
30.671791 -14.302490 -0.708901
25.956022 -12.103492 -0.199943
27.560148 -12.851508 -0.212300
30.659645 -14.296827 -0.236176
26.282825 -12.395785 0.202875
26.178234 -12.346457 0.606283
25.194654 -12.017234 -0.584712
26.728712 -12.748942 -0.620314
30.645073 -14.616950 -0.711205
27.780897 -13.250809 -0.214883
30.669100 -14.628410 -0.237223
25.678282 -12.385733 0.199036
27.263472 -13.150337 0.211323
26.960991 -13.004438 0.627016
24.954037 -12.170897 -0.581571
30.624184 -14.936412 -0.713718
25.453228 -12.414369 -0.197709
27.754084 -13.536572 -0.215581
30.639143 -14.943708 -0.237991
25.560249 -12.604920 0.198966
27.551260 -13.586778 0.214464
25.501467 -12.575932 0.595602
26.801647 -13.217110 0.625969
24.909508 -12.419423 -0.583037
30.635832 -15.274463 -0.717068
25.236534 -12.582472 -0.196872
30.588112 -15.250669 -0.238619
26.047562 -13.129051 0.203643
30.601643 -15.424498 0.239248
25.828215 -13.018492 0.605864
27.194174 -13.706992 0.637906
25.085241 -12.781569 -0.589739
30.688442 -15.636542 -0.721466
25.508896 -12.997431 -0.199873
30.676607 -15.630512 -0.240365
25.789759 -13.282598 0.202526
30.643675 -15.782529 0.240644
27.597929 -14.213867 0.650262
24.937275 -12.981524 -0.588901
30.657240 -15.959148 -0.723979
26.609676 -13.852120 -0.209438
30.672087 -15.966878 -0.241412
25.699415 -13.521116 0.202736
30.619825 -16.109869 0.241552
25.331638 -13.327621 0.599581
27.729429 -14.589159 0.656335
24.937799 -13.259663 -0.591623
30.728664 -16.338720 -0.729006
24.863199 -13.219997 -0.196592
26.452465 -14.065025 -0.209159
30.699339 -16.323128 -0.242738
25.915174 -13.924726 0.205389
30.671867 -16.480589 0.243087
25.778017 -13.851028 0.612985
30.551397 -16.415857 0.726493
24.803566 -13.467237 -0.591205
26.727753 -14.511986 -0.637068
30.699135 -16.668270 -0.731728
24.878706 -13.508036 -0.197639
27.172363 -14.753389 -0.215861
30.669970 -16.652435 -0.243646
25.415689 -13.943524 0.202387
30.614552 -16.795719 0.243786
25.761349 -14.133160 0.615498
30.626114 -16.802061 0.731728
25.087336 -13.906137 -0.600838
27.352104 -15.161519 -0.655079
30.701162 -17.017933 -0.735288
25.249655 -13.996113 -0.201549
30.698404 -17.016403 -0.245042
30.650038 -17.164846 0.245252
26.108078 -14.621226 0.626807
30.609171 -17.141958 0.734870
26.653149 -15.079626 -0.641466
30.638502 -17.334431 -0.737383
24.917677 -14.097743 -0.199873
30.679291 -17.357508 -0.246089
27.252096 -15.575856 0.219142
30.664036 -17.525940 0.246578
27.125263 -15.503365 0.654451
30.623337 -17.502678 0.738849
24.988012 -14.426835 -0.604398
30.719843 -17.736109 -0.743037
27.279135 -15.749617 -0.219910
30.708513 -17.729568 -0.247555
26.925097 -15.702252 0.217606
28.177628 -16.432707 0.227729
26.721209 -15.583348 0.647958
30.659435 -17.880054 0.743456
24.680262 -14.537785 -0.600000
30.718958 -18.094849 -0.746807
25.124495 -14.799458 -0.203574
26.916639 -15.855112 -0.218095
30.681868 -18.073000 -0.248603
26.872984 -15.987745 0.218304
30.628498 -18.222042 0.248812
27.030996 -16.081753 0.658849
30.648304 -18.233824 0.747016
26.789173 -16.096560 -0.654660
30.714138 -18.454916 -0.750576
25.380106 -15.249906 -0.206715
27.008684 -16.228455 -0.219980
30.642984 -18.412163 -0.249580
25.364616 -15.391627 0.207134
26.792286 -16.257957 0.218793
30.656393 -18.602757 0.250348
26.812704 -16.270348 0.656964
30.667511 -18.609503 0.751414
23.246397 -14.245411 -0.571100
24.627373 -15.091673 -0.605026
30.705362 -18.816271 -0.754346
25.433636 -15.585752 -0.208251
26.635830 -16.322458 -0.218095
30.668720 -18.793816 -0.251116
27.006529 -16.712147 0.221725
30.671457 -18.980074 0.251814
26.771719 -16.566843 0.659477
24.426907 -15.263626 -0.603351
25.203375 -15.748816 -0.207483
26.695904 -16.681452 -0.219770
30.647711 -19.150816 -0.252303
25.498072 -16.088085 0.210485
26.918861 -16.984535 0.222214
30.699171 -19.369736 0.253420
25.137974 -15.860880 0.622618
30.625544 -19.323278 0.758534
24.866159 -15.841491 -0.617592
26.940447 -17.162958 -0.669110
30.793901 -19.617878 -0.764817
24.997513 -15.925172 -0.206925
30.740870 -19.584093 -0.254467
25.482861 -16.391127 0.211532
26.904182 -17.305351 0.223331
30.671946 -19.728859 0.254607
27.058701 -17.404741 0.673927
30.657557 -19.719603 0.763561
24.785666 -16.095999 -0.619058
30.730536 -19.956642 -0.767540
25.402712 -16.496714 -0.211462
27.113558 -17.607752 -0.225704
30.719755 -19.949642 -0.255724
25.205051 -16.525156 0.210415
26.827406 -17.588818 0.223959
30.690954 -20.121872 0.256212
30.584639 -20.052168 0.766074
24.619247 -16.295124 -0.618430
26.728516 -17.691219 -0.671414
30.671930 -20.301308 -0.770472
25.749767 -17.043398 -0.215581
30.694590 -20.316305 -0.256980
30.663853 -20.488932 0.257469
26.526377 -17.724358 0.668273
27.798246 -18.574194 0.700315
30.599684 -20.446054 0.770890
24.716478 -16.671474 -0.624503
26.462234 -17.849003 -0.222842
30.648771 -20.672857 -0.258097
30.649200 -20.868298 0.258865
24.800518 -16.886072 0.628482
30.634962 -20.858603 0.776335
24.397024 -16.767611 -0.620105
26.498085 -18.211630 -0.673508
24.822077 -17.059740 -0.210276
26.643351 -18.311468 -0.225704
30.697952 -21.098118 -0.260052
24.763836 -17.179283 0.210415
26.415306 -18.324949 0.224448
30.679548 -21.283161 0.260680
24.726149 -17.153139 0.630367
24.356239 -17.054422 -0.622828
24.926189 -17.453506 -0.212440
23.428875 -16.557892 0.200292
30.680475 -21.682816 0.262286
23.350826 -16.502733 0.598953
24.534697 -17.339409 0.629320
24.499502 -17.475325 -0.630367
25.074146 -17.885216 -0.215023
30.740253 -21.926809 -0.263612
23.348415 -16.808453 0.200851
23.376318 -16.828541 0.603351
26.248661 -18.896332 0.677487
24.249010 -17.617937 -0.627854
30.735903 -22.330940 -0.795812
23.574181 -17.127645 -0.203434
30.685266 -22.294151 -0.264799
23.329874 -17.106171 0.201968
23.325325 -17.102837 0.605864
25.889257 -18.982788 0.672461
23.636246 -17.489901 -0.615917
30.789001 -22.782663 -0.802304
23.616739 -17.475468 -0.205109
23.436104 -17.500568 0.204202
23.215242 -17.335644 0.606911
25.914877 -19.351555 0.677487
23.346981 -17.593212 -0.612356
30.780647 -23.194881 -0.807330
23.287643 -17.548498 -0.203574
23.202892 -17.643890 0.203504
23.293869 -17.713070 0.612985
25.458519 -19.359108 0.669948
23.486040 -18.021473 -0.620105
30.759495 -23.602591 -0.812147
23.244686 -17.836275 -0.204551
23.158733 -17.931408 0.204481
30.693821 -23.765696 0.271013
23.217461 -17.976877 0.615079
25.770826 -19.953907 0.682723
23.099407 -18.047235 -0.614032
23.072393 -18.026129 -0.204411
22.805048 -17.978050 0.202736
26.016916 -20.510082 0.231289
30.681585 -24.187410 0.272758
22.470840 -17.714582 0.599372
22.956688 -18.260574 -0.614451
24.020802 -19.107008 -0.642932
22.788994 -18.127184 -0.203294
21.454100 -17.218735 0.192054
22.717482 -18.232706 0.203364
30.687706 -24.629488 0.274713
22.494732 -18.053932 0.604189
23.726681 -19.042673 0.637278
23.954155 -19.397692 -0.645655
25.469257 -20.624598 -0.686493
30.752691 -24.903038 -0.828901
22.855307 -18.507862 -0.205319
30.696518 -24.857550 -0.275760
25.020016 -20.442211 0.225565
30.711664 -25.092482 0.276877
22.243422 -18.173637 0.601676
24.209948 -19.780357 0.654869
21.623894 -17.825363 -0.587016
24.077122 -19.847647 -0.653613
30.796497 -25.386673 -0.836021
21.898172 -18.051460 -0.198128
24.737680 -20.392170 -0.223819
24.471640 -20.352848 0.222214
22.237717 -18.494913 0.605864
25.020313 -20.809175 0.681676
21.322001 -17.891283 -0.583037
25.151382 -21.104515 -0.687749
30.742281 -25.795835 -0.840629
21.548306 -18.081175 -0.196383
21.453941 -18.162102 0.196243
25.041046 -21.198811 0.229055
22.052580 -18.668888 0.605236
30.667585 -25.962029 0.841676
21.218275 -18.122120 -0.584503
24.464497 -20.894655 -0.673927
30.797289 -26.303370 -0.848377
21.435322 -18.307495 -0.196802
30.742464 -26.256544 -0.282252
21.484020 -18.511816 0.197989
24.324820 -20.959604 0.224168
25.476290 -21.951775 0.234780
21.555571 -18.573467 0.596021
25.388008 -21.875708 0.701990
22.357140 -19.434765 -0.620524
24.454773 -21.258209 -0.678744
25.503590 -22.169931 -0.707854
21.312479 -18.526655 -0.197151
24.519917 -21.314838 -0.226821
21.284067 -18.665625 0.197639
24.201134 -21.223825 0.224727
30.698404 -26.921778 0.855288
21.190798 -18.748035 -0.592671
22.231619 -19.668875 -0.621780
24.702631 -21.855042 -0.690890
21.449570 -18.976976 -0.199943
30.743883 -27.199890 -0.286581
21.635138 -19.310099 0.202457
21.243053 -18.960150 0.596440
22.160503 -19.779005 0.622199
20.565737 -18.517473 -0.579686
24.169199 -21.762045 -0.681257
21.803337 -19.631813 -0.204830
30.772877 -27.708023 -0.289094
20.955065 -19.034241 0.197639
20.995382 -19.070864 0.594136
20.646608 -18.919132 -0.586597
22.157696 -20.303787 -0.629529
21.351032 -19.564615 -0.202177
20.824879 -19.250320 0.197989
22.068893 -20.400276 0.629529
23.625317 -21.839018 0.673927
20.488037 -19.105404 -0.586807
20.375017 -19.000011 -0.194498
21.808435 -20.336695 -0.208181
21.493704 -20.219257 0.206017
22.972261 -21.610146 0.220189
21.372999 -20.105711 0.614660
20.451071 -19.407341 -0.590576
20.418791 -19.376709 -0.196522
20.926374 -20.032644 0.202247
20.821186 -19.931950 0.603770
21.273405 -20.543488 -0.619477
23.114511 -22.321423 -0.673089
20.141024 -19.449961 -0.195475
20.843878 -20.305208 0.203155
20.868462 -20.329155 0.610262
20.979227 -20.616228 -0.616126
20.947655 -20.585203 -0.205040
20.907349 -20.725689 0.205528
23.165682 -22.964401 0.227729
20.264246 -20.088173 0.597697
20.763172 -20.763172 -0.615079
20.625803 -20.625803 -0.203643
20.598969 -20.779518 0.204272
20.510490 -20.690264 0.610262
23.370197 -23.781685 -0.698430
20.388954 -20.747950 -0.203085
20.361029 -20.901182 0.203713
20.608210 -21.154919 0.618639
20.099005 -20.813128 -0.606074
20.200172 -20.917892 -0.203015
22.923168 -23.737635 -0.230382
20.426798 -21.338112 0.206226
20.395161 -21.305063 0.617801
20.818159 -21.937763 -0.633508
21.877993 -23.054594 -0.665760
20.732735 -21.847744 -0.210276
20.383698 -21.668509 0.207692
20.187914 -21.460384 0.617173
20.175905 -21.636009 -0.619686
20.623127 -22.115597 -0.211113
20.214193 -21.867592 0.207902
21.850063 -23.637266 0.224727
20.929625 -22.641539 0.645864
20.080893 -21.914448 -0.622618
21.418266 -23.373938 -0.664084
20.422594 -22.287352 -0.211043
21.854811 -23.850340 -0.225844
20.278090 -22.324434 0.210555
21.447979 -23.612383 0.222702
21.040466 -23.163746 0.655498
19.989237 -22.200298 -0.625759
20.294237 -22.539034 -0.211742
19.955988 -22.358795 0.209228
21.556520 -24.152040 0.678116
19.682123 -22.246593 -0.622199
19.858238 -22.445656 -0.209228
19.786486 -22.562162 0.209508
20.527525 -23.407156 0.652147
19.920143 -22.915503 -0.636021
19.779697 -22.753939 -0.210485
19.980490 -23.188499 0.213696
20.081013 -23.305162 0.644398
20.660904 -24.190811 -0.666388
22.433510 -26.266264 -0.723561
19.625841 -22.978909 -0.210974
19.900133 -23.506987 0.215023
19.980232 -23.601603 0.647749
22.691853 -27.043097 -0.739477
19.848797 -23.654877 -0.215581
22.709133 -27.063690 -0.246648
21.689243 -26.078480 0.236804
19.722366 -23.713568 0.646074
21.587379 -26.421633 0.238201
21.988014 -26.911985 0.727959
21.406061 -26.671400 0.238759
20.625914 -25.699354 0.690262
20.803185 -26.388714 0.703875
22.088261 -28.527384 0.251884
20.914877 -27.011938 0.715603
20.954767 -27.556917 0.241691
20.533121 -27.002424 0.710576
20.787220 -27.837463 0.727749
30.646832 -41.797005 0.361839
30.695730 -42.639057 0.366795
0.157713 -0.219077 0.005654
0.136796 -0.197190 0.001676
0.153865 -0.221796 0.005654
0.155556 -0.232806 0.001955
0.138862 -0.207822 0.005236
0.131587 -0.200704 0.001676
0.148007 -0.225748 0.005654
0.173108 -0.269126 0.002234
0.156848 -0.243848 0.006073
0.149408 -0.236798 0.001955
0.117369 -0.186019 0.004607
0.147336 -0.238093 0.001955
0.157830 -0.255050 0.006283
0.145253 -0.239369 0.001955
0.119292 -0.196587 0.004817
0.138046 -0.232034 0.001885
0.102236 -0.171844 0.004188
0.130953 -0.224548 0.005445