# This PCD file was generated using the MATLAB® pcwrite function
# from Computer Vision System Toolbox®.
# .PCD v.7 - Point Cloud Data file format
VERSION .7
FIELDS x y z
SIZE 4 4 4
TYPE F F F
COUNT 1 1 1
WIDTH 922
HEIGHT 1
VIEWPOINT 0 0 0 1 0 0 0
POINTS 922
DATA ascii
30.921053 33.158768 -0.316530
30.962280 32.627434 -0.942199
30.899485 32.561260 -0.313389
30.801342 31.895723 -0.928796
30.765669 31.858784 -0.309200
30.594988 31.133684 -0.914346
30.706087 31.246740 -0.305849
30.816025 30.816025 -0.912880
30.779608 30.779608 -0.303894
30.741484 30.209572 -0.902828
30.854462 30.320597 -0.302009
30.255989 29.217869 -0.881048
30.743834 29.688974 -0.298379
30.190712 28.649916 -0.871833
30.095049 28.559135 -0.289652
30.417641 28.364910 -0.871205
30.057905 28.029449 -0.286930
30.664011 28.098389 -0.871205
30.419321 27.874172 -0.288047
30.796597 27.729382 -0.868063
30.691133 27.634420 -0.288326
30.760353 27.214462 -0.860315
30.661501 27.127005 -0.285813
30.755217 26.735102 -0.853613
30.655556 26.648468 -0.283579
30.842905 26.342329 -0.849634
30.582783 26.120165 -0.280786
30.757597 25.808689 -0.841048
30.725294 25.781582 -0.280018
30.796497 25.386673 -0.836021
30.763922 25.359821 -0.278343
30.923626 25.041458 -0.833508
30.859715 24.989704 -0.277226
30.953188 24.621279 -0.828482
30.951399 24.619854 -0.276109
31.017179 24.233276 -0.824503
31.007467 24.225689 -0.274713
31.060904 23.833870 -0.820105
30.963827 23.759380 -0.272479
30.988247 23.351318 -0.812775
30.754704 23.175331 -0.268848
30.933664 22.889708 -0.806074
30.602085 22.644352 -0.265777
30.776346 22.360323 -0.796859
30.580097 22.217741 -0.263892
30.807514 21.974787 -0.792671
30.569292 21.804865 -0.262146
30.220081 21.160328 -0.772775
30.758410 21.537270 -0.262146
30.123446 20.703270 -0.765655
30.393034 20.888554 -0.257469
30.128906 20.322205 -0.761257
29.927526 20.186373 -0.252023
30.890635 20.640463 0.778220
30.080002 19.909519 -0.755603
30.169254 19.968594 -0.252582
30.582239 20.050594 0.255305
30.868914 20.238546 0.773194
30.831154 20.021986 -0.770053
30.812006 20.009550 -0.256492
30.873789 19.858688 0.256282
30.884588 19.865635 0.769215
31.080591 19.800520 -0.771938
30.934845 19.707670 -0.256073
30.919056 19.508471 0.255235
30.887661 19.488663 0.765027
30.870659 19.290129 -0.762514
30.936041 19.330984 -0.254676
30.884041 19.111624 0.253559
30.852514 19.092115 0.760000
31.003721 18.999105 -0.761676
30.933031 18.955786 -0.253280
30.878664 18.737633 0.252163
30.847002 18.718420 0.755812
30.996943 18.624842 -0.757487
30.985844 18.618174 -0.252373
30.972252 18.426554 0.251605
30.880293 18.371843 0.752671
30.994617 18.257225 -0.753508
31.009277 18.265860 -0.251256
31.002300 18.080008 0.250557
30.996256 18.076483 0.751623
30.944960 17.866081 -0.748482
31.002954 17.899565 -0.249929
31.019987 17.729383 0.249440
31.022621 17.730888 0.748482
31.030077 17.555973 -0.746807
31.088348 17.588942 -0.249371
31.025202 17.374949 0.248254
31.036600 17.381330 0.745131
31.112144 17.245743 -0.745131
31.100719 17.239410 -0.248254
31.079206 17.050636 0.247486
31.046850 17.032887 0.741781
31.112089 16.892487 -0.741571
31.109367 16.891008 -0.247137
31.085876 16.703045 0.246369
31.018167 16.666662 0.737592
31.117077 16.545242 -0.738220
31.114315 16.543776 -0.246020
31.124256 16.375263 0.245531
31.091644 16.358107 0.735917
31.118383 16.199205 -0.734870
31.080103 16.179277 -0.244623
31.052612 15.993146 0.243855
31.055447 15.994606 0.731728
31.080400 15.836255 -0.730681
31.068640 15.830263 -0.243437
31.012403 15.631538 0.242459
31.050997 15.650990 0.728377
31.083200 15.497513 -0.727540
31.035568 15.473763 -0.242110
31.004135 15.289547 0.241342
30.899456 15.237926 0.721676
31.109426 15.173080 -0.725027
31.016626 15.127820 -0.240923
30.920218 14.914143 0.239667
30.815134 14.863456 0.716650
31.132362 14.849376 -0.722513
30.994024 14.783391 -0.239736
30.976833 14.609623 0.239108
30.907497 14.576921 0.715812
31.007051 14.458825 -0.716650
31.067474 14.487001 -0.239318
31.030497 14.305255 0.238550
30.960890 14.273166 0.714137
31.022875 14.137938 -0.714137
31.083519 14.165576 -0.238480
31.008272 13.968207 0.237433
29.179102 13.144227 0.670367
31.029573 13.977803 0.712880
31.072001 13.834146 -0.712461
30.977571 13.792104 -0.236735
29.426546 12.947990 0.224448
30.982538 13.632644 0.236316
29.164579 12.832722 0.667435
31.035675 13.494696 -0.708901
31.023386 13.489352 -0.236176
29.189285 12.540707 0.221795
29.275454 12.577727 0.667435
31.078630 13.192097 -0.707226
29.372595 12.467926 -0.222772
30.983438 13.151690 -0.234989
29.269945 12.273907 0.221585
29.826658 12.507356 0.677487
31.090965 12.878300 -0.704922
29.258553 12.119289 -0.221097
29.736891 12.165684 0.224308
29.897655 12.231454 0.676650
29.255505 11.819991 -0.660943
29.557901 11.942167 -0.222563
30.287741 12.083584 0.227659
30.105402 12.010838 0.678953
29.478466 11.611876 -0.663665
30.237835 11.910999 -0.226891
30.317476 11.789822 0.227100
30.134523 11.718676 0.677278
29.970694 11.504671 -0.672461
30.349960 11.650258 -0.226961
30.419207 11.524807 0.227100
30.244989 11.458801 0.677487
30.425804 11.375742 -0.680419
30.525402 11.412980 -0.227519
30.058918 11.089320 0.223680
30.221895 11.149446 0.674765
30.420574 11.072184 -0.678116
30.435902 11.077763 -0.226123
30.352186 10.897549 0.225146
30.205124 10.844748 0.672252
30.393520 10.762910 -0.675393
30.465431 10.788375 -0.225634
30.332842 10.592702 0.224308
30.223101 10.554379 0.670576
30.212147 10.402876 -0.669320
30.359861 10.453738 -0.224168
30.234743 10.263312 0.222912
30.124708 10.225961 0.666388
30.235409 10.116627 -0.667854
30.326651 10.147156 -0.223261
30.171206 9.948972 0.221795
30.288757 9.987735 0.668063
30.360575 9.864749 -0.668691
30.195309 9.811050 -0.221655
30.294971 9.697497 0.222074
30.260500 9.686462 0.665550
30.292942 9.551328 -0.665341
30.279776 9.547176 -0.221655
30.302044 9.409035 0.221515
30.267492 9.398306 0.663875
30.269968 9.254458 -0.663037
30.371498 9.285499 -0.221725
30.258518 9.106780 0.220608
30.223898 9.096361 0.661152
30.349575 8.989954 -0.663037
30.336317 8.986027 -0.220887
30.221632 8.808803 0.219770
30.186947 8.798693 0.658639
30.340376 8.699963 -0.661152
30.327068 8.696147 -0.220259
30.229982 8.525737 0.219281
30.185598 8.513220 0.656964
30.299532 8.402803 -0.658639
30.247623 8.388409 -0.219142
30.177813 8.227416 0.218374
30.142992 8.217923 0.654451
30.342733 8.130311 -0.658011
30.281036 8.113779 -0.218863
30.209780 7.953571 0.218095
30.213558 7.954566 0.654451
30.335093 7.845188 -0.656335
30.282921 7.831696 -0.218374
30.210192 7.672411 0.217606
30.213991 7.673377 0.652985
30.285990 7.551145 -0.653822
30.233679 7.538103 -0.217536
30.188576 7.387097 0.216978
30.153557 7.378529 0.650262
30.234072 7.258559 -0.651309
30.220520 7.255305 -0.216978
30.222689 7.116499 0.216768
30.177872 7.105945 0.649424
30.247555 6.983198 -0.650262
30.204737 6.973313 -0.216419
30.166603 6.826005 0.215930
30.131468 6.818055 0.647121
30.229256 6.701665 -0.648587
30.225388 6.700807 -0.216140
30.176161 6.551887 0.215581
30.140968 6.544246 0.646074
30.257250 6.431377 -0.647958
30.194681 6.418077 -0.215512
30.153866 6.272013 0.215023
30.118622 6.264682 0.644398
30.273033 6.159118 -0.647121
30.249538 6.154338 -0.215512
30.168221 6.000832 0.214744
30.172144 6.001613 0.644398
30.237301 5.877536 -0.645236
30.223564 5.874866 -0.214953
30.219439 5.737339 0.214744
30.184080 5.730627 0.643561
30.208797 5.598869 -0.643561
30.195023 5.596317 -0.214395
30.199472 5.460954 0.214255
30.203424 5.461669 0.642932
30.256506 5.335038 -0.643561
30.252558 5.334342 -0.214464
30.196701 5.188742 0.213906
30.171108 5.184345 0.641257
30.223024 5.057600 -0.641885
30.169741 5.048683 -0.213557
30.161875 4.912173 0.213347
30.165861 4.912823 0.640210
30.226509 4.787409 -0.641047
30.212650 4.785213 -0.213557
30.203592 4.648777 0.213347
30.177940 4.644829 0.639582
30.217695 4.516065 -0.640000
30.223589 4.516945 -0.213347
30.163839 4.373549 0.212789
30.177748 4.375565 0.638744
30.236155 4.249414 -0.639582
30.222244 4.247459 -0.213068
30.171131 4.106111 0.212579
30.175156 4.106658 0.637906
30.222525 3.978871 -0.638534
30.258160 3.983562 -0.213068
30.156216 3.836355 0.212230
30.170172 3.838131 0.637068
30.256096 3.714981 -0.638534
30.252069 3.714487 -0.212789
30.148823 3.568348 0.211951
30.162804 3.570003 0.636231
30.257561 3.447414 -0.637906
30.243589 3.445822 -0.212510
30.188755 3.306206 0.212021
30.153055 3.302297 0.635393
30.286493 3.183239 -0.637906
30.272509 3.181769 -0.212510
30.216457 3.042637 0.212021
30.180725 3.039039 0.635393
30.263359 2.914030 -0.636859
30.259308 2.913640 -0.212230
30.192070 2.774261 0.211672
30.206095 2.775550 0.635393
30.247797 2.646339 -0.636021
30.233772 2.645112 -0.211881
30.225096 2.511512 0.211742
30.179348 2.507710 0.634346
30.279707 2.383065 -0.636231
30.255703 2.381176 -0.211881
30.245861 2.247656 0.211742
30.210054 2.244995 0.634555
30.249481 2.115250 -0.635184
30.245405 2.114965 -0.211672
30.214432 1.980358 0.211393
30.178612 1.978011 0.633508
30.316685 1.854248 -0.636231
30.302633 1.853389 -0.211951
30.240547 1.717183 0.211462
30.244633 1.717415 0.634555
30.251839 1.585432 -0.634555
30.277710 1.586788 -0.211672
30.214428 1.451303 0.211183
30.178577 1.449581 0.632880
30.264523 1.321378 -0.634555
30.250443 1.320763 -0.211393
30.225943 1.187580 0.211183
30.190079 1.186171 0.632880
30.274900 1.057223 -0.634555
30.290798 1.057778 -0.211602
30.235155 0.923768 0.211183
30.199280 0.922671 0.632880
30.282974 0.792988 -0.634555
30.268887 0.792619 -0.211393
30.282053 0.660757 0.211462
30.206182 0.659101 0.632880
30.318729 0.529215 -0.635184
30.304646 0.528970 -0.211602
30.246672 0.395951 0.211183
30.180794 0.395088 0.632252
30.322193 0.264618 -0.635184
30.318108 0.264582 -0.211672
30.218975 0.131856 0.210974
30.133102 0.131481 0.631205
30.323349 0.000000 -0.635184
30.309261 0.000000 -0.211602
30.128979 -0.131463 0.210345
30.093113 -0.131307 0.630367
30.322193 -0.264618 -0.635184
30.168116 -0.263273 -0.210625
30.126684 -0.394380 0.210345
30.090820 -0.393910 0.630367
30.198774 -0.527122 -0.632671
30.154671 -0.526352 -0.210555
30.122095 -0.657266 0.210345
22.599663 -0.493126 0.473508
30.076242 -0.656266 0.630157
30.203018 -0.790894 -0.632880
30.188915 -0.790525 -0.210834
30.115213 -0.920103 0.210345
30.119335 -0.920229 0.631205
30.194967 -1.054431 -0.632880
30.140892 -1.052543 -0.210555
30.066069 -1.181299 0.210066
30.110159 -1.183031 0.631205
30.184616 -1.317889 -0.632880
30.170521 -1.317273 -0.210834
30.094568 -1.445546 0.210345
30.098688 -1.445744 0.631205
30.171967 -1.581246 -0.632880
30.157877 -1.580507 -0.210834
30.080809 -1.708112 0.210345
29.795456 -1.691909 0.625131
30.117102 -1.842041 -0.632042
30.132956 -1.843011 -0.210764
30.054779 -1.969894 0.210276
30.068872 -1.970818 0.631205
30.099880 -2.104789 -0.632042
30.085798 -2.103804 -0.210555
29.079107 -2.160951 0.203574
29.701567 -2.207208 0.623875
30.160103 -2.373652 -0.633718
30.026419 -2.363130 -0.210276
29.706894 -2.468452 0.208111
30.129532 -2.503571 0.633299
30.098402 -2.633269 -0.632880
30.193926 -2.641626 -0.211602
30.520678 -2.804456 0.213976
30.405212 -2.793847 0.639582
30.183746 -2.906364 -0.635184
30.567873 -2.943351 -0.214395
30.455244 -3.066682 0.213696
30.459255 -3.067086 0.641257
30.604670 -3.216681 -0.644608
30.580803 -3.214172 -0.214674
30.427322 -3.332334 0.213696
30.421391 -3.331684 0.641047
30.565500 -3.482499 -0.644398
30.521784 -3.477518 -0.214464
30.476528 -3.607135 0.214255
30.440802 -3.602906 0.642095
30.543871 -3.750316 -0.644608
30.490274 -3.743735 -0.214464
30.483570 -3.878000 0.214534
30.447872 -3.873459 0.642932
30.509979 -4.016715 -0.644608
30.525843 -4.018804 -0.214953
30.448566 -4.143868 0.214534
30.452538 -4.144408 0.643770
30.552971 -4.293940 -0.646283
30.499514 -4.286427 -0.215023
30.490416 -4.420900 0.215093
30.454788 -4.415734 0.644608
30.553888 -4.566309 -0.647121
30.540066 -4.564243 -0.215581
30.490210 -4.692892 0.215372
30.454620 -4.687415 0.645445
30.552376 -4.839021 -0.647958
30.538580 -4.836836 -0.215861
30.448095 -4.958787 0.215372
30.452028 -4.959428 0.646283
30.508984 -5.105453 -0.647958
30.495207 -5.103148 -0.215861
30.482506 -5.237853 0.215930
30.486418 -5.238524 0.647958
30.532190 -5.383649 -0.649424
30.508600 -5.379489 -0.216279
30.474998 -5.510777 0.216210
30.439543 -5.504366 0.647958
30.552860 -5.662638 -0.650890
30.509657 -5.654631 -0.216629
30.504341 -5.791430 0.216768
30.468927 -5.784707 0.649634
30.561167 -5.940489 -0.652147
30.547493 -5.937831 -0.217257
30.531101 -6.073014 0.217327
30.495733 -6.065979 0.651309
30.576742 -6.220909 -0.653613
30.563107 -6.218134 -0.217746
30.516104 -6.347359 0.217606
30.480789 -6.340014 0.652147
30.570189 -6.497894 -0.654660
30.546804 -6.492924 -0.218025
30.498640 -6.621904 0.217885
30.463383 -6.614249 0.652985
30.463516 -6.753599 -0.653613
30.459694 -6.752751 -0.217815
30.468952 -6.894420 0.218095
30.433758 -6.886456 0.653613
30.569027 -7.057416 -0.657173
30.555500 -7.054293 -0.218932
30.495230 -7.180673 0.218723
30.460089 -7.172399 0.655498
30.467390 -7.314573 -0.656335
30.492777 -7.320668 -0.218932
30.470259 -7.456025 0.219002
30.435184 -7.447442 0.656335
30.557611 -7.618868 -0.659686
30.544165 -7.615516 -0.219770
30.481569 -7.741333 0.219561
30.446556 -7.732440 0.658011
30.519001 -7.892750 -0.660315
30.505589 -7.889282 -0.219980
30.490215 -8.027404 0.220119
30.455267 -8.018203 0.659686
30.574505 -8.192414 -0.663037
30.561148 -8.188835 -0.220887
30.447947 -8.301063 0.220329
30.461302 -8.304704 0.661362
30.540386 -8.469599 -0.663875
30.527069 -8.465905 -0.221166
30.499464 -8.601738 0.221236
30.464649 -8.591920 0.663037
30.532587 -8.755078 -0.665341
30.519316 -8.751273 -0.221655
30.500040 -8.889951 0.221795
30.465300 -8.879825 0.664712
30.464609 -9.024028 -0.665550
30.451372 -9.020107 -0.221725
30.459602 -9.167300 0.222074
30.424944 -9.156869 0.665550
30.499432 -9.324612 -0.668063
30.486252 -9.320582 -0.222563
30.454844 -9.456480 0.222632
30.382071 -9.433884 0.666388
30.493179 -9.614463 -0.669739
30.480051 -9.610323 -0.223121
30.485447 -9.758469 0.223470
30.450937 -9.747422 0.669739
30.522219 -9.917270 -0.672252
30.509150 -9.913024 -0.223959
30.427618 -10.033524 0.223680
30.440676 -10.037829 0.671414
30.500881 -10.205452 -0.673718
30.497345 -10.204269 -0.224517
30.424124 -10.327599 0.224308
30.427660 -10.328798 0.673089
30.448475 -10.484250 -0.674555
30.435501 -10.479783 -0.224727
30.446129 -10.632264 0.225146
30.402437 -10.617006 0.674555
30.516037 -10.806295 -0.678116
30.503136 -10.801726 -0.225914
30.465126 -10.938098 0.225983
30.430958 -10.925830 0.677278
30.495733 -11.099539 -0.679791
30.482885 -11.094863 -0.226472
30.443567 -11.231225 0.226542
27.923830 -10.301645 0.623456
30.428251 -11.225574 0.679372
30.322794 -11.337228 -0.678116
30.534769 -11.416482 -0.227589
28.025320 -10.617844 0.209228
30.475313 -11.546063 0.227519
27.608486 -10.459920 0.618430
30.450674 -11.536728 0.682095
30.521385 -11.716062 -0.684817
28.100086 -10.786613 -0.210136
30.499329 -11.707596 -0.228078
27.586761 -10.727904 0.206645
30.494555 -11.858684 0.228427
30.432701 -11.834630 0.683979
28.185469 -11.102551 -0.634555
30.548212 -12.033260 -0.687749
27.604816 -10.873826 -0.207134
30.507648 -12.017282 -0.228916
30.436348 -12.142871 0.228776
27.681740 -11.043895 0.624294
27.475702 -11.100904 -0.620733
30.414230 -12.288147 -0.687121
30.429432 -12.294289 -0.229125
27.737772 -11.347822 0.209228
27.584311 -11.285040 0.624294
28.005884 -11.600417 -0.634974
30.472101 -12.621958 -0.690890
27.854290 -11.537624 -0.210485
27.628468 -11.585578 0.209159
27.484781 -11.525326 0.624294
27.875977 -11.832650 -0.634346
27.715725 -11.764627 -0.210206
27.489563 -11.810449 0.208879
27.383160 -11.764733 0.624294
27.734983 -12.059514 -0.633508
27.685369 -12.037941 -0.210764
27.431217 -12.070024 0.209228
27.325207 -12.023378 0.625341
27.199417 -12.109961 -0.623665
27.332615 -12.169264 -0.208879
27.215433 -12.259659 0.208391
27.173666 -12.240844 0.624294
26.610529 -12.127117 -0.612566
27.043390 -12.324383 -0.207483
27.252712 -12.563673 0.209508
27.138447 -12.510995 0.625969
27.147026 -12.658866 -0.627435
27.324514 -12.741631 -0.210485
27.132994 -12.796750 0.209438
27.028234 -12.747343 0.625969
26.566282 -12.671467 -0.616545
27.730362 -13.226705 -0.643561
30.473619 -14.535172 -0.707226
25.569618 -12.196082 -0.197779
27.040796 -12.897799 -0.209159
27.056316 -13.050418 0.209717
26.915966 -12.982720 0.625969
25.025925 -12.205959 -0.583246
30.498379 -14.875053 -0.710786
25.722858 -12.545877 -0.199804
27.044054 -13.190267 -0.210066
26.098360 -12.870287 0.203155
26.407110 -13.022545 0.616754
27.557934 -13.739879 -0.645027
30.501621 -15.207547 -0.713927
25.549753 -12.738637 -0.199315
27.545408 -13.733634 -0.214883
25.985054 -13.097546 0.203155
26.729925 -13.472992 0.627016
25.762257 -13.126526 -0.605655
30.510281 -15.545764 -0.717278
25.366337 -12.924794 -0.198756
28.146210 -14.341210 -0.220538
30.444950 -15.512477 -0.238550
25.327480 -13.044510 0.198896
27.381062 -14.102173 0.215023
26.611336 -13.705738 0.627016
24.875196 -12.949208 -0.587435
30.533085 -15.894518 -0.721048
25.678337 -13.367296 -0.202107
30.494690 -15.874531 -0.240016
27.566692 -14.503539 0.217466
30.460531 -16.026062 0.240295
25.712101 -13.527790 0.608587
26.756157 -14.077095 0.633299
30.516804 -16.226072 -0.723979
25.560709 -13.590871 -0.202107
30.460949 -16.196375 -0.240853
25.527592 -13.716470 0.202317
30.434032 -16.352797 0.241203
25.284826 -13.586027 0.601257
26.940538 -14.475673 0.640629
24.777206 -13.452926 -0.590576
26.762897 -14.531068 -0.637906
30.470694 -16.544237 -0.726283
25.660835 -13.932696 -0.203853
30.459059 -16.537920 -0.241970
25.678701 -14.087818 0.204481
30.483046 -16.723572 0.242738
26.629118 -14.609234 0.636231
26.364000 -14.613804 -0.631414
30.438835 -16.872522 -0.729006
25.888113 -14.350015 -0.206645
30.479753 -16.895203 -0.243297
25.502438 -14.282051 0.204062
26.636654 -14.917243 0.213138
30.466818 -17.062239 0.243786
26.361046 -14.762896 0.632880
30.417263 -17.034487 0.730262
24.764891 -14.011301 -0.596021
26.861988 -15.197782 -0.646492
30.429663 -17.216276 -0.732356
25.553020 -14.457204 -0.204970
30.479115 -17.244253 -0.244484
25.706741 -14.692613 0.206715
30.455671 -17.406851 0.244903
25.875330 -14.788970 0.624294
30.449736 -17.403458 0.734660
24.797527 -14.316859 -0.599791
30.477409 -17.596140 -0.737173
26.638292 -15.379625 -0.214744
28.482882 -16.444599 -0.229614
30.474691 -17.594572 -0.245671
30.414907 -17.737450 0.245810
26.375750 -15.381883 0.639582
30.417614 -17.739029 0.737592
25.110981 -14.791498 -0.610472
26.420370 -15.562788 -0.642304
30.529440 -17.983215 -0.742199
25.348513 -14.931415 -0.205389
27.054497 -15.936316 -0.219212
30.475080 -17.951195 -0.246927
26.915953 -16.013309 0.218653
28.033154 -16.677975 0.227729
30.448027 -18.114672 0.247346
26.867744 -15.984629 0.654869
30.416315 -18.095806 0.741362
24.269653 -14.582680 -0.593089
27.791840 -16.699022 -0.679163
30.431335 -18.284990 -0.743665
26.734396 -16.063646 -0.217746
26.817932 -16.273521 0.219002
26.616117 -16.151056 0.652147
24.840485 -15.222269 -0.610262
26.741455 -16.387186 -0.656964
30.543396 -18.717018 -0.750367
25.211956 -15.449906 -0.206436
26.618776 -16.312008 -0.217955
30.472616 -18.673643 -0.249510
26.861973 -16.622692 0.220538
27.763323 -17.180466 0.227938
30.399351 -18.811689 0.249580
26.848234 -16.614191 0.661362
30.427431 -18.829065 0.749529
24.740616 -15.459653 -0.611100
26.682220 -16.672901 -0.659058
30.455206 -19.030525 -0.752252
25.220335 -15.759415 -0.207623
26.577179 -16.607265 -0.218793
27.713537 -17.317339 -0.228148
26.487551 -16.712399 0.218653
30.403173 -19.182974 0.250976
26.668406 -16.826511 0.660524
30.422613 -19.195240 0.753508
24.419260 -15.556784 -0.606492
26.476683 -16.867508 -0.657592
30.490347 -19.424492 -0.757278
25.309561 -16.123968 -0.209508
27.291483 -17.386591 -0.225914
30.470991 -19.412161 -0.252233
24.978251 -16.066551 0.207343
27.534946 -17.711073 0.228566
30.402819 -19.555750 0.252373
25.124735 -16.160772 0.625759
26.655090 -17.145130 0.663875
30.354849 -19.524895 0.756021
24.324497 -15.796514 -0.607540
30.512529 -19.815067 -0.762095
25.151117 -16.333326 -0.209368
26.820030 -17.417131 -0.223261
30.493319 -19.802593 -0.253839
24.853819 -16.294878 0.207483
26.768867 -17.550438 0.223470
30.473524 -19.979319 0.254397
25.233582 -16.543861 0.632042
30.417418 -19.942533 0.761885
24.235744 -16.041288 -0.608796
25.327896 -16.764168 -0.636231
26.520090 -17.553265 -0.666178
25.166061 -16.657053 -0.210694
26.800438 -17.738823 -0.224378
30.461107 -20.161766 -0.255025
26.697838 -17.838926 0.224168
30.431046 -20.333376 0.255514
30.366924 -20.290529 0.765027
25.379562 -17.118731 -0.641257
26.614557 -17.951746 -0.672461
30.443872 -20.534651 -0.769215
25.168968 -16.976683 -0.211951
26.462234 -17.849003 -0.222842
30.491259 -20.566614 -0.256771
30.459089 -20.738855 0.257259
25.569078 -17.409365 0.647958
26.629917 -18.302235 -0.676859
30.485981 -20.952435 -0.774870
26.635109 -18.305803 -0.225634
30.467203 -20.939528 -0.258097
24.681673 -17.122286 0.209717
30.433062 -21.112165 0.258586
24.841154 -17.232922 0.633299
25.982992 -18.025043 0.662409
30.394270 -21.085255 0.774870
24.601931 -17.226458 -0.629110
26.444618 -18.516722 -0.676231
30.490341 -21.349567 -0.779686
24.639494 -17.252758 -0.209996
26.490732 -18.549009 -0.225774
30.422565 -21.302109 -0.259284
24.523148 -17.331247 0.209647
30.435490 -21.509678 0.260192
24.640837 -17.414421 0.632042
24.613455 -17.556606 -0.633299
30.498219 -21.754168 -0.784712
25.399786 -18.117491 -0.217815
30.455318 -21.723568 -0.261169
24.468359 -17.614698 0.210485
30.441399 -21.914671 0.261867
23.181583 -16.688353 0.598325
24.596811 -17.870630 -0.636859
30.468987 -22.137014 -0.788901
23.323391 -16.945436 -0.201270
24.617786 -17.885870 -0.212440
23.555674 -17.271734 0.203923
23.228573 -17.031895 0.603351
26.276266 -19.266556 0.682513
24.327410 -18.001337 -0.633927
30.475567 -22.550734 -0.794137
23.271090 -17.219700 -0.202107
23.179708 -17.309109 0.201968
22.990940 -17.168150 0.601047
23.426826 -17.653379 -0.614451
25.830193 -19.464447 -0.677487
23.798758 -17.933651 -0.208042
30.467203 -22.958683 -0.266335
23.131254 -17.589415 0.202875
23.039204 -17.519419 0.606283
25.745018 -19.576965 0.677487
23.493973 -18.027559 -0.620314
30.505678 -23.407829 -0.805445
23.324020 -17.897150 -0.205249
25.101088 -19.260742 -0.220887
23.032227 -17.833454 0.203364
23.256985 -18.007483 0.616126
30.355820 -23.503988 0.804189
22.941841 -17.924129 -0.609843
22.883274 -17.878374 -0.202736
22.679399 -17.878998 0.201619
25.388678 -20.014820 0.225704
23.287392 -18.358299 0.621152
25.642826 -20.215174 0.683979
23.950382 -19.050993 -0.641047
30.491550 -24.254074 -0.816126
23.000294 -18.295259 -0.205179
30.434889 -24.209003 -0.271501
22.491320 -18.051193 0.201340
30.414753 -24.410421 0.272269
22.970358 -18.435661 0.616964
22.757612 -18.428751 -0.613403
24.202787 -19.599031 -0.652356
22.917477 -18.558207 -0.205877
25.785074 -20.880342 -0.231638
30.440065 -24.649879 -0.273456
22.402634 -18.303719 0.201968
22.158257 -18.104055 0.599372
22.634501 -18.658442 -0.614451
23.660536 -19.504240 -0.642304
21.358047 -17.606216 -0.193241
22.631197 -18.655720 -0.204760
24.081816 -19.851517 -0.217885
22.257429 -18.511309 0.202107
23.941151 -19.911646 0.217396
22.376078 -18.609987 0.609634
21.383270 -17.942694 -0.584712
24.431458 -20.500427 -0.668063
21.601927 -18.126169 -0.196872
24.321318 -20.408009 -0.221655
22.125570 -18.730679 0.202387
24.247305 -20.526859 0.221795
21.961014 -18.591370 0.602723
21.332312 -18.219515 -0.587644
30.508398 -26.056635 -0.840419
21.640627 -18.482841 -0.198687
24.301983 -20.755854 -0.223121
30.461121 -26.016254 -0.279669
24.786922 -21.357779 0.228427
30.407917 -26.201138 0.280228
22.047880 -18.997669 0.609634
21.240416 -18.464012 -0.589529
22.228868 -19.323259 -0.616964
30.498671 -26.512091 -0.846493
21.274744 -18.493853 -0.196802
22.369047 -19.445116 -0.206925
21.637423 -18.975510 0.200921
21.828640 -19.143204 0.608168
25.136009 -22.043688 0.700315
21.392973 -18.926903 -0.598325
21.187441 -18.745064 -0.197500
23.992620 -21.414232 0.224517
30.430939 -27.160652 0.284766
21.742804 -19.406193 0.610472
23.674667 -21.130449 0.664712
30.395170 -27.128727 0.853404
21.048676 -18.952312 -0.593299
21.089935 -18.989464 -0.198128
22.152607 -19.946297 -0.208111
24.055012 -21.659229 -0.225983
21.191929 -19.249393 0.199873
21.735439 -19.743082 0.615079
20.454960 -18.743517 -0.581152
21.744911 -19.925541 -0.617801
30.509216 -27.956547 -0.866807
21.107737 -19.341677 -0.199873
30.485676 -27.934975 -0.288675
20.802849 -19.229956 0.197779
21.026384 -19.436590 0.599791
21.701817 -20.237272 -0.621571
23.156893 -21.594151 -0.663246
20.740686 -19.341002 -0.197989
20.554129 -19.335392 0.197011
22.265759 -20.945534 0.213417
23.380138 -21.993837 0.224098
20.746738 -19.516582 0.596650
20.552601 -19.503691 -0.593508
21.669434 -20.563524 -0.625759
20.621891 -19.569443 -0.198477
21.477812 -20.381681 -0.206715
20.659105 -19.776791 0.199664
20.785076 -19.897381 0.602723
20.079563 -19.390608 -0.584712
24.265202 -23.432632 -0.706597
26.473091 -25.564766 -0.770890
21.169655 -20.443298 -0.205458
20.607504 -20.074942 0.200851
21.527313 -20.970982 0.629529
19.973764 -19.628162 -0.586597
21.178892 -20.812439 -0.621990
20.198761 -19.849266 -0.197709
20.744009 -20.563768 0.203923
21.741106 -21.552202 0.641257
22.941057 -22.741728 0.676650
20.890423 -20.890423 -0.618849
22.749706 -22.749706 -0.673927
20.491455 -20.491455 -0.202317
21.211447 -21.397364 0.210345
20.031864 -20.207443 0.596021
20.335926 -20.693989 -0.607749
24.673603 -25.108040 -0.737383
20.466051 -20.826406 -0.203853
20.116808 -20.650482 0.201270
19.917549 -20.445936 0.597906
20.501818 -21.230253 -0.618220
20.380779 -21.104916 -0.204830
20.385307 -21.294771 0.205808
20.090961 -20.987293 0.608587
20.212540 -21.299572 -0.615079
20.140764 -21.223936 -0.204272
20.274071 -21.551971 0.206575
20.023506 -21.285614 0.612147
19.671337 -21.094927 -0.604189
20.288958 -21.757242 -0.207692
20.125952 -21.772131 0.206994
19.836994 -21.459539 0.612147
20.702299 -22.592594 -0.641885
22.005901 -24.015228 -0.682304
20.503664 -22.375822 -0.211881
23.807219 -25.981020 -0.246020
20.742010 -22.835173 0.215372
20.529579 -22.601303 0.639582
21.568039 -23.953735 -0.675184
22.752140 -25.268812 -0.712252
20.274164 -22.516739 -0.211532
22.756577 -25.273739 -0.237433
20.102478 -22.522923 0.210764
22.619450 -25.342951 0.237153
20.651119 -23.137625 0.649634
19.741747 -22.313986 -0.624084
20.004011 -22.610422 -0.210764
21.467777 -24.479307 0.227310
20.468197 -23.339506 0.650262
19.795519 -22.772141 -0.632042
19.569763 -22.512438 -0.208251
20.032709 -23.249104 0.214255
20.635736 -23.948952 0.662199
19.375280 -22.685537 -0.624922
19.482967 -22.811623 -0.209438
19.958282 -23.575676 0.215651
20.354902 -24.044180 0.659896
19.401503 -23.121809 -0.632252
19.533840 -23.279524 -0.212160
19.796549 -23.802763 0.216140
19.696795 -23.682821 0.645236
21.141609 -25.420023 0.692566
19.758905 -24.183693 0.218025
21.416553 -26.212553 0.236316
19.432446 -23.784124 0.643351
21.656424 -26.983345 0.241552
19.374340 -24.139929 0.648377
20.423412 -25.906975 0.230312
20.239933 -25.674232 0.684817
20.539389 -26.526989 0.234221
19.727436 -25.478336 0.674974
19.589069 -25.760933 0.677906
20.695543 -27.714693 0.241482
20.417425 -27.845854 0.241063
20.401621 -27.824299 0.722723
0.128507 -0.178507 0.004607
0.188094 -0.271137 0.002304
0.159564 -0.230011 0.005864
0.118163 -0.173546 0.004398
0.155556 -0.232806 0.001955
0.166635 -0.249386 0.006283
0.126080 -0.192304 0.004817
0.129831 -0.201844 0.001676
0.140623 -0.218622 0.005445
0.128064 -0.202970 0.001676
0.117369 -0.186019 0.004607
0.147336 -0.238093 0.001955
0.136786 -0.221043 0.005445
0.129690 -0.213723 0.001745
0.119292 -0.196587 0.004817
0.138046 -0.232034 0.001885
0.127795 -0.214804 0.005236
0.151099 -0.259094 0.006283