# This PCD file was generated using the MATLAB® pcwrite function
# from Computer Vision System Toolbox®.
# .PCD v.7 - Point Cloud Data file format
VERSION .7
FIELDS x y z
SIZE 4 4 4
TYPE F F F
COUNT 1 1 1
WIDTH 751
HEIGHT 1
VIEWPOINT 0 0 0 1 0 0 0
POINTS 751
DATA ascii
27.969437 29.993549 -0.859058
28.090828 30.123724 -0.287558
27.934185 29.436489 -0.850053
28.118599 29.630821 -0.285184
27.912197 28.903927 -0.841676
28.042675 29.039040 -0.281833
27.883062 28.374012 -0.833299
28.042696 28.536455 -0.279320
27.903383 27.903383 -0.826597
27.979534 27.979534 -0.276248
27.889107 27.406549 -0.819058
27.958736 27.474974 -0.273665
27.861113 26.905163 -0.811309
27.916897 26.959034 -0.270943
27.775745 26.358198 -0.802095
27.860950 26.439054 -0.268150
27.799969 25.923891 -0.796231
27.834644 25.956224 -0.265707
27.826115 25.497936 -0.790576
27.787306 25.462374 -0.263124
27.780090 25.013306 -0.783037
27.807802 25.038258 -0.261239
27.757700 24.557938 -0.776335
27.785580 24.582605 -0.259005
27.729494 24.104881 -0.769634
27.757542 24.129263 -0.256771
27.665104 23.628231 -0.762095
27.685707 23.645826 -0.254188
27.655798 23.205971 -0.756231
27.645870 23.197639 -0.251954
27.641245 22.785685 -0.750367
27.631203 22.777407 -0.249999
27.629250 22.373726 -0.744712
27.650179 22.390675 -0.248393
27.573063 21.932604 -0.738011
27.586266 21.943106 -0.246089
27.605841 21.568047 -0.733822
27.626984 21.584566 -0.244763
27.539186 21.131561 -0.727121
27.560423 21.147856 -0.242529
27.498974 20.721964 -0.721257
27.480379 20.707951 -0.240225
27.485876 20.338478 -0.716231
27.475159 20.330547 -0.238619
27.500546 19.980316 -0.712042
27.457367 19.948946 -0.236944
27.445955 19.577009 -0.706178
27.435024 19.569212 -0.235268
27.411005 19.193394 -0.700943
27.440926 19.214342 -0.233872
27.420904 18.845865 -0.696964
27.409769 18.838213 -0.232197
27.418549 18.494045 -0.692775
27.374153 18.464100 -0.230521
27.312109 18.077490 -0.686074
27.300756 18.069977 -0.228566
27.345890 17.928751 0.228287
27.315477 17.908812 0.684189
27.334663 17.751339 -0.682723
27.356768 17.765692 -0.227729
27.299461 17.559603 0.226612
27.294140 17.556181 0.679791
27.286161 17.383202 -0.677697
27.274614 17.375845 -0.225774
27.223314 17.176632 0.224727
27.285652 17.215963 0.675812
27.301159 17.059658 -0.674346
27.289522 17.052387 -0.224657
27.270132 16.875269 0.223889
27.273317 16.877241 0.671833
27.244404 16.695393 -0.669320
27.232664 16.688198 -0.222981
27.279573 16.553652 0.222772
27.248613 16.534864 0.667644
27.251942 16.374619 -0.665969
27.240112 16.367512 -0.221864
27.216738 16.192257 0.221097
27.185656 16.173765 0.662618
27.221510 16.034695 -0.661780
27.209585 16.027672 -0.220468
27.218794 15.873531 0.219980
27.230761 15.880510 0.660315
27.230526 15.721551 -0.658639
27.209856 15.709618 -0.219351
27.191324 15.541122 0.218653
27.186024 15.538093 0.655917
27.183949 15.379938 -0.654241
27.206656 15.392785 -0.218234
27.151415 15.205523 0.217257
27.181013 15.222098 0.652566
27.107265 15.025802 -0.649215
27.138788 15.043276 -0.216629
27.098963 14.867001 0.215791
27.102446 14.868911 0.647540
27.131920 14.731431 -0.646702
27.128424 14.729532 -0.215512
27.130774 14.577890 0.215023
27.099064 14.560852 0.644398
27.127029 14.423697 -0.643561
27.114660 14.417120 -0.214395
27.079962 14.247458 0.213627
27.083530 14.249334 0.641047
27.101107 14.107943 -0.640000
27.097521 14.106076 -0.213278
27.096582 13.955657 0.212789
27.100187 13.957514 0.638534
27.080658 13.798285 -0.636650
27.068119 13.791895 -0.212091
27.074461 13.646652 0.211672
27.042400 13.630491 0.634346
27.056879 13.490063 -0.633299
27.080053 13.501616 -0.211253
27.049023 13.339102 0.210555
27.052715 13.340923 0.631833
27.065739 13.200843 -0.630786
27.088993 13.212184 -0.210415
27.020288 13.033040 0.209438
27.060045 13.052217 0.629320
27.035524 12.895284 -0.627435
27.022745 12.889188 -0.209019
27.024462 12.745564 0.208600
27.028234 12.747343 0.625969
27.047354 12.612389 -0.625131
27.034502 12.606396 -0.208251
26.953033 12.425518 0.207204
26.993176 12.444024 0.622618
27.010824 12.309542 -0.621780
26.997892 12.303649 -0.207134
26.987499 12.156981 0.206645
26.991354 12.158718 0.620105
26.971081 12.008299 -0.618430
26.958069 12.002506 -0.206017
26.946114 11.856574 0.205528
26.959162 11.862315 0.616964
27.001495 11.740584 -0.616754
26.988420 11.734900 -0.205458
26.975052 11.589397 0.204970
26.942236 11.575298 0.614241
26.955673 11.442005 -0.613403
26.942520 11.436421 -0.204341
26.927612 11.291685 0.203853
26.931583 11.293350 0.611728
26.897472 11.141297 -0.609843
26.930431 11.154950 -0.203504
26.914062 11.010834 0.203015
26.918068 11.012472 0.609215
26.928783 10.879935 -0.608377
26.915491 10.874564 -0.202666
26.897669 10.731082 0.202177
26.864567 10.717875 0.605864
26.911077 10.600555 -0.605864
26.934933 10.609952 -0.202107
26.878452 10.452458 0.201340
26.882530 10.454044 0.604189
26.937222 10.340231 -0.604398
26.923803 10.335080 -0.201340
26.856428 10.174991 0.200502
26.860542 10.176549 0.601676
26.904690 10.059252 -0.601676
26.891203 10.054209 -0.200432
26.831619 9.898706 0.199664
26.873287 9.914079 0.600000
26.841129 9.769372 -0.598325
26.827570 9.764437 -0.199315
26.804039 9.623633 0.198826
26.770586 9.611622 0.595812
26.849966 9.508072 -0.596650
26.836349 9.503250 -0.198756
26.811474 9.362987 0.198268
26.777931 9.351273 0.594136
26.856291 9.247363 -0.594974
26.804798 9.229632 -0.197919
26.816408 9.102943 0.197709
26.830114 9.107596 0.593508
26.831673 8.977753 -0.592671
26.817940 8.973157 -0.197430
26.818850 8.843531 0.197151
26.832611 8.848068 0.591833
26.823420 8.715458 -0.590786
26.857182 8.726427 -0.197151
26.780718 8.572576 0.196313
26.785019 8.573952 0.589110
26.784033 8.444973 -0.588273
26.779720 8.443613 -0.196034
26.711256 8.294065 0.195266
26.753790 8.307273 0.586807
26.713295 8.167074 -0.585131
26.737629 8.174514 -0.195196
26.734741 8.046244 0.194917
26.748676 8.050438 0.585131
26.745203 7.922290 -0.584294
26.769594 7.929515 -0.194917
26.727137 7.790250 0.194358
26.731525 7.791529 0.583246
26.736435 7.666550 -0.582618
26.760874 7.673557 -0.194358
26.726730 7.537718 0.193870
26.731142 7.538962 0.581780
26.725246 7.411567 -0.580943
26.749729 7.418356 -0.193800
26.714310 7.283157 0.193311
26.718748 7.284367 0.580105
26.711649 7.157365 -0.579267
26.726517 7.161348 -0.193171
26.660807 7.019205 0.192473
26.665277 7.020382 0.577592
26.695656 6.903966 -0.577592
26.671818 6.897801 -0.192334
26.682276 6.776435 0.192194
26.648005 6.767731 0.575917
26.706383 6.658649 -0.576545
26.692184 6.655109 -0.192054
26.662689 6.524319 0.191636
26.667204 6.525423 0.575079
26.685699 6.406670 -0.574869
26.720074 6.414922 -0.191845
26.679676 6.282229 0.191356
26.674475 6.281005 0.574032
26.672401 6.157809 -0.573403
26.697088 6.163509 -0.191287
26.655457 6.031514 0.190798
26.660011 6.032545 0.572566
26.647036 5.907506 -0.571728
26.671757 5.912986 -0.190728
26.667988 5.790187 0.190519
26.672558 5.791180 0.571728
26.609558 5.656036 -0.569843
26.634310 5.661297 -0.190100
26.639177 5.540957 0.189960
26.633986 5.539877 0.569843
26.628511 5.417632 -0.569215
26.643503 5.420682 -0.189820
26.608057 5.292672 0.189402
26.651897 5.301392 0.569215
26.596262 5.169790 -0.567540
26.611265 5.172706 -0.189262
26.535339 5.037891 0.188564
26.579277 5.046234 0.566702
26.551891 4.921102 -0.565655
26.576733 4.925706 -0.188703
26.578291 4.806138 0.188564
26.582949 4.806980 0.565864
26.554440 4.682264 -0.564817
26.589161 4.688386 -0.188494
26.530523 4.558777 0.187936
26.545057 4.561275 0.564189
26.515404 4.437157 -0.563142
26.500849 4.434721 -0.187586
26.539686 4.322262 0.187726
26.544380 4.323027 0.563351
26.513617 4.199344 -0.562304
26.548416 4.204856 -0.187656
26.536860 4.084414 0.187447
26.541569 4.085138 0.562513
26.559139 3.969290 -0.562513
26.544538 3.967108 -0.187377
26.492323 3.841204 0.186888
26.497051 3.841890 0.560838
26.513563 3.726238 -0.560838
26.538538 3.729748 -0.187098
26.524834 3.609871 0.186888
26.489943 3.605123 0.560000
26.465773 3.484285 -0.559163
26.480846 3.486270 -0.186469
26.436287 3.363121 0.186051
26.470806 3.367512 0.558953
26.495171 3.253198 -0.559163
26.510262 3.255051 -0.186469
26.424908 3.127594 0.185771
26.429684 3.128159 0.557487
26.443083 3.012809 -0.557487
26.468109 3.015660 -0.185981
26.451195 2.896877 0.185771
26.455976 2.897401 0.557487
26.468367 2.781937 -0.557487
26.453638 2.780389 -0.185702
26.395872 2.657924 0.185213
26.400673 2.658408 0.555812
26.412022 2.543188 -0.555812
26.437078 2.545601 -0.185422
26.368273 2.422904 0.184864
26.422867 2.427920 0.555812
26.423248 2.311735 -0.555602
26.448324 2.313929 -0.185352
26.398376 2.193536 0.184934
26.403194 2.193936 0.554974
26.402548 2.077926 -0.554765
26.397728 2.077546 -0.184864
26.376625 1.960122 0.184654
26.341572 1.957517 0.553299
26.389755 1.845351 -0.554136
26.404877 1.846409 -0.184794
26.352812 1.727255 0.184375
26.347675 1.726918 0.553089
26.404854 1.614990 -0.554136
26.390041 1.614084 -0.184585
26.366882 1.497220 0.184375
26.371723 1.497495 0.553299
26.368021 1.381889 -0.553089
26.353191 1.381112 -0.184235
26.378942 1.267071 0.184375
26.343842 1.265386 0.552461
26.309158 1.148683 -0.551623
26.294308 1.148034 -0.183747
26.309059 1.033686 0.183817
26.313921 1.033877 0.551623
26.348156 0.920098 -0.552252
26.343300 0.919928 -0.184026
26.317078 0.804059 0.183817
26.321941 0.804208 0.551623
26.315205 0.689088 -0.551414
26.310339 0.688960 -0.183747
26.323093 0.574372 0.183817
26.287975 0.573606 0.550786
26.270235 0.458549 -0.550367
26.255362 0.458289 -0.183328
26.247112 0.343594 0.183258
26.291979 0.344181 0.550786
26.273235 0.229283 -0.550367
26.258360 0.229153 -0.183328
26.249111 0.114534 0.183258
26.293982 0.114730 0.550786
26.244244 0.000000 -0.549739
26.269360 0.000000 -0.183398
26.219112 -0.114403 0.183049
26.253990 -0.114555 0.549948
26.243244 -0.229021 -0.549739
26.228361 -0.228891 -0.183118
26.207115 -0.343070 0.182979
26.251991 -0.343657 0.549948
26.240246 -0.458025 -0.549739
26.225367 -0.457765 -0.183118
26.213121 -0.571972 0.183049
26.247993 -0.572733 0.549948
26.235250 -0.686994 -0.549739
26.220373 -0.686605 -0.183118
26.157156 -0.799173 0.182700
26.241995 -0.801766 0.549948
26.148321 -0.913119 -0.548063
26.133432 -0.912600 -0.182560
26.199146 -1.029367 0.183049
26.233999 -1.030737 0.549948
26.179312 -1.143013 -0.548901
26.164434 -1.142364 -0.182839
26.189167 -1.257956 0.183049
26.184061 -1.257711 0.549110
26.208277 -1.373518 -0.549739
26.193415 -1.372739 -0.183118
26.177191 -1.486449 0.183049
26.172089 -1.486159 0.549110
26.195292 -1.602173 -0.549739
26.180437 -1.601264 -0.183118
26.163223 -1.714828 0.183049
26.158123 -1.714494 0.549110
26.100525 -1.825127 -0.548063
26.045763 -1.821297 -0.182281
26.147263 -1.943077 0.183049
26.142166 -1.942698 0.549110
26.163342 -2.059100 -0.549739
26.108629 -2.054794 -0.182839
26.129311 -2.171178 0.183049
26.124216 -2.170755 0.549110
26.144375 -2.287337 -0.549739
26.129551 -2.286039 -0.183118
26.109369 -2.399114 0.183049
26.104279 -2.398646 0.549110
26.083612 -2.511566 -0.548901
26.078745 -2.511097 -0.182909
26.087439 -2.626867 0.183049
26.122143 -2.630362 0.549948
26.100473 -2.743270 -0.549739
26.085674 -2.741715 -0.183118
26.093344 -2.857686 0.183258
26.098194 -2.858217 0.549948
26.075541 -2.970933 -0.549739
26.060755 -2.969248 -0.183118
26.067411 -3.085282 0.183258
26.072258 -3.085855 0.549948
25.999006 -3.192276 -0.548691
25.984224 -3.190462 -0.182769
26.039495 -3.312642 0.183258
26.084009 -3.318305 0.550786
26.049458 -3.429476 -0.550367
26.034708 -3.427534 -0.183328
26.049231 -3.545145 0.183537
26.054058 -3.545802 0.550786
26.077940 -3.665015 -0.551623
26.013708 -3.655988 -0.183398
26.017302 -3.772329 0.183537
26.061701 -3.778767 0.551623
26.084517 -3.898357 -0.552461
26.059933 -3.894683 -0.183956
26.022924 -4.005311 0.183817
26.027733 -4.006051 0.551623
26.039629 -4.124272 -0.552252
26.034830 -4.123512 -0.184026
26.026461 -4.238678 0.184096
25.991783 -4.233031 0.551623
25.923761 -4.338150 -0.550576
25.948542 -4.342297 -0.183677
25.988480 -4.465638 0.184096
25.993267 -4.466460 0.552461
26.003069 -4.585042 -0.553089
25.988443 -4.582464 -0.184235
25.948521 -4.692257 0.184096
25.953300 -4.693121 0.552461
25.962067 -4.811785 -0.553089
25.947464 -4.809078 -0.184235
25.985180 -4.933441 0.184654
25.989937 -4.934343 0.554136
25.958345 -5.045791 -0.553927
25.943773 -5.042959 -0.184515
25.901909 -5.152210 0.184375
25.945887 -5.160958 0.554136
25.923120 -5.274118 -0.554136
25.937975 -5.277141 -0.184794
25.934282 -5.394339 0.184934
25.939014 -5.395323 0.554974
25.905447 -5.506373 -0.554765
25.900717 -5.505367 -0.184864
25.886221 -5.620450 0.184934
25.890945 -5.621475 0.554974
25.905212 -5.743048 -0.555812
25.880976 -5.737674 -0.185073
25.914213 -5.863788 0.185492
25.918913 -5.864851 0.556650
25.893076 -5.977888 -0.556650
25.917612 -5.983552 -0.185702
25.862057 -6.089706 0.185492
25.866747 -6.090810 0.556650
25.878811 -6.212953 -0.557487
25.893579 -6.216498 -0.185911
25.885635 -6.334175 0.186051
25.929146 -6.344821 0.559163
25.852711 -6.445805 -0.558115
25.848049 -6.444642 -0.185981
25.877834 -6.572133 0.186400
25.834028 -6.561007 0.558325
25.795477 -6.671164 -0.558115
25.781143 -6.667457 -0.185911
25.819498 -6.797706 0.186400
25.853138 -6.806563 0.560000
25.900450 -6.940004 -0.561676
25.886181 -6.936182 -0.187098
25.865318 -7.051695 0.187168
25.869921 -7.052950 0.561676
25.829266 -7.163090 -0.561466
25.863211 -7.172503 -0.187377
25.802795 -7.277141 0.187168
25.807388 -7.278436 0.561676
25.813826 -7.401996 -0.562513
25.828472 -7.406195 -0.187586
25.776711 -7.513226 0.187447
25.781284 -7.514559 0.562513
25.815353 -7.646856 -0.563979
25.801210 -7.642667 -0.187866
25.748466 -7.749409 0.187726
25.791315 -7.762305 0.564189
25.785883 -7.883535 -0.564817
25.771786 -7.879225 -0.188145
25.756260 -7.997531 0.188285
25.760788 -7.998937 0.565026
25.792385 -8.132308 -0.566492
25.787878 -8.130887 -0.188773
25.723583 -8.234184 0.188564
25.690002 -8.223434 0.565026
25.691912 -8.347808 -0.565864
25.706430 -8.352526 -0.188703
25.736219 -8.486532 0.189192
25.731201 -8.484878 0.567540
25.722378 -8.606587 -0.568168
25.708427 -8.601919 -0.189262
25.736935 -8.736512 0.189751
25.694048 -8.721953 0.568377
25.721918 -8.856767 -0.569843
25.708023 -8.851982 -0.189820
25.688036 -8.970664 0.189960
25.692467 -8.972211 0.570053
25.671923 -9.090904 -0.570472
25.695782 -9.099353 -0.190309
25.684067 -9.221522 0.190519
25.726109 -9.236617 0.572566
25.685562 -9.348780 -0.572566
25.699966 -9.354023 -0.190937
25.677671 -9.472993 0.191077
25.644526 -9.460765 0.572566
25.706013 -9.611084 -0.574869
25.692291 -9.605954 -0.191496
25.668837 -9.725052 0.191636
25.626434 -9.708987 0.574032
25.621162 -9.835043 -0.574869
25.691507 -9.862045 -0.192124
25.620272 -9.963179 0.191915
25.587322 -9.950366 0.575079
25.655289 -10.105887 -0.577592
25.669596 -10.111523 -0.192613
25.606655 -10.216020 0.192473
25.564520 -10.199209 0.576545
25.640282 -10.359345 -0.579267
25.626738 -10.353874 -0.192962
25.627592 -10.484525 0.193311
25.585583 -10.467339 0.579058
25.576614 -10.594180 -0.579896
25.563124 -10.588593 -0.193171
25.572010 -10.723233 0.193590
25.539364 -10.709544 0.580105
25.602829 -10.867756 -0.582618
25.589411 -10.862061 -0.194079
25.587711 -10.993348 0.194428
25.591909 -10.995152 0.583456
25.507015 -11.090766 -0.582618
25.493649 -11.084954 -0.194079
25.527414 -11.232331 0.194707
25.531590 -11.234168 0.584294
25.518862 -11.361730 -0.585131
25.542109 -11.372080 -0.195196
25.501364 -11.487526 0.195266
25.505507 -11.489393 0.585969
25.527914 -11.633740 -0.587644
25.514692 -11.627715 -0.195755
25.472795 -11.743119 0.195824
25.476910 -11.745016 0.587644
25.416357 -11.851842 -0.587435
25.475691 -11.879510 -0.196243
25.514057 -12.033211 0.196941
25.481956 -12.018071 0.590157
25.456347 -12.142055 -0.590786
25.488388 -12.157337 -0.197151
25.480133 -12.290156 0.197500
25.448151 -12.274731 0.591833
25.457251 -12.416331 -0.593299
25.489178 -12.431903 -0.197989
25.434690 -12.543001 0.197989
25.438700 -12.544978 0.594136
25.392668 -12.660316 -0.594346
25.415516 -12.671709 -0.198268
25.395702 -12.800488 0.198547
25.399679 -12.802492 0.595812
25.423750 -12.954047 -0.597697
25.410887 -12.947494 -0.199106
25.398602 -13.081139 0.199455
25.393650 -13.078588 0.598325
25.380682 -13.212347 -0.599372
25.394501 -13.219541 -0.199873
25.389677 -13.358155 0.200292
25.384727 -13.355551 0.600838
25.405659 -13.508429 -0.602723
25.392954 -13.501673 -0.200781
25.342609 -13.617075 0.200851
25.372896 -13.633348 0.603351
25.357100 -13.767781 -0.604398
25.379620 -13.780009 -0.201619
25.319252 -13.890617 0.201619
25.331846 -13.897527 0.605236
25.375896 -14.066090 -0.607749
25.354607 -14.054289 -0.202387
25.310492 -14.174557 0.202526
25.314281 -14.176679 0.607749
25.321796 -14.326383 -0.609424
25.335438 -14.334101 -0.203224
25.324741 -14.474282 0.203643
25.328485 -14.476422 0.611100
25.265079 -14.586801 -0.611100
25.252686 -14.579645 -0.203574
25.301125 -14.755180 0.204481
25.296192 -14.752304 0.613403
25.274654 -14.887910 -0.614451
25.262352 -14.880662 -0.204691
25.274527 -15.036763 0.205319
25.278191 -15.038943 0.616126
25.238041 -15.164545 -0.616754
25.268677 -15.182953 -0.205808
25.210737 -15.298250 0.205877
25.240011 -15.316014 0.618430
25.215565 -15.452118 -0.619477
25.237534 -15.465581 -0.206645
25.203825 -15.596601 0.206925
25.207415 -15.598821 0.620943
25.206940 -15.751044 -0.622618
25.228817 -15.764714 -0.207692
25.235903 -15.922669 0.208321
25.205618 -15.903560 0.624294
25.211874 -16.061735 -0.626178
25.191488 -16.048748 -0.208530
25.205324 -16.212610 0.209228
25.234045 -16.231083 0.628482
25.162983 -16.341032 -0.628482
25.151117 -16.333326 -0.209368
25.154875 -16.492258 0.209996
25.191776 -16.516453 0.630995
25.194502 -16.675879 -0.632880
25.182737 -16.668091 -0.210834
25.176287 -16.822256 0.211393
25.179691 -16.824532 0.634346
25.139194 -16.956600 -0.635184
25.160677 -16.971090 -0.211881
25.127716 -17.108852 0.212230
25.098024 -17.088636 0.636021
25.089138 -17.243288 -0.637697
25.077549 -17.235321 -0.212440
25.076054 -17.395878 0.213068
25.079380 -17.398184 0.639372
25.068745 -17.553324 -0.641047
25.090015 -17.568218 -0.213836
25.021288 -17.683298 0.213906
25.089891 -17.731783 0.643561
25.012283 -17.841087 -0.643561
25.033442 -17.856180 -0.214674
25.028332 -18.017820 0.215302
25.031567 -18.020149 0.646074
25.049761 -18.199717 -0.648587
25.006105 -18.167999 -0.215791
24.999174 -18.330153 0.216419
25.002363 -18.332491 0.649424
24.986429 -18.488985 -0.651100
24.975224 -18.480694 -0.216908
24.998510 -18.667273 0.217815
25.033689 -18.693542 0.654451
25.015762 -18.850729 -0.656126
25.036613 -18.866442 -0.218863
24.962015 -18.981556 0.218932
24.996939 -19.008114 0.657801
24.945490 -19.141348 -0.658639
24.974155 -19.163343 -0.219770
24.985182 -19.345594 0.220608
24.956594 -19.323462 0.661152
24.903557 -19.456791 -0.661990
24.892653 -19.448273 -0.220538
24.941057 -19.661945 0.221725
24.944048 -19.664301 0.665341
24.920603 -19.822742 -0.667016
24.909811 -19.814157 -0.222214
24.893307 -19.978991 0.222842
24.927439 -20.006384 0.669529
24.870987 -20.140127 -0.670367
24.860294 -20.131468 -0.223331
24.865141 -20.315674 0.224168
24.868036 -20.318039 0.672671
24.902578 -20.528101 -0.676021
24.892002 -20.519382 -0.225215
24.817610 -20.640589 0.225355
24.843517 -20.662136 0.676859
24.783762 -20.796045 -0.677697
24.803915 -20.812956 -0.226053
24.819715 -21.011440 0.227031
24.853029 -21.039642 0.682095
24.821810 -21.199829 -0.683770
24.811441 -21.190973 -0.227799
24.817225 -21.383888 0.228706
24.789663 -21.360142 0.685445
24.779226 -21.540253 -0.687749
24.806700 -21.564135 -0.229474
24.772518 -21.724915 0.230033
24.782722 -21.733864 0.690472
24.770021 -21.914663 -0.692775
24.759872 -21.905685 -0.230800
24.768501 -22.106733 0.231778
24.771132 -22.109079 0.695498
24.756155 -22.290543 -0.697801
24.746120 -22.281506 -0.232476
24.715281 -22.449781 0.233104
24.717863 -22.452126 0.699477
24.737600 -22.667835 -0.702828
24.727680 -22.658743 -0.234151
24.694664 -22.827513 0.234780
24.733900 -22.863781 0.705550
24.685085 -23.019215 -0.707016
24.675272 -23.010063 -0.235548
24.669323 -23.206583 0.236455
24.671797 -23.208908 0.709529
24.657320 -23.398922 -0.712042
24.647621 -23.389719 -0.237223
24.646458 -23.593851 0.238201
24.670542 -23.616905 0.715393
24.624792 -23.779886 -0.717068
24.643982 -23.798416 -0.239178
24.575720 -23.940607 0.239527
24.606737 -23.970821 0.719582
24.587482 -24.162050 -0.722095
24.606541 -24.180780 -0.240853
24.564714 -24.351276 0.241482
24.567024 -24.353567 0.724608
24.573641 -24.573641 -0.727959
24.564291 -24.564291 -0.242529
24.604715 -24.820374 0.243995
24.606956 -24.822636 0.732147
24.526443 -24.958290 -0.732985
24.517208 -24.948893 -0.244204
24.533714 -25.184563 0.245461
24.528933 -25.179653 0.736335
24.467447 -25.336782 -0.737801
24.458324 -25.327337 -0.245810
24.499710 -25.592731 0.247346
24.501848 -25.594965 0.742199
24.500048 -25.817663 -0.745550
24.491058 -25.808191 -0.248393
24.446733 -25.987642 0.249091
24.469368 -26.011705 0.748063
24.457916 -26.227903 -0.751205
24.455866 -26.225704 -0.250348
24.429443 -26.427624 0.251256
24.431467 -26.429813 0.753927
24.423985 -26.654102 -0.757278
24.415236 -26.644554 -0.252303
24.413044 -26.876665 0.253490
24.408285 -26.871426 0.760419
24.371082 -27.066828 -0.762932
24.389215 -27.086969 -0.254467
24.364016 -27.297575 0.255444
24.392553 -27.329548 0.767330
24.372446 -27.548038 -0.770472
24.390450 -27.568388 -0.256980
24.362234 -27.779804 0.257958
24.364077 -27.781904 0.774032
24.314774 -27.970949 -0.776335
24.339197 -27.999043 -0.259005
24.301653 -28.203457 0.259912
24.296915 -28.197958 0.779686
24.277536 -28.425344 -0.783037
24.295259 -28.446095 -0.261169
24.287209 -28.689209 0.262426
24.308313 -28.714138 0.788063
24.272764 -28.927153 -0.790995
24.271069 -28.925133 -0.263612
24.214966 -29.115330 0.264380
24.210243 -29.109655 0.793089
24.181408 -29.596565 0.266824
24.183020 -29.598537 0.800629
24.122503 -30.056015 0.269058
24.149090 -30.089142 0.808168
24.106932 -30.579496 0.271850
24.151749 -30.636347 0.817173
24.071796 -31.089157 0.274503
24.085466 -31.106812 0.824084
0.128507 -0.178507 0.004607
0.153865 -0.221796 0.005654
0.118163 -0.173546 0.004398
0.155556 -0.232806 0.001955
0.166635 -0.249386 0.006283
0.148007 -0.225748 0.005654
0.129831 -0.201844 0.001676
0.140623 -0.218622 0.005445
0.128064 -0.202970 0.001676
0.138709 -0.219841 0.005445
0.126288 -0.204080 0.001676
0.136786 -0.221043 0.005445
0.129690 -0.213723 0.001745
0.119292 -0.196587 0.004817
0.117595 -0.197659 0.001606
0.102236 -0.171844 0.004188
0.130953 -0.224548 0.005445