# This PCD file was generated using the MATLAB® pcwrite function
# from Computer Vision System Toolbox®.
# .PCD v.7 - Point Cloud Data file format
VERSION .7
FIELDS x y z
SIZE 4 4 4
TYPE F F F
COUNT 1 1 1
WIDTH 1112
HEIGHT 1
VIEWPOINT 0 0 0 1 0 0 0
POINTS 1112
DATA ascii
30.535933 33.324123 -0.315553
30.642284 32.859829 -0.941152
30.634621 32.851608 -0.313598
30.680117 32.330097 -0.933613
30.679216 32.329147 -0.311155
30.634661 31.723120 -0.923770
30.737885 31.830011 -0.308921
30.658054 31.197863 -0.916231
30.621979 31.161152 -0.305011
30.653425 30.653425 -0.908063
30.666473 30.666473 -0.302777
30.541817 30.013359 -0.896964
30.654757 30.124346 -0.300055
30.543661 29.495670 -0.889425
30.513651 29.466690 -0.296145
30.654850 29.090366 -0.885236
30.363432 28.813820 -0.292236
30.827110 28.746744 -0.882932
30.642973 28.575035 -0.292515
30.980970 28.388828 -0.880210
30.861677 28.279516 -0.292236
31.019491 27.930077 -0.874346
30.958658 27.875301 -0.290839
30.999966 27.426455 -0.867016
30.991032 27.418549 -0.288885
30.996670 26.944994 -0.860315
30.927244 26.884644 -0.286092
31.025362 26.498161 -0.854660
30.917353 26.405914 -0.283858
31.071608 26.072174 -0.849634
30.993402 26.006554 -0.282462
31.135939 25.666487 -0.845236
30.910528 25.480673 -0.279669
31.079021 25.167295 -0.837697
30.984055 25.090393 -0.278343
30.984486 24.646173 -0.829320
30.912270 24.588730 -0.275760
31.017179 24.233276 -0.824503
30.873508 24.121029 -0.273526
30.910198 23.718229 -0.816126
30.932093 23.735029 -0.272199
30.860493 23.255049 -0.809425
30.818594 23.223476 -0.269407
30.933664 22.889708 -0.806074
30.827160 22.810898 -0.267731
31.027086 22.542498 -0.803351
30.952236 22.488115 -0.267103
30.994720 22.108318 -0.797487
30.919353 22.054562 -0.265148
31.022675 21.722311 -0.793299
30.987766 21.697868 -0.264101
31.054504 21.343168 -0.789320
30.978149 21.290691 -0.262426
30.938499 21.065275 0.261309
31.040648 20.937181 -0.784294
30.963799 20.885345 -0.260750
30.954859 20.683376 0.259912
30.874008 20.629353 0.777801
31.022087 20.533072 -0.779267
30.978104 20.503960 -0.259354
30.900021 20.258942 0.257958
30.902357 20.260473 0.774032
31.133009 20.218012 -0.777592
31.055214 20.167492 -0.258516
30.941071 19.901966 0.256841
30.842545 19.838593 0.768168
31.173344 19.859610 -0.774241
31.095085 19.809753 -0.257399
30.952885 19.529816 0.255514
30.853840 19.467323 0.764189
31.141975 19.459665 -0.769215
31.097166 19.431665 -0.256003
31.054106 19.216864 0.254956
30.920528 19.134203 0.761676
31.140114 19.082687 -0.765027
31.060925 19.034159 -0.254327
31.083838 18.862137 0.253839
31.017948 18.822153 0.760000
31.194046 18.743275 -0.762304
31.157272 18.721178 -0.253769
31.075378 18.487907 0.252442
31.043543 18.468967 0.756650
31.184135 18.368858 -0.758116
21.962393 12.936837 -0.177952
31.147135 18.347065 -0.252373
31.097321 18.135422 0.251325
31.039438 18.101665 0.752671
31.239344 18.036043 -0.755603
31.167494 17.994562 -0.251256
31.080761 17.764118 0.249929
31.022621 17.730888 0.748482
31.195408 17.649513 -0.750786
31.149271 17.623409 -0.249859
31.094999 17.414036 0.248812
31.027876 17.376446 0.744922
22.796335 12.636215 -0.545969
31.234564 17.313602 -0.748063
22.398464 12.415671 -0.178790
31.196924 17.292738 -0.249022
31.140575 17.084305 0.247974
31.081913 17.052120 0.742618
22.448853 12.188732 -0.535079
31.279028 16.983126 -0.745550
31.206036 16.943495 -0.247905
31.112303 16.717243 0.246578
30.947712 16.628805 0.735917
31.223007 16.601568 -0.740733
31.131973 16.553164 -0.246159
30.796820 16.202990 0.242948
30.808512 16.209143 0.729215
31.295748 16.291534 -0.739058
22.786753 11.862033 -0.179349
31.239759 16.262390 -0.245880
30.839252 15.883259 0.242180
30.771023 15.848119 0.725027
31.294195 15.945189 -0.735707
30.845894 15.716768 -0.241691
30.762375 15.505513 0.240504
30.729595 15.488991 0.720838
23.236347 11.585216 -0.543875
31.002674 15.457363 -0.725655
23.169287 11.551780 -0.180745
30.847635 15.380064 -0.240644
30.833733 15.205515 0.240016
30.827723 15.202550 0.720000
30.920721 15.081043 -0.720629
30.944725 15.092751 -0.240365
30.848164 14.879388 0.239108
30.815134 14.863456 0.716650
23.398903 11.160705 -0.543037
30.997005 14.784813 -0.719372
23.231979 11.081085 -0.179698
31.012075 14.792001 -0.239876
23.126354 10.907097 0.178511
30.786903 14.520046 0.237642
30.907497 14.576921 0.715812
31.070478 14.488402 -0.718116
30.922468 14.419384 -0.238201
30.921522 14.255016 0.237712
30.960890 14.273166 0.714137
23.126143 10.539190 -0.532356
31.013777 14.133792 -0.713927
30.937929 14.099227 -0.237363
30.971802 13.951779 0.237153
30.974880 13.953166 0.711623
22.861029 10.178386 -0.524189
30.962399 13.785348 -0.709948
30.977571 13.792104 -0.236735
23.111052 10.169106 0.176277
30.945927 13.616533 0.236036
30.949045 13.617906 0.708273
30.971495 13.466789 -0.707435
30.959194 13.461440 -0.235687
30.953321 13.298596 0.235199
30.956472 13.299951 0.705760
30.977398 13.149125 -0.704922
30.992643 13.155597 -0.235059
30.570217 12.819156 0.231429
30.269218 12.692937 0.687540
31.044781 12.859169 -0.703875
31.032358 12.854023 -0.234501
30.319967 12.404226 0.228706
29.749601 12.170883 0.673299
25.260220 10.205791 -0.570681
31.090927 12.561549 -0.702409
30.995001 12.522793 -0.233384
30.882166 12.320735 0.232127
29.891823 11.925628 0.674137
26.176208 10.311083 -0.589320
30.873787 12.161508 -0.695079
31.000757 12.211523 -0.232616
24.632368 9.579004 0.184515
30.988506 12.050771 0.232127
30.087934 11.700558 0.676231
23.381062 8.975148 -0.524608
30.736061 11.798469 -0.689634
23.534988 9.034236 -0.175998
25.066023 9.621945 -0.187447
31.059464 11.922611 -0.232267
30.980274 11.737376 0.231289
26.495920 10.038406 0.593508
30.843344 11.685498 0.690890
23.477222 8.777774 -0.525026
30.800392 11.515795 -0.688796
23.434967 8.761975 -0.174671
30.890696 11.549558 -0.230242
30.968941 11.425046 0.230451
30.831585 11.374372 0.688377
31.012451 11.287609 -0.691309
22.880959 8.327988 -0.169994
31.084274 11.313750 -0.230940
23.030016 8.268620 0.170831
31.067463 11.154359 0.230451
22.997297 8.256873 0.511833
30.920261 11.101508 0.688168
22.118944 7.832729 -0.491519
23.476049 8.313305 -0.521676
31.024952 10.986512 -0.689424
23.207268 8.218124 -0.171879
31.049854 10.995330 -0.229963
24.715649 8.631091 0.182769
31.050331 10.843261 0.229614
22.719238 7.933913 0.504084
30.893257 10.788408 0.685445
22.148642 7.626389 -0.490681
31.015661 10.679548 -0.687121
25.717478 8.855238 -0.189890
31.031164 10.684886 -0.229125
30.992268 10.520457 0.228497
25.817122 8.763732 0.571100
30.919956 10.495911 0.683979
22.062653 7.382060 -0.487330
25.181952 8.425763 -0.556231
31.098194 10.405311 -0.686911
31.018911 10.378782 -0.228357
22.668766 7.475038 0.166643
26.097095 8.605532 0.191845
30.968933 10.212023 0.227659
23.281515 7.677093 0.513508
30.972391 10.213163 0.683142
22.240334 7.226322 -0.489843
31.092728 10.102639 -0.684817
31.032217 10.082979 -0.227799
21.142672 6.767823 0.154984
22.761705 7.286079 0.166852
31.009251 9.926140 0.227310
30.984163 9.918109 0.681466
24.171423 7.621220 -0.530890
31.179705 9.830923 -0.684817
21.229221 6.693548 -0.155403
31.090414 9.802771 -0.227589
21.105427 6.553409 0.154286
22.910370 7.113859 0.167480
30.865492 9.583990 0.225634
30.916763 9.599911 0.678116
21.187065 6.477536 -0.464084
31.140015 9.520458 -0.682095
21.239012 6.493417 -0.155054
31.098272 9.507696 -0.227031
20.979877 6.314226 0.152959
30.957527 9.317159 0.225704
21.550203 6.485875 0.471414
30.740873 9.251952 0.672461
21.472851 6.360548 -0.469110
31.106876 9.214276 -0.679582
21.314043 6.313507 -0.155193
30.978710 9.176312 -0.225565
21.187784 6.175676 0.154076
30.845650 8.990687 0.224308
21.874737 6.375905 0.477278
30.148552 8.787501 0.657801
21.354551 6.123319 -0.465341
31.070774 8.909401 -0.677068
21.589411 6.190664 -0.156799
23.531113 6.747438 -0.170901
30.865360 8.850500 -0.224168
21.635466 6.101832 0.156939
30.287727 8.542023 0.219700
21.390688 6.032798 0.465550
24.787409 6.990772 0.539477
29.184866 8.230984 0.635184
21.821444 6.051622 -0.474346
30.916119 8.573799 -0.672042
21.922058 6.079525 -0.158824
23.724003 6.579248 -0.171879
30.401800 8.431166 -0.220259
22.179920 6.046940 0.160499
24.804077 6.762368 0.179488
29.270933 7.980173 0.211811
21.191729 5.777528 0.460105
29.139833 7.944430 0.632671
23.940050 6.414717 -0.519163
30.806276 8.254517 -0.668063
21.819733 5.846580 -0.157707
24.707781 6.620430 -0.178581
30.300354 8.118956 -0.219002
21.661301 5.702945 0.156380
29.213745 7.691338 0.210904
21.328354 5.615287 0.461990
29.333738 7.722929 0.635393
21.633354 5.594766 -0.468063
25.069525 6.483420 -0.542409
30.760984 7.955331 -0.665550
21.366497 5.525752 -0.154076
23.438284 6.061552 -0.169016
29.276072 7.571307 -0.211113
21.758703 5.526007 0.156729
29.686819 7.539492 0.213836
22.888214 5.812866 0.494660
30.029879 7.626617 0.649006
22.253702 5.548471 -0.480419
29.461418 7.345557 -0.636021
21.646770 5.397146 -0.155752
29.214891 7.284091 -0.210206
21.281586 5.207571 0.152959
29.586359 7.239736 0.212649
21.763002 5.325373 0.469320
29.842794 7.302485 0.643561
22.563757 5.417078 -0.486074
29.329966 7.041502 -0.631833
22.645943 5.436810 -0.162594
29.967710 7.194611 -0.215162
22.630516 5.328779 0.162314
29.950150 7.052324 0.214813
21.312330 5.018388 0.458639
24.241560 5.708129 0.521676
29.876190 7.034909 0.642932
22.707584 5.242459 -0.488168
29.702028 6.857254 -0.638534
24.650963 5.691123 -0.176626
30.263197 6.986809 -0.216838
21.759357 4.923640 0.155752
24.051355 5.442266 0.172158
30.117836 6.814970 0.215581
21.784369 4.929299 0.467854
30.004702 6.789371 0.644398
21.815430 4.836364 -0.468063
29.897388 6.628091 -0.641466
30.244913 6.705136 -0.216279
22.114201 4.801464 0.157986
30.185934 6.554008 0.215651
21.787474 4.730525 0.467016
30.140968 6.544246 0.646074
21.377617 4.543953 -0.457801
23.930023 5.086483 -0.512461
30.208353 6.420984 -0.646911
21.909973 4.657108 -0.156380
30.272930 6.434710 -0.216070
22.086727 4.594046 0.157497
30.153866 6.272013 0.215023
21.348299 4.440453 0.456754
30.285023 6.299294 0.647958
22.719471 4.622328 -0.485655
24.669092 5.018983 -0.527330
30.184858 6.141179 -0.645236
21.871386 4.449784 -0.155822
30.278936 6.160319 -0.215721
21.714056 4.319194 0.154565
24.332689 4.840073 0.173205
30.207451 6.008636 0.215023
23.788633 4.731853 0.508063
30.338840 6.034771 0.647958
22.543032 4.381921 -0.481047
24.486227 4.759640 -0.522513
30.394327 5.908059 -0.648587
21.899569 4.256845 -0.155752
24.628426 4.787281 -0.175160
30.341356 5.897762 -0.215791
21.908110 4.159385 0.155682
30.386450 5.769048 0.215930
30.193901 5.732491 0.643770
22.226519 4.119442 -0.473508
24.281071 4.500230 -0.517278
30.356253 5.626199 -0.646702
21.916218 4.061931 -0.155612
24.256308 4.495641 -0.172228
30.460495 5.645519 -0.216279
22.032135 3.984059 0.156310
23.803364 4.304349 0.168877
30.307714 5.480528 0.215023
22.086868 3.993957 0.470157
23.631474 4.273267 0.503037
30.272291 5.474122 0.644398
22.537306 3.973935 -0.479372
30.473116 5.373232 -0.648168
22.069004 3.891361 -0.156450
27.701967 4.884604 -0.196383
30.488905 5.376017 -0.216140
23.199425 3.986390 0.164339
30.324821 5.210757 0.214813
21.844986 3.753655 0.464293
30.358322 5.216514 0.645236
21.920321 3.668204 -0.465550
30.469542 5.098853 -0.647121
21.539953 3.604552 -0.152471
23.749178 3.974250 -0.168109
30.268368 5.065187 -0.214255
21.506126 3.502495 0.152122
24.476913 3.986319 0.173135
30.379007 4.947536 0.214883
23.297873 3.794300 0.494451
30.323746 4.938536 0.643561
21.556507 3.414215 -0.457173
30.394381 4.813997 -0.644608
21.639725 3.427396 -0.152959
24.099009 3.816908 -0.170343
30.439814 4.821193 -0.215162
21.842257 3.361845 0.154286
22.919544 3.527655 0.161895
30.401258 4.679201 0.214744
23.092943 3.554344 0.489424
30.326162 4.667643 0.642723
21.941448 3.279171 -0.464712
30.435232 4.548576 -0.644608
21.431452 3.202952 -0.151284
23.518225 3.514822 -0.166014
30.441166 4.549463 -0.214883
23.939083 3.471002 0.168877
30.351868 4.400812 0.214115
23.459488 3.401464 0.496545
30.365740 4.402823 0.642723
23.632515 3.321333 -0.499896
30.503468 4.286983 -0.645236
22.042830 3.097918 -0.155403
30.459904 4.280860 -0.214744
23.909012 3.253874 0.168458
30.349483 4.130383 0.213836
23.458559 3.192570 0.495917
30.284126 4.121489 0.640210
22.153933 2.916620 -0.468063
30.430681 4.006275 -0.642932
21.950054 2.889780 -0.154565
30.377131 3.999225 -0.213906
23.896816 3.040059 0.168179
30.354612 3.861594 0.213627
23.376429 2.973857 0.493613
30.269352 3.850748 0.639163
30.504177 3.745442 -0.643770
23.870153 2.930886 -0.167899
30.450573 3.738860 -0.214185
24.458679 2.894876 0.171948
30.397085 3.597732 0.213696
24.334770 2.880210 0.513299
30.262089 3.581754 0.638325
30.495966 3.474576 -0.642932
24.023981 2.737187 -0.168807
30.442299 3.468462 -0.213906
24.483011 2.681326 0.171948
30.298100 3.318182 0.212789
24.398731 2.672096 0.514136
30.262377 3.314269 0.637697
30.405809 3.195779 -0.640419
24.235909 2.547297 -0.170133
30.342123 3.189086 -0.212998
30.335852 3.054660 0.212859
24.381330 2.455071 0.513299
30.250357 3.046051 0.636859
30.432539 2.930320 -0.640419
30.408613 2.928016 -0.213278
24.416542 2.243565 0.171181
30.321522 2.786156 0.212579
24.670633 2.266913 0.518953
30.315609 2.785613 0.637697
30.486832 2.667252 -0.641047
30.433006 2.662543 -0.213278
30.294853 2.517308 0.212230
30.269020 2.515162 0.636231
30.439178 2.395615 -0.639582
30.385300 2.391375 -0.212789
30.325640 2.253584 0.212300
30.289816 2.250922 0.636231
30.458925 2.129895 -0.639582
30.405012 2.126126 -0.212789
30.294258 1.985591 0.211951
30.268400 1.983896 0.635393
30.426456 1.860962 -0.638534
30.382483 1.858272 -0.212510
30.320415 1.721718 0.212021
30.284559 1.719682 0.635393
30.491457 1.597990 -0.639582
30.437487 1.595161 -0.212789
30.324299 1.456581 0.211951
30.298414 1.455337 0.635393
30.414347 1.327919 -0.637697
30.410286 1.327742 -0.212510
30.345846 1.192291 0.212021
30.309959 1.190882 0.635393
30.464743 1.063852 -0.638534
30.420715 1.062315 -0.212510
30.305120 0.925905 0.211672
30.269232 0.924809 0.634346
30.432890 0.796913 -0.637697
30.428827 0.796807 -0.212510
30.312046 0.661411 0.211672
30.276150 0.660628 0.634346
30.398701 0.530611 -0.636859
30.354637 0.529842 -0.211951
30.366657 0.397521 0.212021
30.280762 0.396397 0.634346
30.452160 0.265752 -0.637906
30.388102 0.265193 -0.212160
30.368971 0.132510 0.212021
30.333057 0.132354 0.635393
30.453320 0.000000 -0.637906
30.389259 0.000000 -0.212160
30.368971 -0.132510 0.212021
30.333057 -0.132354 0.635393
30.492149 -0.266101 -0.638744
30.438099 -0.265629 -0.212510
30.356659 -0.397390 0.211951
30.370735 -0.397575 0.636231
30.438684 -0.531309 -0.637697
30.384630 -0.530366 -0.212160
30.362032 -0.662502 0.212021
30.326128 -0.661718 0.635393
30.392912 -0.795866 -0.636859
30.378845 -0.795498 -0.212160
30.345100 -0.927127 0.211951
30.309204 -0.926030 0.635184
30.514702 -1.065597 -0.639582
30.460690 -1.063711 -0.212789
30.375822 -1.193469 0.212230
30.349920 -1.192452 0.636231
30.504242 -1.331844 -0.639582
30.450247 -1.329486 -0.212789
30.364250 -1.458500 0.212230
30.338358 -1.457256 0.636231
30.521410 -1.599559 -0.640210
30.477430 -1.597255 -0.213068
30.400286 -1.726253 0.212579
30.354431 -1.723650 0.636859
30.466372 -1.863403 -0.639372
30.422407 -1.860714 -0.212789
30.423977 -1.994093 0.212859
30.348211 -1.989127 0.637068
30.568632 -2.137567 -0.641885
30.514740 -2.133799 -0.213557
30.435333 -2.261736 0.213068
30.399490 -2.259072 0.638534
30.548815 -2.404244 -0.641885
30.534834 -2.403144 -0.213836
30.504128 -2.534698 0.213696
30.468290 -2.531720 0.640419
30.576469 -2.675094 -0.642932
30.512699 -2.669515 -0.213836
30.441015 -2.797136 0.213417
30.445036 -2.797506 0.640419
30.551962 -2.941819 -0.642932
30.538012 -2.940476 -0.214185
30.495043 -3.070689 0.213976
30.459255 -3.067086 0.641257
30.604670 -3.216681 -0.644608
30.590748 -3.215217 -0.214744
30.506845 -3.341043 0.214255
30.471083 -3.337126 0.642095
30.575434 -3.483631 -0.644608
30.561525 -3.482046 -0.214744
30.555971 -3.616538 0.214813
30.520229 -3.612307 0.643770
30.623257 -3.760063 -0.646283
30.609377 -3.758359 -0.215302
30.523249 -3.883048 0.214813
30.447872 -3.873459 0.642932
30.628927 -4.032375 -0.647121
30.565500 -4.024024 -0.215232
30.567469 -4.160050 0.215372
30.462444 -4.145757 0.643979
30.612373 -4.302289 -0.647540
30.618343 -4.303127 -0.215861
30.490416 -4.420900 0.215093
30.375635 -4.404257 0.642932
30.613216 -4.575176 -0.648377
30.599405 -4.573112 -0.216000
30.411142 -4.680723 0.214813
30.375570 -4.675247 0.643770
30.572124 -4.842149 -0.648377
30.528702 -4.835271 -0.215791
30.408617 -4.952358 0.215093
30.323746 -4.938536 0.643561
30.538567 -5.110404 -0.648587
30.495207 -5.103148 -0.215861
30.393808 -5.222611 0.215302
30.368176 -5.218207 0.645445
30.571575 -5.390594 -0.650262
30.488905 -5.376017 -0.216140
30.396276 -5.496542 0.215651
30.321484 -5.483017 0.645445
30.523369 -5.657172 -0.650262
30.509657 -5.654631 -0.216629
30.425747 -5.776509 0.216210
30.351059 -5.762329 0.647121
30.551352 -5.938581 -0.651938
30.459148 -5.920659 -0.216629
30.423218 -6.051554 0.216559
30.378063 -6.042572 0.648796
30.547352 -6.214929 -0.652985
30.494514 -6.204179 -0.217257
30.437782 -6.331068 0.217047
30.402483 -6.323726 0.650472
30.531071 -6.489579 -0.653822
30.507681 -6.484608 -0.217746
30.420464 -6.604930 0.217327
30.434072 -6.607885 0.652356
30.541603 -6.770910 -0.655288
30.498745 -6.761409 -0.218095
30.585989 -6.920903 0.218932
31.145601 -7.047530 0.668901
30.520319 -7.046171 -0.656126
30.467810 -7.034048 -0.218304
31.234980 -7.354861 0.224029
31.082914 -7.319055 0.668901
30.467390 -7.314573 -0.656335
30.687246 -7.367356 -0.220329
31.179321 -7.629531 0.224098
30.862480 -7.552001 0.665550
30.732227 -7.662405 -0.663456
31.126328 -7.760665 -0.223959
30.908020 -7.849637 0.222632
30.834164 -7.830880 0.666388
31.244951 -8.080494 -0.676021
31.202639 -8.069551 -0.225006
30.925375 -8.141972 0.223261
30.851667 -8.122566 0.668273
31.144276 -8.345083 -0.675393
30.928192 -8.287184 -0.223540
30.882090 -8.419424 0.223470
30.818195 -8.402004 0.669110
30.993193 -8.595173 -0.673718
30.970327 -8.588832 -0.224378
30.922934 -8.721169 0.224308
30.897659 -8.714042 0.672461
30.993891 -8.887355 -0.675393
30.759624 -8.820181 -0.223400
30.922453 -9.013073 0.224866
30.849236 -8.991732 0.673089
30.991844 -9.180202 -0.677068
30.978710 -9.176312 -0.225565
30.919226 -9.305631 0.225425
30.884478 -9.295173 0.675602
30.948795 -9.461996 -0.677906
30.945269 -9.460917 -0.225914
30.960993 -9.613644 0.226332
30.878571 -9.588051 0.677278
30.979467 -9.767789 -0.680419
30.995045 -9.772700 -0.226891
31.028299 -9.932237 0.227449
30.879421 -9.884581 0.679163
31.007151 -10.074834 -0.682932
30.994177 -10.070619 -0.227519
31.054405 -10.240207 0.228287
25.484335 -8.403473 0.562095
30.896433 -10.188115 0.681466
31.031826 -10.383103 -0.685445
31.018911 -10.378782 -0.228357
25.282419 -8.582225 0.186400
31.115366 -10.562243 0.229404
25.400564 -8.622330 0.561885
30.882086 -10.483056 0.683142
31.091286 -10.705588 -0.688796
31.040619 -10.688142 -0.229195
31.050331 -10.843261 0.229614
25.107260 -8.767848 0.557068
30.902695 -10.791704 0.685655
31.072073 -11.003199 -0.690472
31.012150 -10.981978 -0.229683
25.025261 -8.984986 0.185632
31.105110 -11.167875 0.230731
24.926285 -8.949450 0.554765
30.910851 -11.098129 0.687958
31.087610 -11.314964 -0.692985
30.990307 -11.279550 -0.230242
31.128429 -11.483884 0.231638
30.897245 -11.398596 0.689843
31.100061 -11.627836 -0.695498
31.049927 -11.609092 -0.231429
31.176647 -11.811775 0.232755
24.308184 -9.209547 0.544503
30.946186 -11.724462 0.693194
31.081409 -11.931035 -0.697383
31.022121 -11.908277 -0.231987
31.174904 -12.123257 0.233523
24.506432 -9.530030 0.550786
30.945192 -12.033927 0.695498
31.087736 -12.245785 -0.699896
31.065886 -12.237178 -0.233104
31.225817 -12.457837 0.234710
24.115894 -9.621266 0.543875
30.913288 -12.333152 0.697173
31.128006 -12.576530 -0.703246
26.081047 -10.537427 -0.196383
31.078445 -12.556507 -0.234012
23.498901 -9.613654 0.177254
31.291761 -12.801798 0.236036
23.781174 -9.729136 0.538220
30.961794 -12.666804 0.700733
26.195477 -10.850522 -0.593927
31.044781 -12.859169 -0.703875
25.840281 -10.703395 -0.195266
31.032358 -12.854023 -0.234501
31.215742 -13.089847 0.236316
23.759907 -9.963356 0.539686
30.951496 -12.979040 0.703037
25.924934 -11.004482 -0.589948
31.106241 -13.203815 -0.707854
25.856352 -10.975370 -0.196104
31.112307 -13.206390 -0.235967
23.750174 -10.203880 0.180466
31.045198 -13.338070 0.235897
23.763916 -10.209784 0.541780
30.947287 -13.296004 0.705550
26.038794 -11.321990 -0.594765
31.072350 -13.510642 -0.709739
25.750420 -11.196601 -0.196034
31.069239 -13.509289 -0.236525
25.884378 -11.389399 0.197430
30.982538 -13.632644 0.236316
22.740501 -10.006061 0.520419
24.076563 -10.593942 0.550995
30.930742 -13.609853 0.707854
25.829399 -11.499990 -0.592252
31.135935 -13.862611 -0.713927
25.715677 -11.449357 -0.196522
31.078058 -13.836843 -0.237502
31.081211 -14.001064 0.237991
24.557482 -11.062339 0.564189
30.993111 -13.961378 0.712042
25.527914 -11.633740 -0.587644
31.113850 -14.179399 -0.716231
25.341805 -11.548925 -0.194428
31.119917 -14.182163 -0.238759
25.672583 -11.835222 0.197360
31.066820 -14.322001 0.238829
23.561148 -10.861837 0.543456
30.979050 -14.281537 0.714555
25.380114 -11.834941 -0.586597
31.061417 -14.484177 -0.717906
25.638823 -11.955579 -0.197500
31.067474 -14.487001 -0.239318
25.568323 -12.058805 0.197360
31.040144 -14.639482 0.239597
23.112803 -10.900705 0.535288
24.387806 -11.502036 0.564817
31.034092 -14.636628 0.718744
25.221725 -12.030147 -0.585341
31.123339 -14.845071 -0.722304
25.569618 -12.196082 -0.197779
31.111357 -14.839355 -0.240644
25.354038 -12.229336 0.196522
31.019291 -14.961930 0.240435
23.079832 -11.132390 0.536754
30.959213 -14.932952 0.720000
25.295504 -12.337441 -0.589529
31.136383 -15.186229 -0.725655
25.381325 -12.379299 -0.197151
31.124479 -15.180423 -0.241761
25.264290 -12.458969 0.196662
31.066916 -15.320507 0.241831
30.998091 -15.286567 0.723979
23.039505 -11.487074 -0.539267
25.616352 -12.771842 -0.599581
31.145832 -15.528739 -0.729006
23.026100 -11.480390 -0.179628
24.636942 -12.283526 -0.192194
31.151905 -15.531767 -0.243018
25.136745 -12.669962 0.196522
31.048120 -15.649542 0.242738
23.917660 -12.055492 0.561047
31.015285 -15.632991 0.727540
22.929478 -11.683152 -0.539058
23.450720 -11.948739 -0.183747
31.139919 -15.866581 -0.243995
24.305136 -12.517968 0.190868
31.159292 -16.048090 0.244693
23.935982 -12.327840 0.563979
31.073223 -16.003761 0.732147
23.199114 -12.076694 -0.547854
24.117237 -12.554639 -0.189820
31.186541 -16.234686 -0.245461
31.115408 -16.370607 0.245461
22.624170 -11.903152 0.535498
24.544172 -12.913314 0.580943
31.065102 -16.344141 0.735288
23.940287 -12.729277 -0.567958
31.205353 -16.592180 -0.740315
24.227491 -12.881986 -0.191566
31.140802 -16.557859 -0.246229
22.153862 -11.903700 0.175579
23.704191 -12.736722 0.187866
31.103495 -16.712511 0.246508
22.660347 -12.175844 0.538848
24.474585 -13.150669 0.581990
31.088623 -16.704519 0.739267
23.582277 -12.804132 -0.562095
31.173594 -16.925880 -0.743037
23.806576 -12.925916 -0.189122
31.135731 -16.905323 -0.247346
23.977892 -13.154722 0.190937
31.114275 -17.069876 0.247765
22.123730 -12.137494 0.528587
23.277271 -12.902802 -0.557487
31.208332 -17.299061 -0.747435
24.322582 -13.482227 -0.194149
31.161942 -17.273346 -0.248742
23.801111 -13.329263 0.190449
31.129898 -17.433580 0.249091
31.071491 -17.400871 0.745969
31.195408 -17.649513 -0.750786
23.995121 -13.575787 -0.192473
31.114458 -17.603714 -0.249580
23.675205 -13.531494 0.190379
31.158895 -17.808777 0.250557
31.092060 -17.770576 0.750157
23.576700 -13.612014 -0.570262
31.178736 -18.001051 -0.754137
23.685217 -13.674666 -0.190937
31.158834 -17.989561 -0.251186
23.513029 -13.712394 0.190030
31.166426 -18.175722 0.251884
22.368433 -13.044885 0.542409
31.134439 -18.157068 0.754974
23.388102 -13.776645 -0.568587
31.158291 -18.353636 -0.757487
23.659760 -13.936664 -0.191705
31.147135 -18.347065 -0.252373
21.965893 -13.068333 0.178441
31.135536 -18.523697 0.252931
21.901464 -13.030003 0.533822
31.103689 -18.504751 0.758116
23.541222 -14.144993 -0.575288
31.228327 -18.763872 -0.763142
23.605812 -14.183803 -0.192264
31.182987 -18.736629 -0.253978
22.047640 -13.378837 0.180047
31.186424 -18.924387 0.254676
21.829660 -13.246563 0.534869
23.689674 -14.517051 -0.581990
31.199785 -19.119253 -0.766493
23.591978 -14.457183 -0.193171
31.163239 -19.096857 -0.255165
21.887533 -13.544416 0.179698
31.088120 -19.237913 0.255235
31.167076 -19.286772 0.767749
23.680788 -14.797399 -0.584922
31.269154 -19.539137 -0.772356
21.489016 -13.427827 -0.176905
24.236624 -15.144724 -0.199524
31.258291 -19.532349 -0.257329
22.081415 -13.932336 0.182281
31.215054 -19.695232 0.257678
21.984100 -13.870934 0.544503
31.259701 -19.723402 0.774241
21.029570 -13.397313 -0.522304
24.469852 -15.589015 -0.607749
31.266096 -19.918699 -0.776545
21.067406 -13.421417 -0.174392
31.221590 -19.890347 -0.258446
22.497246 -14.470715 0.186749
23.607389 -15.184783 0.195964
31.184967 -20.058846 0.258865
21.979939 -14.137971 0.547435
31.296606 -20.130653 0.779477
20.760929 -13.482305 -0.518534
31.158163 -20.234348 -0.778220
20.781750 -13.495827 -0.172996
23.465431 -15.238628 -0.195336
31.139080 -20.221954 -0.259214
22.186131 -14.545865 0.185213
31.150900 -20.423426 0.260052
22.181807 -14.543029 0.555602
31.236799 -20.479742 0.782409
21.109358 -13.971979 -0.530262
31.238850 -20.676542 -0.784712
22.389288 -14.819147 -0.187447
30.936411 -20.476362 -0.259005
22.174755 -14.816697 0.186190
23.546646 -15.733366 0.197709
31.204294 -20.850042 0.262007
22.286812 -14.891571 0.561466
25.611959 -17.113365 0.645236
24.492687 -16.520527 -0.618849
31.239573 -21.071358 -0.789320
30.342035 -20.465961 -0.255514
19.135086 -13.028617 0.161616
21.928892 -14.930851 0.185213
23.648157 -16.101456 0.199734
23.990637 -16.334644 0.607958
19.494549 -13.398232 -0.495498
25.204491 -17.322567 -0.640629
31.326406 -21.530043 -0.796231
20.783957 -14.284417 -0.176067
29.750231 -20.446768 -0.252023
19.357531 -13.428797 0.164478
24.377670 -16.911392 0.207134
23.009283 -15.962108 0.586597
31.256809 -21.683620 0.796859
19.614389 -13.734143 -0.501571
21.055780 -14.743416 -0.538430
31.317505 -21.928753 -0.800838
19.331516 -13.536074 -0.164758
20.764997 -14.539808 -0.176975
26.212227 -18.353998 -0.223400
19.264105 -13.614523 0.164688
31.186781 -22.040638 0.266614
18.892941 -13.352211 0.484608
31.482792 -22.249838 0.807540
21.105385 -15.054325 -0.543037
19.049839 -13.588118 -0.163361
18.868635 -13.583474 0.162314
31.220490 -22.475536 0.268569
18.678335 -13.446478 0.482094
21.013653 -15.267312 -0.544084
25.640215 -18.628706 -0.663875
18.890087 -13.724451 -0.163012
18.749380 -13.747614 0.162314
18.786037 -13.774493 0.487958
24.534727 -17.989607 0.637278
19.352629 -14.320191 -0.504293
20.839437 -15.420372 -0.543037
21.900295 -16.205366 -0.570681
18.665102 -13.811448 -0.162105
20.996229 -15.536392 -0.182351
18.588636 -13.880793 0.161965
21.080475 -15.741537 0.183677
18.681141 -13.949869 0.488377
23.921873 -18.026424 -0.627435
31.387476 -23.652161 -0.823247
18.487961 -13.931678 -0.161616
21.754301 -16.393042 -0.190170
19.477694 -14.811183 0.170831
21.523369 -16.366751 0.188773
31.250277 -23.763264 0.274084
21.224718 -16.139650 0.558534
31.355600 -23.843353 0.825131
20.900276 -16.037346 -0.551833
31.378176 -24.077320 -0.828482
21.063019 -16.162222 -0.185352
31.289093 -24.008966 -0.275341
19.410955 -15.029568 0.171390
31.271011 -24.212603 0.276109
21.288601 -16.483395 0.563979
31.288630 -24.226246 0.828901
19.057800 -14.889585 -0.506597
19.029997 -14.867863 -0.168597
18.485910 -14.573116 0.164339
31.333382 -24.701246 0.278552
18.246763 -14.384588 0.486702
21.410896 -16.878990 0.571100
31.280165 -24.659294 0.834346
18.653286 -14.837494 -0.499267
31.414825 -24.988482 -0.840838
18.899527 -15.033362 -0.168597
31.373997 -24.956003 -0.279879
18.038288 -14.477257 0.161477
18.190714 -14.599592 0.488587
31.266508 -25.094027 0.839791
18.678492 -15.125545 -0.503456
18.596649 -15.059270 -0.167062
31.395931 -25.423923 -0.282043
18.313940 -14.963117 0.165107
31.292444 -25.566999 0.282113
17.946486 -14.662893 0.485445
31.294086 -25.568340 0.846493
18.468641 -15.224373 -0.501362
18.395082 -15.163735 -0.166433
21.604961 -17.809755 -0.195475
31.304047 -25.805065 -0.283230
17.859760 -14.853806 0.162175
19.220577 -15.985585 0.174532
31.321854 -26.050110 0.284417
17.933146 -14.914840 0.488587
19.124590 -15.905753 0.521047
21.590057 -18.116209 -0.590367
22.815458 -19.144444 -0.623875
31.416252 -26.361364 -0.859058
18.530163 -15.548654 -0.168877
21.479362 -18.023325 -0.195755
31.353436 -26.308655 -0.285743
17.866837 -15.125394 0.163431
18.023598 -15.258101 0.494660
18.846329 -16.096287 -0.519163
21.735239 -18.563648 -0.598744
31.435890 -26.848787 -0.865969
19.100933 -16.313738 -0.175369
17.984154 -15.496139 0.165735
19.567427 -16.860374 0.180326
18.154850 -15.643220 0.501990
31.318441 -26.985697 0.865969
31.479578 -27.364780 -0.873718
21.448324 -18.644743 -0.198407
31.410248 -27.304512 -0.290560
17.682842 -15.507436 0.164199
19.810495 -17.373339 0.183956
17.807178 -15.616477 0.496126
23.114004 -20.270437 0.643979
18.203121 -16.104761 -0.509110
31.441753 -27.817314 -0.879372
31.410437 -27.789608 -0.292794
19.680513 -17.565531 0.184166
31.356028 -27.986324 0.293422
17.700058 -15.797907 0.496964
17.995020 -16.202789 -0.507225
20.097658 -18.096014 -0.566492
31.495001 -28.358225 -0.887749
18.711931 -16.848299 -0.175788
20.168459 -18.159761 -0.189471
17.861029 -16.223816 0.168458
17.339506 -15.750099 0.490681
19.226650 -17.464258 0.544084
20.233126 -18.378477 0.572566
18.192015 -16.669910 -0.516859
20.749805 -19.013693 -0.589529
18.202934 -16.679916 -0.172367
20.230396 -18.537743 -0.191566
17.718771 -16.379063 0.168458
19.804195 -18.306810 0.188285
19.734261 -18.242163 0.562932
23.221527 -21.465759 0.662409
17.994667 -16.780298 -0.515393
31.492496 -29.367228 -0.901990
18.524738 -17.274597 -0.176835
22.781113 -21.243731 -0.217466
17.968473 -16.903053 0.172228
19.643686 -18.478935 0.188285
17.717379 -16.666845 0.509529
19.719959 -18.550686 0.567121
17.782278 -16.874752 -0.513508
31.488848 -29.881802 -0.909320
17.633421 -16.733492 -0.169714
20.839499 -19.775946 -0.200572
17.827509 -17.066126 0.172298
19.380552 -18.552843 0.187307
20.615765 -19.735302 0.199245
17.462931 -16.717119 0.506388
19.651213 -18.811943 0.569843
17.691877 -17.084848 -0.515184
31.492981 -30.412418 -0.917069
17.465145 -16.865894 -0.169505
31.427191 -30.348885 -0.305011
17.541807 -17.088472 0.170971
20.242199 -19.719078 0.197290
19.887342 -19.373392 0.581571
17.349577 -17.049383 -0.509529
17.481342 -17.178867 -0.171111
20.205893 -19.856276 -0.197779
31.417917 -30.874300 -0.307525
18.258421 -18.099777 0.179488
18.048952 -17.892130 0.532356
17.702070 -17.702070 -0.524398
23.626326 -23.626326 -0.699896
17.663097 -17.663097 -0.174392
19.275261 -19.275261 -0.190309
20.936922 -20.936922 -0.206715
17.606979 -17.761303 0.174601
17.526121 -17.679737 0.521466
18.822294 -19.153706 -0.562513
17.578377 -17.887886 -0.175090
20.963686 -21.332802 -0.208809
17.200115 -17.656412 0.172088
18.068810 -18.548151 0.542409
19.143171 -19.651014 0.574660
19.779531 -20.482304 -0.596440
31.558353 -32.679630 -0.951624
17.893963 -18.529741 -0.179837
17.266661 -18.036989 0.174322
17.996138 -18.799009 0.545131
18.856779 -19.870899 -0.573822
20.976446 -22.104563 -0.638325
17.270395 -18.199200 -0.175160
20.271547 -21.361755 -0.205598
17.677290 -18.791513 0.180117
18.828369 -20.015146 0.191845
17.687544 -18.802414 0.540733
19.609972 -21.029119 -0.602304
19.279623 -20.674866 -0.197360
19.542196 -21.140631 0.200990
17.997849 -19.469961 0.555393
20.242998 -22.091356 -0.627644
31.522881 -34.401188 -0.977383
19.618662 -21.410011 -0.202736
19.410757 -21.369577 0.201549
19.333029 -21.284004 0.602304
19.755093 -21.940254 -0.618430
31.502449 -34.987015 -0.986179
19.819166 -22.011414 -0.206785
31.448372 -34.926956 -0.328119
19.523174 -21.873869 0.204691
17.495533 -19.602087 0.550367
19.768246 -22.343937 -0.624922
31.547047 -35.657448 -0.997278
19.745596 -22.318336 -0.208042
19.588686 -22.336617 0.207413
20.399662 -23.261356 0.216000
19.545317 -22.287161 0.620943
31.477367 -36.210571 -1.005027
20.114279 -23.138832 -0.214045
31.417902 -36.142162 -0.334333
31.279486 -36.301628 0.334542
19.454500 -22.578060 0.624294
31.497816 -36.879204 -1.015917
19.989523 -23.404726 -0.214883
31.426025 -36.795147 -0.337823
30.625530 -36.176338 0.330912
19.444067 -22.968260 0.630367
30.490364 -36.016670 0.988482
31.277613 -37.275208 -1.019268
31.168011 -37.144588 -0.338521
30.155209 -36.257698 0.329236
19.166178 -23.044823 0.627854
30.021469 -36.096893 0.983456
30.090733 -36.829216 0.332029
29.787560 -36.458153 0.986179
30.037336 -37.425743 0.335031
29.493303 -36.747894 0.987016
30.235811 -38.353943 0.340965
28.812504 -36.548485 0.974870
0.157713 -0.219077 0.005654
0.136769 -0.197152 0.005026
0.127778 -0.191233 0.001606
0.116644 -0.174570 0.004398
0.109656 -0.167253 0.001396
0.126080 -0.192304 0.004817
0.151469 -0.235485 0.001955
0.135214 -0.210214 0.005236
0.128064 -0.202970 0.001676
0.117369 -0.186019 0.004607
0.147336 -0.238093 0.001955
0.136786 -0.221043 0.005445
0.145253 -0.239369 0.001955
0.119292 -0.196587 0.004817
0.138046 -0.232034 0.001885
0.127795 -0.214804 0.005236
0.135989 -0.233184 0.005654