# This PCD file was generated using the MATLAB® pcwrite function
# from Computer Vision System Toolbox®.
# .PCD v.7 - Point Cloud Data file format
VERSION .7
FIELDS x y z
SIZE 4 4 4
TYPE F F F
COUNT 1 1 1
WIDTH 909
HEIGHT 1
VIEWPOINT 0 0 0 1 0 0 0
POINTS 909
DATA ascii
26.871630 29.843969 -0.280367
27.347225 29.844259 -0.282601
28.071714 30.103228 -0.862199
27.933971 29.955517 -0.285952
28.622389 30.161703 -0.870995
28.510952 30.044273 -0.289164
29.217869 30.255989 -0.881048
29.070744 30.103638 -0.292166
29.789118 30.313627 -0.890262
29.696802 30.219685 -0.295796
27.047972 27.047972 -0.801257
27.010820 27.010820 -0.266684
27.140358 26.670755 -0.797068
27.017269 26.549795 -0.264450
27.199465 26.266218 -0.792042
27.111256 26.181036 -0.263124
27.282598 25.890221 -0.787854
27.164608 25.778250 -0.261448
27.339317 25.494326 -0.783037
27.271515 25.431099 -0.260331
27.354361 25.065655 -0.777173
27.315460 25.030006 -0.258656
27.423460 24.692194 -0.772985
27.354494 24.630096 -0.256980
27.488134 24.319447 -0.768796
27.448559 24.284433 -0.255863
27.518223 23.921225 -0.763770
27.478306 23.886528 -0.254188
27.634695 23.602259 -0.761257
27.564045 23.541918 -0.253071
27.625164 23.180264 -0.755393
27.553947 23.120506 -0.251116
27.610388 22.760246 -0.749529
27.631203 22.777407 -0.249999
27.776875 22.493269 -0.748691
27.712349 22.441019 -0.248952
27.815619 22.125542 -0.744503
27.781912 22.098732 -0.247835
27.881584 21.783482 -0.741152
27.658503 21.609192 -0.245042
27.919912 21.423702 -0.737173
27.941223 21.440056 -0.245880
28.119270 21.189390 -0.245810
27.992193 20.713135 -0.729424
27.836885 20.598211 -0.241761
28.042467 20.374044 -0.726074
27.853777 20.236954 -0.240365
28.121523 20.058887 -0.723561
27.915340 19.911819 -0.239387
28.164461 19.720968 -0.720210
28.014317 19.615835 -0.238759
28.145977 19.344194 -0.715393
28.167946 19.359293 -0.238619
28.114786 18.963663 -0.710367
28.136850 18.978544 -0.236944
28.245855 18.695524 -0.709529
28.192993 18.660534 -0.236036
28.273769 18.361200 -0.706178
28.262510 18.353888 -0.235268
28.106838 18.078926 0.233314
28.365465 18.070795 -0.704503
28.286659 18.020590 -0.234151
28.195879 17.790274 0.232755
28.029728 17.685442 0.694241
28.377945 17.732508 -0.700943
28.273235 17.667078 -0.232755
28.324543 17.527760 0.232546
28.259508 17.487514 0.696126
28.506033 17.468519 -0.700315
28.366648 17.383104 -0.232267
28.373833 17.217665 0.231708
28.317019 17.183189 0.693822
28.520271 17.136707 -0.696964
28.380117 17.052496 -0.231150
28.394096 16.892712 0.230661
28.328415 16.853636 0.690472
28.599813 16.846579 -0.695288
28.415836 16.738207 -0.230242
28.436771 16.583836 0.229823
28.362137 16.540310 0.687749
28.641838 16.536373 -0.692775
28.465561 16.434599 -0.229474
28.476227 16.275505 0.228985
28.409916 16.237604 0.685445
28.645826 16.207027 -0.689424
28.494751 16.121555 -0.228566
28.582273 16.006842 0.228706
28.480747 15.949985 0.683770
28.646257 15.878880 -0.686074
28.634352 15.872280 -0.228566
28.571829 15.675042 0.227519
28.478605 15.623898 0.680419
28.713444 15.590128 -0.684398
28.701468 15.583626 -0.228008
28.566591 15.349382 0.226402
28.464144 15.294336 0.676859
28.707159 15.263866 -0.681047
28.695097 15.257454 -0.226891
28.628653 15.062263 0.225844
31.188972 16.409311 0.738220
28.768320 14.975840 -0.679372
28.782801 14.983377 -0.226542
31.124451 16.202364 -0.244972
31.790478 16.373173 0.249650
32.042038 16.502735 0.754974
31.392183 15.995116 -0.738011
30.997362 15.793944 -0.242878
32.396488 16.329174 0.253280
32.506233 16.384491 0.762514
24.900560 12.414962 -0.582828
32.523731 16.215733 -0.761257
24.878569 12.403996 -0.194079
31.366686 15.638852 -0.244693
33.120705 16.333323 0.257818
33.087345 16.316874 0.772775
24.972008 12.179663 -0.581990
32.448334 15.826111 -0.756231
24.922951 12.155736 -0.193590
25.992491 12.677384 -0.201898
33.263557 16.223721 -0.258376
33.189922 16.008917 0.257259
33.111412 15.971048 0.770053
33.361259 15.912504 -0.774241
24.955875 11.903341 -0.193032
33.376789 15.919912 -0.258167
33.246960 15.680285 0.256631
33.186222 15.651639 0.768587
33.462605 15.603869 -0.773404
24.968170 11.642849 -0.192334
33.396629 15.573104 -0.257259
26.072155 12.019428 0.200432
33.309879 15.356065 0.256073
33.239830 15.323771 0.766702
25.173107 11.472046 -0.579477
33.506523 15.269802 -0.771309
24.986927 11.387199 -0.191705
33.522156 15.276927 -0.257190
26.066641 11.742166 0.199594
33.397030 15.044265 0.255724
33.299362 15.000269 0.765027
26.624010 11.853773 -0.610472
33.538033 14.932094 -0.769006
25.076212 11.164649 -0.191636
26.601795 11.843883 -0.203294
33.517166 14.922804 -0.256142
25.106382 11.047072 0.191496
26.204729 11.530356 0.199873
26.181318 11.520056 0.599163
33.392391 14.693004 0.764189
26.460548 11.505374 -0.604398
25.099323 10.913496 -0.191077
26.566584 11.551479 -0.202247
33.581921 14.601835 -0.255654
24.907824 10.701245 0.189262
26.175724 11.245978 0.198896
26.225737 11.267466 0.597906
28.016987 12.037047 0.638744
26.532335 11.262308 -0.603770
28.814686 12.231109 -0.655707
25.165989 10.682329 -0.190868
28.544159 12.116277 -0.216489
26.254421 11.009393 0.198756
29.057844 12.184965 0.219980
26.323063 11.038177 0.597906
28.296141 11.865557 0.642723
28.606274 11.849107 -0.648587
28.593374 11.843763 -0.216070
29.394449 12.025587 0.221725
29.684828 12.144383 0.671833
33.608257 13.749501 0.760629
29.329662 11.849953 -0.662618
33.890408 13.692614 -0.765655
29.391012 11.874740 -0.221306
32.210331 12.850618 0.242110
33.714966 13.450907 0.253420
32.176193 12.836999 0.725655
30.548212 12.033260 -0.687749
33.980701 13.385353 -0.765027
32.396351 12.761262 -0.243087
33.940807 13.369639 -0.254676
32.321247 12.569045 0.242110
32.296307 12.559347 0.725864
31.436092 12.067185 -0.705341
32.403786 12.438648 -0.242320
32.439049 12.290056 0.242180
33.227417 12.588742 0.744294
34.171673 12.776265 -0.764189
32.557930 12.172912 -0.242669
34.083660 12.574126 0.253629
34.001976 12.543992 0.759163
34.131546 12.422867 -0.760838
34.241566 12.462911 -0.254397
34.145035 12.259319 0.253280
34.044281 12.223145 0.757697
34.389442 12.177941 -0.764189
34.264183 12.133584 -0.253769
34.184631 11.937807 0.252791
34.149651 11.925591 0.757697
34.418781 11.851336 -0.762514
34.302578 11.811325 -0.253280
34.173874 11.600468 0.251954
34.176682 11.601419 0.756021
34.482967 11.537839 -0.761676
34.328480 11.486149 -0.252722
34.302296 11.311201 0.252163
34.229145 11.287079 0.754974
34.439713 11.190141 -0.758534
34.341812 11.158332 -0.252093
34.361603 10.999236 0.251884
34.326340 10.987947 0.754974
34.564655 10.898194 -0.759163
34.476028 10.870250 -0.252373
34.418079 10.687098 0.251605
34.306339 10.652402 0.752461
27.726755 8.476920 -0.607330
34.505470 10.549380 -0.755812
34.493073 10.545590 -0.251814
34.443001 10.366167 0.251116
34.359699 10.341096 0.751623
27.818846 8.240317 -0.607749
34.586628 10.245027 -0.755603
34.622135 10.255544 -0.252093
34.484150 10.051213 0.250767
34.410240 10.029670 0.750786
27.793591 7.969684 -0.605655
34.636272 9.931791 -0.754765
34.556515 9.908921 -0.250976
34.570549 9.749904 0.250767
34.457962 9.718151 0.749948
32.341980 8.969225 -0.703037
34.798698 9.650533 -0.756440
34.728394 9.631037 -0.251605
34.654316 9.447851 0.250767
34.541458 9.417082 0.749948
32.390045 8.678887 -0.702409
34.842960 9.336143 -0.755603
34.772484 9.317259 -0.251325
34.706432 9.137442 0.250557
34.622318 9.115296 0.749948
32.503269 8.405916 -0.703246
34.923107 9.031730 -0.755603
34.852467 9.013460 -0.251325
34.697620 8.812073 0.249929
34.632717 8.795589 0.748482
32.565685 8.119537 -0.703037
34.961788 8.716953 -0.754765
34.842472 8.687203 -0.250697
34.773197 8.508947 0.249929
34.669308 8.483525 0.747644
32.596413 7.825706 -0.702199
34.987919 8.399856 -0.753718
34.916954 8.382819 -0.250697
34.846127 8.205174 0.249929
34.742020 8.180659 0.747644
32.507599 7.504971 -0.698849
35.079372 8.098711 -0.754137
34.920570 8.062049 -0.250208
34.848133 7.885327 0.249440
34.763329 7.866138 0.746597
32.649940 7.238317 -0.700524
35.070621 7.774970 -0.752461
32.734406 7.257043 -0.234082
34.979832 7.754842 -0.250139
34.915615 7.580924 0.249440
34.840420 7.564596 0.746807
32.653187 6.940649 -0.699267
35.078461 7.456157 -0.751205
32.728020 6.956556 -0.233593
35.046173 7.449295 -0.250139
34.980442 7.275942 0.249440
34.895317 7.258236 0.746597
32.722305 6.657429 -0.699477
32.865875 6.686637 -0.234151
35.139244 7.149160 -0.250348
35.042603 6.970407 0.249440
34.918102 6.945643 0.745760
32.749714 6.365900 -0.698849
32.922974 6.399578 -0.234151
35.161030 6.834612 -0.250069
35.052975 6.655015 0.249091
35.026497 6.649988 0.746807
32.784359 6.076222 -0.698430
35.300941 6.542643 -0.752042
32.879242 6.093808 -0.233453
35.109718 6.348871 0.249091
35.043842 6.336959 0.745969
35.346844 6.232603 -0.751833
35.245411 6.214717 -0.249859
35.163784 6.042243 0.249091
35.087955 6.029213 0.745760
35.429470 5.928860 -0.752461
35.347614 5.915162 -0.250208
35.215172 5.735155 0.249091
35.139233 5.722787 0.745760
35.519360 5.625714 -0.753299
35.388012 5.604910 -0.250139
35.263878 5.427630 0.249091
35.187836 5.415926 0.745760
35.567097 5.315538 -0.753299
35.485023 5.303272 -0.250488
35.309902 5.119692 0.249091
35.243652 5.110086 0.745969
35.612129 5.004959 -0.753299
35.490341 4.987843 -0.250208
35.402775 4.818106 0.249440
35.326527 4.807730 0.746807
35.614799 4.688777 -0.752461
35.522602 4.676640 -0.250139
35.443474 4.508979 0.249440
35.317551 4.492959 0.745760
35.703979 4.383897 -0.753508
35.571987 4.367691 -0.250208
35.481472 4.199509 0.249440
35.405056 4.190464 0.746807
35.740875 4.072158 -0.753508
35.608749 4.057104 -0.250208
35.586349 3.897339 0.249929
35.480030 3.885695 0.747644
35.765106 3.759064 -0.753299
35.722355 3.754571 -0.250767
35.619003 3.586645 0.249929
35.512585 3.575929 0.747644
35.846306 3.451607 -0.754346
35.753761 3.442696 -0.250767
35.658905 3.276593 0.249999
35.542439 3.265891 0.747644
35.865105 3.137790 -0.754137
35.822289 3.134044 -0.251046
35.676174 2.964462 0.249929
35.569584 2.955605 0.747644
35.940956 2.828614 -0.755184
35.848274 2.821320 -0.251046
35.740574 2.655983 0.250208
35.673786 2.651020 0.749320
35.964272 2.514867 -0.755184
35.871529 2.508382 -0.251046
35.852196 2.349877 0.250837
35.735466 2.342226 0.750157
36.064682 2.205810 -0.756859
35.971901 2.200136 -0.251605
35.871338 2.036922 0.250837
35.794472 2.032557 0.750995
35.992699 1.886297 -0.754974
35.949787 1.884048 -0.251325
33.230877 1.596193 0.232267
35.877758 1.723332 0.250767
33.084591 1.589167 0.693822
33.440800 1.460057 -0.701152
33.267494 1.452490 -0.232476
33.133629 1.301824 0.231499
32.977318 1.295682 0.691309
33.212467 1.159805 -0.696126
33.049049 1.154098 -0.230870
32.943825 1.006525 0.230102
32.867451 1.004191 0.688796
33.221321 0.869931 -0.696126
33.027874 0.864865 -0.230661
32.791397 0.715511 0.228985
32.675053 0.712972 0.684608
32.977741 0.575629 -0.690890
33.264122 0.580627 -0.232267
32.916378 0.430899 0.229823
32.600056 0.426758 0.682932
32.851543 0.286691 -0.688168
36.380634 0.317489 -0.762095
32.997940 0.287969 -0.230382
32.888885 0.143506 0.229614
32.722511 0.142780 0.685445
32.802803 0.000000 -0.687121
36.382019 0.000000 -0.762095
33.069195 0.000000 -0.230870
33.158875 -0.144684 0.231499
32.812489 -0.143172 0.687330
32.331676 -0.282154 -0.677278
36.400627 -0.317663 -0.762514
33.197926 -0.289714 -0.231778
30.966593 -0.405375 0.216210
33.086357 -0.433124 0.231010
30.870583 -0.404118 0.646702
32.809990 -0.429506 0.687330
32.128056 -0.560797 -0.673089
32.954178 -0.575217 -0.230102
30.901892 -0.674282 0.215791
33.181293 -0.724018 0.231708
30.885872 -0.673932 0.647121
32.894951 -0.717770 0.689215
32.021996 -0.838525 -0.670995
36.539455 -0.956819 -0.765655
32.388107 -0.848112 -0.226193
30.864845 -0.943006 0.215581
32.534027 -0.994004 0.227240
30.788876 -0.940685 0.645236
32.947395 -1.006634 0.690472
29.175812 -1.018842 -0.611519
36.669598 -1.280531 -0.768587
32.699272 -1.141884 -0.228427
30.705561 -1.206425 0.214534
33.433388 -1.313601 0.233593
30.779495 -1.209330 0.645236
32.977318 -1.295682 0.691309
29.265694 -1.277768 -0.613613
32.232216 -1.407289 -0.675812
36.667015 -1.600917 -0.768796
31.529194 -1.376594 -0.220329
33.826950 -1.476916 -0.236385
27.677414 -1.329442 0.193451
30.534052 -1.466656 0.213417
30.767769 -1.477882 0.645236
32.755043 -1.573337 0.686911
28.973873 -1.518456 -0.607749
31.320137 -1.641419 -0.656964
29.498798 -1.545967 -0.206226
32.135117 -1.684130 -0.224657
33.942589 -1.778856 -0.237293
27.544954 -1.564116 0.192613
30.739731 -1.745528 0.214953
33.595062 -1.907666 0.234919
28.966972 -1.644864 0.607749
30.763683 -1.746889 0.645445
28.101311 -1.718750 -0.589739
30.925413 -1.891479 -0.649006
27.607737 -1.688561 -0.193102
29.194731 -1.785626 -0.204202
27.590126 -1.808352 0.193032
29.076900 -1.905801 0.203434
27.694489 -1.815193 0.581362
29.739651 -1.949240 0.624294
28.284712 -1.977860 -0.593927
32.852554 -2.297274 -0.689843
27.601925 -1.930115 -0.193171
27.413740 -2.037193 0.191915
29.272844 -2.175348 0.614869
32.214088 -2.393920 0.676650
33.779427 -2.510245 0.709529
28.286308 -2.226181 -0.594346
30.768089 -2.421501 -0.646492
27.544155 -2.167772 -0.192892
27.345091 -2.272202 0.191566
36.692646 -3.048924 0.257050
26.761879 -2.223741 0.562513
27.967012 -2.446796 -0.588063
30.775665 -2.692522 -0.647121
27.514227 -2.407183 -0.192822
27.224644 -2.501593 0.190868
26.751410 -2.458109 0.562723
36.647541 -3.367436 0.770890
28.263052 -2.721422 -0.594765
27.741016 -2.671156 -0.194568
32.090790 -3.089992 -0.225076
36.878529 -3.550999 -0.258656
26.992838 -2.718036 0.189402
26.768730 -2.695469 0.563561
28.347601 -2.979453 -0.597068
27.239290 -2.862965 -0.191217
27.047613 -2.962195 0.189960
26.952896 -2.951822 0.567958
28.052315 -3.196158 -0.591414
27.183464 -3.097164 -0.191007
26.782404 -3.169906 0.188285
26.826824 -3.175164 0.565864
27.160030 -3.334832 -0.573194
27.075998 -3.324515 -0.190449
27.259632 -3.467863 0.191845
26.956781 -3.429336 0.569215
29.297400 -3.727100 0.618639
36.884571 -4.692310 0.778849
26.921738 -3.544314 -0.568796
27.204584 -3.581551 -0.191566
26.524834 -3.609871 0.186888
26.470131 -3.602427 0.559581
26.830379 -3.770764 -0.567540
28.711475 -4.035135 -0.607330
26.637562 -3.743665 -0.187796
26.136057 -3.789548 0.184375
26.101278 -3.784505 0.552461
26.885443 -4.018056 -0.569424
27.058815 -4.043967 -0.191007
26.457792 -4.072244 0.186888
26.729315 -4.114035 0.566492
26.681486 -4.225932 -0.565864
30.206760 -4.784281 -0.640629
26.587923 -4.211113 -0.187936
37.254696 -5.900564 -0.263333
26.559425 -4.325477 0.187866
28.355715 -4.618021 0.200572
26.455568 -4.308563 0.561466
26.781643 -4.481710 -0.568796
37.391747 -6.257233 -0.794137
26.510712 -4.436371 -0.187656
37.251099 -6.233696 -0.263682
26.668497 -4.582486 0.188913
26.229748 -4.507095 0.557487
26.938431 -4.749972 -0.572985
37.493256 -6.611073 -0.797487
26.589161 -4.688386 -0.188494
37.421783 -6.598470 -0.265288
26.302767 -4.756315 0.186609
37.294235 -6.743896 0.264590
26.396021 -4.773178 0.561885
27.063070 -5.015844 -0.576545
37.561932 -6.961692 -0.800210
26.861870 -4.978553 -0.190728
37.431602 -6.937537 -0.265777
26.329029 -4.998723 0.187098
25.872068 -4.911965 0.551623
26.694403 -5.188867 -0.569634
26.699608 -5.189878 -0.189890
26.245174 -5.220490 0.186819
25.975304 -5.166809 0.554765
27.128164 -5.519288 -0.579896
26.692499 -5.430650 -0.190170
29.387226 -5.978899 -0.209368
27.030787 -5.622412 0.192753
26.633986 -5.539877 0.569843
27.010511 -5.741261 -0.578430
27.387465 -5.821385 -0.195475
29.607807 -6.293334 -0.211323
30.996742 -6.588561 -0.221236
27.215223 -5.909004 0.194428
26.985203 -5.859062 0.578430
26.783688 -5.937800 -0.574660
26.769384 -5.934629 -0.191426
31.279762 -6.934556 -0.223680
27.240646 -6.163929 0.194987
29.600918 -6.698004 0.211881
27.362103 -6.191412 0.587644
26.789301 -6.184797 -0.575917
37.855717 -8.739681 -0.813822
26.775038 -6.181504 -0.191845
29.707819 -6.858591 -0.212859
31.510361 -7.274740 -0.225774
29.677610 -6.988150 0.212859
37.639660 -8.862963 0.269965
29.545313 -6.956998 0.635812
31.627888 -7.447379 0.680629
27.103727 -6.507030 -0.583875
37.875225 -9.093037 -0.815917
30.045498 -7.213286 -0.215721
37.795097 -9.073800 -0.271362
26.866667 -6.574232 0.193102
37.716293 -9.229118 0.271082
31.619961 -7.737355 0.681885
37.611828 -9.203556 0.811100
27.055613 -6.745722 -0.584084
27.089996 -6.754295 -0.194917
37.860016 -9.439563 -0.272409
26.255825 -6.668130 0.189122
26.648005 -6.767731 0.575917
37.685123 -9.570802 0.814451
27.547440 -7.124252 -0.596021
37.904346 -9.802731 -0.820105
26.139349 -6.760096 -0.188494
37.853649 -9.789619 -0.272967
26.119274 -6.876631 0.188564
26.549257 -6.989836 0.575079
37.764530 -9.942571 0.818011
27.455248 -7.356612 -0.595393
38.020161 -10.187471 -0.824503
26.204929 -7.021590 -0.189402
26.241575 -7.154274 0.189890
37.924866 -10.339505 0.274433
26.236460 -7.152880 0.569634
26.696344 -7.403551 -0.580314
38.055054 -10.553600 -0.827226
26.460648 -7.338187 -0.191705
26.226267 -7.396572 0.190239
27.814278 -7.844438 0.201758
26.413603 -7.449406 0.574869
37.854687 -10.676126 0.823875
26.457731 -7.586632 -0.576545
29.465820 -8.449188 -0.642095
38.192162 -10.951427 -0.832252
26.309092 -7.544011 -0.191077
27.226351 -7.935758 0.197989
26.981083 -7.864268 0.588691
26.917753 -7.973402 -0.588063
38.258102 -11.332566 -0.835812
26.923002 -7.974957 -0.196034
26.878372 -8.089472 0.195964
27.141193 -8.168572 0.593718
37.978523 -11.430239 0.830786
26.445589 -8.085228 -0.579267
30.365578 -9.283689 -0.665131
38.272484 -11.701073 -0.838325
26.737629 -8.174514 -0.195196
28.391996 -8.680305 -0.207274
26.558458 -8.246620 0.194149
27.708601 -8.603749 0.607749
28.071270 -8.850837 -0.616545
38.369152 -12.097748 -0.842723
27.180271 -8.569906 -0.198966
28.925529 -9.120185 -0.211742
38.271729 -12.067030 -0.280158
26.980715 -8.636595 0.197779
27.289677 -8.735495 0.600210
28.737001 -9.198787 0.632042
28.050014 -9.114002 -0.617801
38.366714 -12.466101 -0.845027
26.590893 -8.639905 -0.195196
28.350304 -9.211572 -0.208111
38.488319 -12.505613 -0.282532
30.570070 -10.080498 0.224727
38.452381 -12.679693 0.282671
27.649174 -9.117330 0.609843
26.348135 -8.815963 -0.581990
27.111912 -9.071519 -0.199594
28.037918 -9.517591 0.206715
25.078678 -8.513064 0.554765
27.536915 -9.481720 -0.610053
38.445808 -13.237953 -0.851728
26.644064 -9.174287 -0.196732
28.932163 -9.962143 -0.213627
25.404816 -8.871759 0.187866
30.370604 -10.605889 0.224587
25.192209 -8.797513 0.558953
27.047878 -9.578156 -0.601047
29.272024 -10.365767 -0.650472
38.555004 -13.653044 -0.856754
26.289631 -9.309647 -0.194707
32.020752 -11.339143 -0.237153
25.862886 -9.285726 0.191845
25.377951 -9.111615 0.564817
26.324413 -9.581303 -0.586807
25.784536 -9.384804 -0.191566
38.535854 -14.025905 -0.286301
26.315626 -9.708347 0.195824
25.531967 -9.419240 0.570053
25.790295 -9.642596 -0.576754
25.917088 -9.690002 -0.193171
25.790401 -9.771109 0.192543
25.673182 -9.726698 0.575079
25.714500 -9.870872 -0.576964
26.722546 -10.257824 -0.599581
38.707088 -14.858259 -0.868482
26.503702 -10.173819 -0.198198
25.517754 -9.923311 0.191147
25.391644 -9.874270 0.570681
27.385704 -10.649717 0.615498
25.841331 -10.179172 -0.581780
28.315699 -11.153851 -0.637487
29.673811 -11.688825 -0.668063
25.678900 -10.115188 -0.192683
38.778858 -15.275399 -0.290979
25.913155 -10.338301 0.194777
25.945248 -10.351104 0.585131
26.113041 -10.550353 -0.589948
38.942451 -15.733771 -0.879791
25.710182 -10.387588 -0.193590
25.895992 -10.594330 0.195336
26.418386 -10.808047 0.597906
26.786631 -11.095386 -0.607330
29.880947 -12.377094 -0.677487
38.932983 -16.126570 -0.882723
26.182108 -10.844984 -0.197849
38.903618 -16.114407 -0.293981
25.950104 -10.881782 0.196453
25.834404 -10.833264 0.586807
25.998558 -11.035733 -0.591623
29.449696 -12.500654 -0.670157
39.011642 -16.559460 -0.887749
26.058857 -11.061329 -0.197639
27.724930 -11.768535 -0.210276
38.964020 -16.539246 -0.295517
26.442167 -11.360452 0.200921
26.106319 -11.216160 0.595184
39.058189 -16.982985 -0.892147
25.924656 -11.272362 -0.197360
28.657429 -12.460605 -0.218164
38.964931 -16.942434 -0.296634
27.568510 -12.130435 0.210276
30.479130 -13.411138 0.232476
26.446701 -11.636827 0.605236
30.597061 -13.622689 -0.701571
39.127705 -17.420776 -0.897173
28.986092 -12.905439 -0.221515
39.034847 -17.379433 -0.298309
26.495159 -11.935199 0.202875
27.589247 -12.428050 0.211253
38.976879 -17.557802 0.298449
26.189178 -11.797364 0.601676
27.283052 -12.290119 0.626807
28.686859 -12.922487 0.659058
26.992630 -12.301250 -0.621362
39.156143 -17.844482 -0.901362
29.008858 -13.220098 -0.222563
39.100082 -17.818933 -0.299985
26.399078 -12.170142 0.202945
28.969061 -13.354920 0.222702
38.994717 -17.976810 0.299775
29.045128 -13.389988 0.669948
38.860004 -17.914707 0.896336
26.992989 -12.587037 -0.623875
28.533373 -13.305330 -0.659477
39.252644 -18.303808 -0.907226
26.454479 -12.335926 -0.203783
29.082708 -13.561489 -0.224029
39.006538 -18.189047 -0.300473
26.282825 -12.395785 0.202875
26.639404 -12.563959 0.616964
38.946339 -18.368286 0.901990
39.307991 -18.748951 -0.912252
28.863974 -13.767409 -0.223261
39.153194 -18.675116 -0.302847
26.443855 -12.755002 0.204970
39.107365 -18.863153 0.303126
39.018696 -18.820385 0.907435
26.975880 -13.157016 -0.628691
39.394489 -19.213976 -0.918116
26.603655 -12.975470 -0.206645
39.303307 -19.169502 -0.305291
26.600597 -13.117963 0.207064
39.165478 -19.314276 0.304872
39.068176 -19.266293 0.912461
26.698984 -13.311623 -0.624922
39.422161 -19.655165 -0.922723
27.133749 -13.528388 -0.211672
39.349304 -19.618839 -0.306966
39.290115 -19.803848 0.307175
39.184250 -19.750488 0.919163
26.376917 -13.439711 -0.620105
39.534199 -20.143679 -0.929425
27.567070 -14.046124 -0.216000
39.408257 -20.079510 -0.308781
39.329159 -20.255848 0.308851
39.259274 -20.219856 0.925027
27.313942 -14.218739 -0.645027
39.622952 -20.626404 -0.935707
27.620844 -14.378501 -0.217396
39.515369 -20.570400 -0.311015
39.434090 -20.747278 0.311085
39.329075 -20.692026 0.930891
27.144684 -14.433084 -0.643979
28.521780 -15.165299 -0.676650
39.688618 -21.102812 -0.941571
27.308903 -14.520402 -0.215930
28.580317 -15.196424 -0.225983
39.537430 -21.022425 -0.312621
39.462944 -21.204205 0.312760
39.358372 -21.148016 0.935917
28.432285 -15.437471 -0.677697
39.748966 -21.581928 -0.947435
28.349949 -15.392767 -0.225215
39.633686 -21.519335 -0.314855
39.521877 -21.682446 0.314715
39.417755 -21.625320 0.941781
39.812702 -22.068541 -0.953508
28.468178 -15.780169 -0.227240
39.680531 -21.995275 -0.316740
39.610352 -22.182863 0.316949
39.471786 -22.105263 0.947644
39.853550 -22.548054 -0.959163
39.782990 -22.508133 -0.319113
39.693081 -22.686466 0.319183
39.589863 -22.627472 0.955184
39.906357 -23.039946 -0.965236
39.827538 -22.994440 -0.321068
39.735466 -23.173038 0.321138
39.632717 -23.113117 0.961048
40.048355 -23.590284 -0.973613
39.901073 -23.503529 -0.323302
39.841110 -23.702971 0.323651
39.704460 -23.621672 0.967749
40.072353 -24.077898 -0.979268
39.994453 -24.031092 -0.325746
39.906315 -24.215746 0.325885
39.804516 -24.153973 0.975289
40.133495 -24.593838 -0.985969
40.064587 -24.551609 -0.328049
39.965580 -24.731451 0.328119
39.864269 -24.668760 0.981990
30.946966 -19.337811 -0.764398
40.256493 -25.155048 -0.994346
40.120178 -25.069870 -0.330283
40.018864 -25.250023 0.330353
39.850410 -25.143736 0.987016
40.296837 -25.671917 -1.000838
40.161324 -25.585585 -0.332448
40.124992 -25.809263 0.333076
30.497795 -19.616840 0.759582
39.999451 -25.728512 0.996231
31.283936 -20.316027 -0.781362
40.347977 -26.202282 -1.007749
30.535252 -19.829824 -0.254188
40.204887 -26.109360 -0.334682
40.207657 -26.361296 0.335659
40.066044 -26.268450 1.003561
30.671930 -20.301308 -0.770472
40.484615 -26.796183 -1.016964
40.350750 -26.707581 -0.337823
40.275406 -26.911167 0.338172
40.176113 -26.844820 1.012147
30.700817 -20.707962 -0.775707
40.514469 -27.327354 -1.023665
30.416647 -20.516287 -0.256142
40.373146 -27.232031 -0.339987
30.764921 -20.947088 0.259843
40.369659 -27.486723 0.340965
40.229565 -27.391335 1.019477
30.568377 -21.009062 -0.776964
40.628750 -27.923367 -1.032671
40.496574 -27.832523 -0.343059
40.415829 -28.037458 0.343408
40.292942 -27.952209 1.027226
40.719307 -28.511967 -1.041257
40.620758 -28.442963 -0.346201
40.504433 -28.625704 0.346271
40.406727 -28.556652 1.036440
40.794521 -29.098450 -1.049634
40.688503 -29.022827 -0.348923
40.569595 -29.205929 0.348993
40.472431 -29.135983 1.044608
40.830219 -29.664892 -1.057173
40.724922 -29.588388 -0.351437
40.635754 -29.795366 0.351786
40.539143 -29.724529 1.052985
40.987709 -30.329309 -1.068063
40.851009 -30.228157 -0.354788
40.758789 -30.436031 0.355137
40.630680 -30.340368 1.062200
41.072800 -30.950575 -1.077278
40.969002 -30.872358 -0.358139
40.841866 -31.056877 0.358208
40.650864 -30.911636 1.069739
41.142212 -31.569530 -1.086283
41.015369 -31.472198 -0.360931
40.948814 -31.705959 0.361559
40.759014 -31.559000 1.079791
41.211803 -32.198189 -1.095498
41.085880 -32.099808 -0.364003
41.016102 -32.334488 0.364631
40.827526 -32.185825 1.089006
41.336121 -32.880234 -1.106388
41.211140 -32.780823 -0.367633
41.169098 -33.041695 0.368541
40.919361 -32.841259 1.099058
31.786068 -25.739851 -0.856754
41.443874 -33.560589 -1.117069
41.265446 -33.416100 -0.370705
41.243149 -33.697063 0.371822
41.057037 -33.545006 1.110577
41.558300 -34.258018 -1.128168
41.373501 -34.105682 -0.374335
41.293488 -34.343433 0.374963
41.625385 -34.927845 -1.138221
41.503277 -34.825382 -0.378245
41.450146 -35.090137 0.379152
41.220776 -34.895962 1.131310
41.653507 -35.575455 -1.147435
41.562778 -35.497967 -0.381596
41.513550 -35.770363 0.382573
36.930767 -31.821585 1.021152
41.771561 -36.311462 -1.159372
41.636314 -36.193893 -0.385156
35.831814 -31.423656 0.332727
39.423870 -34.879295 -1.102618
41.768242 -36.953419 -0.389345
34.713894 -30.983335 0.974660
31.010677 -27.922140 -0.291328
39.303970 -35.389454 -0.369239
34.427395 -31.271645 0.974241
30.472361 -27.922773 -0.865760
39.229572 -35.947277 -0.371473
41.679131 -38.527790 0.396256
30.520008 -28.460369 -0.874137
38.884861 -36.260719 -1.113718
30.694166 -28.622774 -0.293003
39.024082 -36.390545 -0.372520
30.255981 -28.711855 -0.873718
30.392445 -28.841354 -0.292515
28.545534 -27.807827 0.834765
37.102283 -36.460312 -1.089634
33.350777 -32.773720 -0.326444
29.756042 -29.497498 0.292515
28.666780 -28.918043 0.284277
29.716982 -29.977451 0.884189
32.304119 -32.872913 -0.321766
36.538139 -37.836353 -0.367214
25.239611 -26.365643 0.254816
28.546686 -30.081930 -0.868692
28.024689 -29.791121 0.856754
27.865774 -29.882383 -0.285254
28.223846 -30.532387 0.290281
28.340502 -30.658583 0.874555
28.110624 -30.677362 -0.290490
36.407398 -40.081421 1.134241
30.184116 -34.418388 0.319602
30.375992 -34.637180 0.965027
34.764885 -40.346638 1.115603
26.689533 -32.090675 0.291398
26.454184 -31.807697 0.866597
25.394403 -31.640772 0.849843
0.128507 -0.178507 0.004607
0.142496 -0.205407 0.001745
0.153865 -0.221796 0.005654
0.155556 -0.232806 0.001955
0.166635 -0.249386 0.006283
0.137070 -0.209066 0.001745
0.126080 -0.192304 0.004817
0.151469 -0.235485 0.001955
0.162257 -0.252256 0.006283
0.128064 -0.202970 0.001676
0.117369 -0.186019 0.004607
0.147336 -0.238093 0.001955
0.157830 -0.255050 0.006283
0.129690 -0.213723 0.001745
0.119292 -0.196587 0.004817
0.138046 -0.232034 0.001885
0.127795 -0.214804 0.005236
0.135989 -0.233184 0.005654